127.88 133.67 139.62 145.44 151.27 156.38 160.57 163.15 167.59 165.67 165.05 165.55 165.16 164.81 166.63 171.43 174.45 176.38 179.33 178.03 172.29 175.37 175.49 171.78 168.05 160.34 149.46 152.57 154.39 157.44 157.52 153.4 150.24 146.13 143.85 143.07 144.02 144.94 150.29 146.48 145.34 141.11 135.67 134.97 137.47 140.66 141.53 140.34 140.07 138.7 135.94 137.43 139.76 138.14 137.22 136.62 137.59 134.58 133.25 133.24 132.55 133.33 134.06 132.23 131.72 133.08 132.85 135.26 137.65 138.45 135.24 135.3 136.8 137.88 138.99 141.83 142.75 145.9 146.32 151.91 155.31 157.37 160.49 161.39 164.35 166.68 170.09 172.99 174.77 177.24 179.9 181.18 186.23 194.45 197.83 206.11 205.67 205.73 205.58 204.03 202.97 205.35 204.96 202.01 198.05 197.59 195.15 198.19 198.94 201.6 204.56
120.3 129.8 135.7 142.11 148.85 156.43 159.45 162.34 163.44 161.91 160.55 159.39 160.67 164.81 161.21 165.02 167.36 167 168.45 168.64 169.84 175.72 172.12 170.05 167.22 160.07 149.46 143.19 144.95 146.85 146.34 146.85 148.58 141.93 140.52 137.21 137.56 136.93 143.93 146.48 141.03 142.03 137.66 133.82 132.7 135.29 136.54 140.09 138.48 138.4 134.45 134.31 135.47 134.47 134.7 135.21 134.53 134.58 131.43 132.01 131.82 131.99 131.54 130.89 132.77 133.22 134.81 134.74 135.71 134.26 134.59 134.91 137.43 137.08 137.16 140.13 141.56 144.68 146.26 147.11 154.4 156.39 160.88 164.01 167.18 167.71 171.26 173.73 169.93 172.12 177.58 179.26 185.6 191.66 195.56 198.44 205.4 205.73 205.06 204.51 203.75 202.43 201.76 199.86 195.19 193.74 191.95 193.48 193.98 196.64 196.45
122.67 124.12 130.93 136.48 145.62 152.72 158.35 158.36 157.21 157.15 155.99 154.99 155.16 158.29 155.05 156.56 158.23 159.09 161.6 161.16 165.57 168.18 165.76 164.51 160.77 154.26 146.3 140.7 138.65 139.81 140.69 142.39 144.68 142.12 139.78 135.92 132.48 131.25 134.61 139.84 132.49 136.5 138.76 136.68 133.25 131.52 134.64 136.1 138.96 135.9 133.61 130.32 130.4 130.69 131.87 134.18 137.08 132.37 129.12 131.59 131.05 129.39 129.54 130.77 130.37 130.48 130.77 132.96 133.96 133.08 133.44 132.77 135 137.09 136.91 140.81 141.85 143.8 144.55 145.75 149.5 153.72 157.77 163.82 167.18 165.25 167.17 169.32 170.24 169.02 174.9 177.7 183.67 189.61 192.38 196.21 198.73 204.45 198.83 200.12 200.78 198.71 197.08 195.58 193.72 190.66 188.76 189.48 189.72 192.23 190.17
120.82 118.71 122.85 128.71 138.84 146.78 153.75 156.95 158.24 159.47 154.83 152.1 151.91 152.82 151.02 151.58 152.6 154.72 156.93 155.51 161.94 162.66 162.26 159.54 153.19 148.59 142.16 140.7 136.23 134.22 136.17 139.61 141.42 139.13 137.76 134.3 131.43 127.26 128.45 132.87 132.49 130.61 132.74 133.09 134.74 132.02 130.18 132.48 135.58 131.59 130.58 131.06 128.79 128.75 130.45 131.05 132.83 129.99 129.12 127.33 127.95 126.13 128.56 127.83 128.37 128.29 129.67 131.78 131.73 133.47 132.71 132.77 133.79 137.21 136.51 139.52 140.47 142.53 145 147.61 149.11 150.58 152.98 157.86 162.18 161.24 165.16 168.73 169.11 168.83 176.22 176.84 184.01 188.9 192.52 193.38 194.59 197.09 198.84 195.12 193.1 193.96 194.57 191.75 188.93 187.64 185.2 184.72 185.99 186.09 186.79
115.47 118.71 121.24 125.66 130.34 143.89 150.06 152.72 152.47 156.62 156.05 150.71 149.18 149.16 151.02 148.99 148.63 150.48 153.06 151.17 153.31 160.54 159.3 154.4 146.71 143.22 138.94 138.34 133.5 131.45 132.67 138.08 139.26 136.16 133.22 129.95 129.74 124.18 125.81 129.61 127.63 126.65 128.48 129.44 130.82 133.23 131.94 129.62 131.79 129.07 128.28 129.1 129.84 127.48 129.42 127.62 129.19 128.73 126.55 124.4 125.59 128.04 127.09 125.18 125.61 128.36 126.42 128.74 131.79 135.05 132.16 132.47 134.52 135.37 139.39 143.61 144.15 143.16 144.29 147 147.22 149.53 150.42 150.8 157.01 161.24 164.19 165.2 166.88 166.34 174.51 177.78 183.16 186.87 189.17 189.78 192.08 193.06 193.57 190.63 187.99 190.95 187.39 187.22 185.04 184.89 182.99 181.31 181.37 182.69 184.61
9999 116.2 120.44 124.32 130.69 135.69 145.4 148.87 149.87 153.17 154.99 150.59 147.79 147.28 148.52 145.83 146.97 147.88 149.01 147.66 148.41 152.83 150.18 145.19 141.54 138.27 135.54 135.04 133.5 130.5 128.74 131.84 132.72 130.93 128.7 127.68 127.1 124.74 123.71 125.95 125 126.65 126.82 127.58 126.54 128.51 129.14 128.6 128.74 128.73 125.84 125.54 127.74 125.84 126.57 126.42 127.29 127.01 125.19 124.93 122.49 125.33 123.02 123.99 125.87 127.19 124.59 125.08 127.07 129.27 132.62 131.61 134.52 135.94 140.24 142.35 143.55 142.6 145.82 146.73 146.94 147.36 149.83 149.37 151.86 159.22 159.53 164.13 163.33 165.52 172.57 176.3 181.25 184.28 186.21 188.79 190.48 189.95 187.74 190.63 185.89 184.89 183.93 184.08 181.41 181.48 180.5 179.44 179.33 180.87 183.29
9999 119.24 120.44 125.25 128.88 131.91 137.16 140.18 148.18 150.12 153.64 155.23 147.99 144.34 144.87 145.83 143.58 144.26 146.3 145.22 142.74 144.87 145.28 139.44 137.55 134.85 134.16 135.92 132.62 129.42 127.29 125.56 127.31 126.83 125.39 126.03 125.04 122.6 121.93 124.47 122.32 123.08 122 124.1 123.58 122.88 125.62 127.36 126.78 127.14 124.69 124.96 128.32 126.18 125.37 125.49 125.46 125.36 125.89 124.93 122.47 123.98 122.28 125.86 128.13 127.9 124.21 124.3 127.46 130.23 131.08 130.56 133.01 136.68 140.36 141.26 142.68 143.44 144.76 144.91 146.49 146.51 148.39 148.18 150.94 154.63 158.01 161.92 161.8 166.24 169.85 174.17 179.59 182.91 184.82 185.85 185.25 187.17 183.55 185.25 182.23 182.44 179.33 179.76 176.51 176.62 178.81 178.34 180.22 183.55 184.81
9999 119.83 121.95 123.26 127.49 132.31 135.4 137.57 140.81 148.54 150.1 149.96 150.58 145.37 141.41 142.71 141.15 141.09 145.01 143.85 138.64 138.43 138.08 136.99 135.31 131.06 131.04 134.05 131.09 126.71 126.33 124.77 122.82 122.62 121.3 123.48 124.04 121.33 121.42 122.79 121.38 120.92 122 124.67 124.13 124.4 124.66 125.55 125.51 124.94 124.96 124.98 127.45 124.47 121.96 122.5 124.67 123.7 122.24 123.76 124.28 123.47 124.24 123.13 127.19 126.75 125.99 125.57 128.15 129.96 130.05 131.35 132.16 136.68 139.02 139.62 142.22 142.65 144.26 145.25 146.75 146.69 148.74 149.85 151.1 152.93 157.36 157.86 157.3 165.28 169.79 172.56 176.33 178.34 179.81 181.37 181.07 184.72 184.91 182.3 182.23 179.93 177.58 174.72 174.26 174.8 176.67 179.05 183.31 186.36 186.37
118.22 118.75 121.56 123.26 125.73 129.31 133.95 135.06 136.68 137.19 146.17 145.93 146.66 145.21 145.26 143.17 141.15 138.6 141.78 142.07 136.66 134.53 132.48 132.55 130.79 130.06 127.2 129.62 128.94 126.71 125.1 124.51 122.8 120.41 119.5 119.79 119.58 121.03 121.2 121.04 118.97 118.79 120.46 121.34 121.66 122.99 123.98 123.53 125.01 123.45 122.89 123.34 123.88 123.25 122.08 121.09 125.56 124.42 120.02 122.24 124.28 124.56 125.54 126.92 125.19 125.07 127.26 126.84 126.06 126.83 129.37 130.01 131.18 132.59 136.53 140.32 141.76 143.22 141.76 141.95 144.53 145.88 147.46 148.2 147.76 150.84 155.92 157.86 152.44 162.8 164.52 167.76 172.59 174.6 177.59 180.02 181.42 184.35 183.76 182.28 180.26 177.98 176.16 173.88 171.87 174.63 177.76 182.26 185.01 186.81 187.41
117.48 119.44 124.44 124.78 124.86 127.04 128.51 132.15 134.78 134.69 135.37 138.65 142.11 143.26 142.24 142.51 144.74 139.47 138.45 138.26 134.85 131.66 129.79 127.66 127.13 127.14 124.19 124.9 125.84 125.57 123.63 122.75 122.04 120.99 119.42 119.16 118.99 119.67 121.38 119.97 118.66 117.04 116.53 121.34 118.78 121.33 121.08 121.41 123.59 122.39 122.76 123.71 122.95 123.38 122.54 119.68 119.23 122.54 122.28 121.7 125.42 124.36 126.12 125.79 125.6 125.5 125.75 127.06 126.56 124.93 128.58 129.9 130.64 132.36 135.87 139.76 139.81 139.97 141.72 144.16 144.97 144.79 144.87 146.84 146.91 151.05 153.73 155.63 149.89 153.97 159.22 167.44 169.78 170.45 175.52 175.63 175.82 179.1 179.67 179.92 178.09 177.98 173.24 171.38 171.18 172.14 179.26 182.58 185.92 190.03 189.79
117.99 118.35 122.05 123.16 124.86 125.19 126.16 129.89 134.28 134.4 134.82 135.39 134.64 137.94 138.74 140.17 140.92 139.47 137.25 136.8 132.83 129.26 126.92 124.77 122.93 123.48 122.48 122.2 122.44 123.41 123.63 121.62 120.73 119.58 119.08 118.96 119.1 119.8 120.76 118.9 116.79 115.81 115.52 115.6 116.16 117.9 119.85 120.16 121.9 121.81 120.71 121.03 118.5 121.61 120.87 119.27 119.41 121.1 123.03 120.04 124.99 124.36 125.42 125.86 124.34 122.98 124.64 123.81 125 125.33 124.62 128.35 130.28 132.98 135.33 136.3 135.66 138.92 140.13 141.08 141.11 142.42 142.24 145.73 148.48 150.51 150.45 149.95 149.89 153.19 158.03 163.88 165.55 169.82 172.12 169.87 171.33 173.69 175.56 177.41 175.62 175.53 171.29 170.6 169.28 169.92 171.71 176.17 184.28 189.55 190.48
119.19 119.76 119.67 123.54 123.87 124.6 125.2 126.69 131.3 131.67 132.5 135.39 133.58 131.37 133.5 132.74 133.97 136.13 133.94 135.28 132.06 126.74 124.67 122.97 121.89 121.77 121.17 120.99 120.47 121.98 122.43 121.72 119.28 119.25 119.24 118.94 119.5 119.75 119.11 116.34 115.74 115.62 115.49 115.48 115.41 115.63 117.66 118.78 119.97 119.75 119.99 118.99 120.24 123.46 123.04 123.73 123.83 120.98 122.55 117.19 119.47 121.58 123.04 124.77 123.8 121.33 120.82 119.57 120.41 124.39 125.37 125.52 129.92 133.07 134.48 136.3 134.73 135.25 135.44 136.3 137.64 139.93 142.19 143.74 146.2 147.82 147.45 148.55 151 153.28 155.4 158.16 160.45 168.4 168.83 167.44 170.01 171.66 174.88 175.15 172.82 173.41 171.29 167.81 168.09 168.35 170.04 172.57 177.85 182.27 183.61
121.37 118.84 115.14 117.33 121.28 120.43 122.58 125.74 128.85 129.76 133.36 136.54 132.09 127.34 127.61 130.28 128.68 132.18 133.94 130.63 127.08 129.4 123.37 122.32 121.23 120.37 121.2 121.75 120.91 124.3 124.71 121.72 119.29 119.23 119.77 119.54 120.81 119.5 117.26 115.63 115.53 115.41 115.36 115.47 115.41 115.44 116.42 118.51 118.75 119.6 117.85 118.56 121.51 121.76 121.35 120.2 121.22 124.74 120.46 116.61 117.62 118.23 120.44 122.92 120.3 121.97 122.38 120.24 123.71 125.94 122.47 125.15 127.98 129.89 132.51 134.42 131.62 133.06 132.89 132.87 133.51 135.67 140.03 141.5 143.26 144.14 145.39 146.7 149.01 150.51 152.65 156.34 158.1 162.7 165.34 166.53 169.46 170.47 172.1 172.68 170.57 171.26 168.24 165.17 164.8 165.92 166.92 169.4 172.78 178.35 177.21
117.48 120.1 117.86 114.81 116.85 120.43 119.32 126.68 127.65 129.47 131.17 132.98 128 124.83 122.88 124.2 123.29 126.69 129.41 124.11 121.85 124.99 121.15 120.35 119.62 119.17 121.38 120.24 120.1 121.27 121.39 121 120.99 120.21 118.94 120.39 121.44 120.14 116.56 115.36 115.4 115.49 115.3 115.19 115.42 115.4 117.89 118.7 118.73 118.4 118.05 120.23 120.97 121.32 120.07 118.8 120.76 122.4 117.5 116.65 119.7 120.3 121.47 121.06 120.68 121.24 123.82 124.2 124.07 126.42 123.36 123.26 127.03 128.14 125.44 131.02 131.62 131.73 132.43 131.41 131.67 134.22 136.78 138.92 140.49 143.37 146.2 148.44 149.69 150.51 150.62 152.76 157.15 160.21 161.48 163.11 166.44 169.59 172.14 172.46 169.23 168.45 166.87 163.32 163.23 163.96 164.77 166.55 169.2 170.51 172.42
114.86 116.61 119 116.59 117.14 117.13 117.69 119.93 121 124.1 127.85 127.31 122.83 124.36 120.17 120.27 119.08 119.48 123.76 117.9 117.18 120 118.83 119.12 118.73 121.48 120.27 118.67 118.35 119.33 119.97 121.19 120.99 122.88 121.98 121.45 119.76 119.4 115.61 115.26 115.48 9999 9999 9999 115.37 115.4 117.38 117.97 116.37 116.85 117.57 119.53 120.11 120.21 120.63 122.54 122.36 118.87 116.68 118.06 121.32 121.81 118.71 121.06 116.82 117.8 121.83 123.64 125.56 126.71 124.16 122.72 122.88 126.96 125.61 127.77 129.19 128.27 130.94 129.45 130.24 132.01 132.82 134.88 139.05 142.63 143.99 146.99 148.65 147.87 148.71 151.39 154.84 157.36 159.74 159.75 162.44 167.66 171.4 171.1 167.94 167.21 165.16 163.32 161.82 160.74 162.7 164.96 167.31 169.3 168.35
112.88 114.77 116.07 116.11 118.22 116.57 117.69 116.43 119.69 120.47 123.39 120.49 120.71 123.09 119.28 118.36 117.36 115.88 116.86 118.55 116.04 116.89 116.42 116.04 118.36 119.55 117.44 118.98 118.1 118.75 119.81 120.5 119.84 120.7 118.89 119.39 118.33 118.67 116.2 115.46 115.28 115.18 9999 115.2 115.45 115.6 116.65 114.78 114.28 114.85 117.11 117.1 119.49 120.46 117.84 118.64 118.23 116.94 116.98 120.34 119.09 122.91 122.99 119.43 117.12 9999 117.9 122.78 122.74 125.11 124.95 122.87 120.53 125.1 126.34 128.03 125.75 124.71 126.31 125.77 127.61 129.4 129.62 134.04 138.75 139.47 142.06 143.29 146.24 146.64 148.71 149.68 150.97 154.33 155.17 154.25 160.38 164.39 169.45 166.87 165.3 165.04 163.69 160.82 158.24 160.29 161.19 161.68 164.34 166.24 165.03
116.11 112.54 115.14 116.35 116.38 117.5 115.71 112.34 113.2 116.68 118.79 116.86 117.31 116.72 115.82 115.93 115.57 114.13 115.21 120.39 117.69 115.78 116.14 117.62 116.47 116.34 116.9 118.4 118.74 120.37 119.75 118.98 119.18 120.7 117.39 117.29 118.86 118.66 116.24 115.35 115.27 115.37 115.49 115.4 115.39 119.13 116.65 114.65 114.56 113.72 115.49 119.25 119.87 120.05 117.15 116.93 117.05 116.88 116.71 116.93 116.84 120.76 124.71 121.08 117.12 118.65 121.39 118.56 120.59 124.01 123.34 120.75 123.7 122.94 121.41 124.31 124.6 124.71 125.14 124.64 124.2 127.67 126.95 131.12 134.37 136.39 137.68 140.46 143.48 144.52 148.9 144.8 146.45 150.36 150.01 151.09 157.79 160.94 163.64 166.1 162.2 160.71 159.71 158.92 158.24 157.93 158.44 159.75 160.36 161.06 160.07
117.53 116.89 115.23 115.71 116.27 115.8 115.1 112.34 112.88 113.45 114.64 116.35 115.36 114.06 114.92 115.51 114.95 114.52 115.87 117.33 117.69 114.89 113.32 114.05 114.93 116.69 116.69 117.75 118.08 120.32 117.98 117.78 118.25 117.45 116.71 115.7 114.98 115.93 116.22 115.35 115.32 115.34 115.48 116.77 119.81 118.24 114.28 116.64 113.74 113.25 114.46 120.65 119.33 118.64 119.97 120.17 117.34 116.93 116.9 116.89 116.88 119.21 123.05 117.07 9999 9999 118.64 116.68 117.89 122.12 120.81 122.49 122.7 122.92 120.3 119.28 120.05 126.44 123.06 126.6 125.71 124.12 123.89 128.56 129.68 134.61 137.02 138.73 139.09 141.74 145.01 144.8 142.84 147.72 146.88 149.88 152.59 157.03 159.86 163.22 164.38 158.26 156.82 156.37 157.12 153.97 154.82 156.72 157.15 158.66 157.23
114.52 116.39 115.1 116.19 116.78 115.26 114.74 117.21 114.74 112.75 111.67 112 112.88 113.2 114.01 114.22 114.6 115.69 116.04 114.43 114.51 112.75 112.12 112.74 113.65 117.58 117.18 117.44 118.38 117.71 116.96 117.53 121.75 117.93 116.04 114.62 113.41 114.27 114.76 115.64 115.15 115.74 117.5 119.61 118.05 114.3 114.77 116.64 115.06 113.07 113.82 116.54 116.27 117.15 121.96 119.54 117.15 117.08 116.95 116.92 116.72 116.63 116.78 116.37 9999 9999 9999 118.19 121.18 122.72 119 121.52 122.01 121.95 118.93 118.69 119.89 124.8 123.06 125.28 127.54 128.14 123.84 123.75 125.93 129.43 135.85 135.6 136.76 137.63 136.55 138.94 140.05 144.37 143.73 145.52 148.79 152.37 157.64 159.31 160.53 160.19 154.26 153.95 154.67 153.97 153.87 153.26 154.62 154.17 155.23
114.42 113.01 114.36 112.73 113.23 114.06 115.06 116.78 117.37 113.73 111.3 111.56 114.06 115.56 113.95 114.26 114.59 114.58 114.42 114.97 113.52 112.75 111.22 111.7 112.3 115.51 115.92 116.19 116.32 117.17 117.65 118.72 118.68 116.12 116.04 112.96 112.03 112.98 115.79 114.47 114.56 115.33 115.94 115.74 117.13 118.57 117.08 116.98 113.27 113.53 117.26 119.08 116.28 117.4 118.13 119.09 117.91 121.64 121.75 119.42 116.59 116.08 116.63 116.41 9999 9999 116.87 122.65 121.99 121.33 120.67 121.69 122.07 118.35 118.17 118.7 119.38 123.29 120.99 124.02 126.26 128.18 127.54 123.3 122.85 124.47 129.09 130.11 134.8 134.64 133.33 133.81 140.05 138.29 137.74 140.28 143.16 147.15 150.29 154.33 154.99 156.82 158.62 153.07 152.57 152.86 151.02 150.28 151.92 152.05 152.78
114.34 113.14 115.22 109.41 108.97 109.05 110.36 114.24 116.17 114.81 113.15 112.26 111.94 112.71 113.58 113 112.76 112.13 112.72 113.26 112.96 111.63 110.66 110.65 111.04 113.37 116.75 116.01 115.77 115.91 117.42 117.06 115.71 114.86 114.02 111.9 111.87 113.53 117.22 117.42 115.11 114.91 118.38 118.2 116.31 117.76 118.47 116.21 113.27 113.94 116.71 118.9 118.56 119.3 119.87 121.23 119.05 118.86 119.82 122.84 120.22 116.72 116.97 116.34 9999 9999 119.99 122.79 121.5 121.27 119.64 119.77 121.73 120.3 118.63 120.79 122.93 122.88 120.02 124.02 122.03 125.62 127.73 123.75 122.89 122.96 123.2 125.96 129.19 130.38 131.4 133.84 136.78 133.46 135.73 138.49 140.42 143.35 147.2 151.79 153.56 158.14 162.39 161.4 156.35 151.62 151.02 147.92 147.26 147.86 149.43
114.79 114.18 114.48 110.03 109.09 9999 9999 110.65 116.57 114.81 113.51 113.73 114.11 114.45 115.19 112.64 110.86 110.99 113.37 112.98 110.77 110.8 110.66 9999 109.96 111.03 114.19 118.15 120.32 117 116.55 117.06 113.72 114.24 113.16 111.9 111.93 114.09 114.9 116.57 116.01 115.53 116.44 116.61 115.04 115.52 117.81 115.92 115.73 117.95 113.67 115.76 123.88 119.3 119.89 120.84 120.84 118.93 118.72 123.4 124.3 120.88 116.91 116.08 9999 116.78 119.99 118.93 118.8 119.83 120.06 120.42 118.62 122.62 121.14 121.48 122.06 123.1 122.32 123.22 120.61 122.97 125.42 126.59 124.95 122.97 122.74 122.91 123.52 127.25 130.4 132.38 133.24 133.46 133.05 135.02 135.56 137.11 143.55 148.92 150.23 156.55 160.68 162.26 160.08 158.37 150.22 149.48 147.63 145.96 145.92
115.49 115.47 114.37 109.96 9999 110.15 109.28 109.07 117.3 116 114.53 113.84 112.7 112.03 113.4 113.17 112.65 110.86 112.26 110.63 110.52 110.67 9999 9999 9999 110.91 112.26 114.56 114.82 115.69 115.42 116.38 115.13 114.65 113.13 111.98 111.88 111.88 115 115.41 115.63 114.74 115.39 117.98 117.96 113.7 114.44 115 117.97 114.12 116.13 118.33 122.31 119.41 115.43 115.18 115.37 115.52 115.44 115.57 121.1 122.67 117.79 116.47 116.92 121.12 123.02 118.35 119.49 119.28 119.59 120.81 119.91 120.2 118.8 120.59 117.84 119.49 120.83 122.98 120.61 123.17 124.53 125.95 126.68 124.1 122.87 123.14 122.95 124.54 127.52 128.69 131.06 130.45 130.94 131.73 134.3 134.82 138.28 143.14 145.71 150.55 155.03 156.63 157.13 160.63 158.64 149.48 148.36 147.68 144.18
114.94 114.21 113.9 113.04 111.51 117.04 114.6 112.05 111.58 116.58 114.64 113.27 108.75 108.64 108.89 112.6 114.33 111.53 111.77 110.49 110.77 9999 9999 9999 9999 111.65 114.53 114.79 115.55 116.91 114.95 116.24 117.61 118.36 114.57 111.41 111.88 112.19 111.67 111.75 114.47 114.07 113.76 116.16 120.25 118.58 113.58 113.57 114.76 114.12 115.93 114.44 118.58 117.17 118.59 117.33 117.39 117.91 116.63 115.63 115.65 119.18 123.48 122.92 122.38 122.47 119.39 118.35 117.22 120.3 120.81 120.79 120.56 119.71 121.34 121.36 116.53 115.58 115.53 118.58 121.18 119.64 122.06 125.02 126.22 126.28 125.33 125.93 127.32 124.72 126.05 130.31 127.98 128.59 130.94 128.89 131.38 133.48 135.66 138.09 142.04 145.73 147.26 150.82 156.8 161.59 159.52 154.99 149.36 146.29 142.16
115.57 113.75 114.58 115.87 114.67 116.24 116.26 112.73 111.43 112.3 114.64 113 108.62 109.09 108.77 108.87 112.9 114.37 115.81 113.77 110.85 110.38 110.18 110.35 113.23 114.34 114.07 115.8 115.57 115.03 115.93 115.38 115.78 114.89 112.49 111.26 9999 111.6 111.38 112.34 116.02 115.49 112.13 113.04 117.72 118.54 116.05 118.37 118.35 119.27 119.63 116.81 113.82 122.83 118.59 120.12 121.7 120.56 120.36 119.08 116.67 115.81 116.44 124.13 120.92 120.74 119.07 116.32 119.41 120.73 120.28 119.74 119.98 121.24 120.17 116.06 115.33 115.17 115.67 115.44 116.43 119.64 122.04 124.58 126.61 126.31 126.62 127.47 127.75 131.3 130.96 129.84 127.3 126.4 128.18 125.8 127.22 130.47 132.16 133.67 135.97 139.37 142.49 146.87 154.08 158.3 156.6 151.03 149.71 144.51 140.54
115.33 107.89 107.84 108.03 109.38 114.22 117.26 117.31 115.77 117.33 118.78 112.79 108.52 9999 9999 108.95 113.87 113.1 113.66 115.25 115.79 112.21 111.18 110.94 110.64 113.66 115.2 115.48 114.5 117.48 121.42 118.26 116.3 116.1 114.6 113.38 112.58 111.6 111.55 114.4 113.7 116.53 114.22 111.64 111.56 111.87 114.33 119.58 117.42 117.87 119.63 118.44 115.39 115.08 117.5 115.29 118.98 120.66 119.85 115.24 116.45 118.53 117.21 120.86 125.07 125.95 123.72 120.06 119.41 124.22 119.95 115.33 9999 115.42 9999 9999 9999 115.24 117.96 119.86 118.44 121.24 121.99 122.02 123.68 125.03 125.5 119.89 121.19 128.24 131.73 130.41 127.39 123.6 129.88 128.37 126.26 128.35 130.46 130.9 131.54 134.03 137.56 142.55 148.45 151.06 150.37 146.84 145.21 142.3 139.68
109.84 107.55 9999 9999 9999 108.9 114.26 115.5 117.56 116.61 117.98 112.79 109.17 9999 108.62 110.48 113.73 111.87 113.22 113.62 115.45 114.02 114.9 110.65 9999 111.93 112.76 114.44 114.19 119.54 124.28 123.98 117.84 116.27 115.49 115.86 115.46 111.44 113.19 112.32 111.77 116.37 119.1 115.13 112.02 112.45 115.96 117.39 117.48 117.16 120.04 117.35 112.71 116.15 117.89 115.29 116.52 118.29 119.35 117.16 114.79 118.29 122.58 123.58 118.46 120.55 124.54 123.47 122.25 122.71 123.77 119.89 115.73 9999 9999 9999 9999 9999 120.51 123.26 124.6 123.19 119.7 120.66 122.73 125.09 125.25 119.84 122.24 127.87 126.27 128.12 123.27 123.42 125.12 129.79 125.24 128.52 130.52 130.77 130.11 131.77 133.27 136.06 139.69 142.12 142.88 141.43 140.55 139.15 137.97
107.53 9999 9999 9999 9999 9999 110.26 116.34 118.32 118.23 118.9 116.26 113.83 108.32 108.46 111.27 114.66 113.44 110.87 111.6 114.47 115.94 115.61 111.6 9999 112.4 114.4 114.85 113.92 116.9 124.24 125.86 119.45 118.31 119.75 116.33 116.53 113.81 113.19 113.65 111.85 112.91 113.45 115.29 119.04 117.56 119.36 116.82 113.8 117.37 118.85 117.35 113.98 118.58 119.81 117.34 120.21 118.13 115.88 118.95 116.54 120.24 118.76 121.72 121.18 116.91 116.96 121.53 121.26 122.71 121.49 117.73 119.71 117.7 115.42 9999 9999 9999 117.44 120.95 121.88 120.72 119.7 117.08 117.15 118.86 123.02 119.44 120.02 125.42 124.71 126.28 123.5 122.55 122.26 125.61 124.13 123.04 128.29 127.85 130.8 132.26 133.61 132.65 132.43 133.61 134.88 135.26 138.42 139.15 135.71
107.37 9999 9999 9999 9999 9999 109.51 117.73 119.9 117.21 116.27 118.01 113.83 115.29 111.01 109.91 113.44 113.43 112.87 114.01 113.32 115.67 116.94 113.72 110.43 112.4 112.5 116.06 116.16 115.1 117.92 120.17 116.24 115.75 116.8 116.47 117.9 116.76 116.08 115.87 114.12 115.04 112.24 113.67 117.73 114.06 117.65 118.09 116.79 116.27 118.71 118.09 120.32 119.07 117.54 120.39 120.21 118.38 119.73 118.87 116.87 113.9 114.78 116.84 119.61 121.36 118.85 116.16 122.09 120.69 121.11 122.03 120.6 118.8 117.14 117.35 116.23 115.62 115.46 116.89 120.87 118.12 117.28 9999 9999 9999 117.69 117.71 122.16 122.78 124.09 123.74 122.96 123.38 122.63 123.27 124.13 124.74 122.17 124.52 124.9 129.27 130.92 130.94 130.17 130.45 131.78 131.64 133.52 135.45 135.58
108.66 9999 9999 107.55 9999 9999 107.29 109.13 111.89 112.67 112.09 114.64 110.9 111.6 116.23 116.05 114.89 118.49 117.39 117.78 114.51 113.89 116.13 115.76 114.98 110.7 110.04 113.13 117.42 117.97 115.9 113.93 116.23 115.99 117.27 117.26 117.03 116.16 116.54 117.12 117.55 118.94 117.27 114.82 111.66 111.63 112.07 114.21 118.03 117.02 117.17 120.66 120.74 117.96 116.16 116.64 116.68 117.71 118.37 117.92 115.16 9999 9999 9999 115.38 119.48 120.56 119.38 116.62 119.87 117.04 119.91 120.34 120.34 116.36 117.37 119.24 121.03 118.76 119.74 120.28 117.93 117.24 117.15 9999 9999 9999 116.93 118.13 118.95 120.8 118.75 118.15 118.18 118.97 120.63 124.95 126.02 126.71 123.96 123.14 124.05 127.83 129.82 129.84 130.36 130.18 129.41 131.4 133.27 135.58
108.66 107.51 9999 9999 107.72 111.58 114.57 110.47 9999 9999 109.28 111.04 108.43 111.6 111.39 115.15 117.25 118.11 116.69 115.14 117.23 116.59 112.81 113.7 116.88 113.56 110.04 110.04 112.82 116.39 118.55 115.82 111.4 113.96 117.95 117.96 117.05 114.16 113.82 117.12 116.79 115.07 117.08 117.44 117.69 116.57 119.27 116.07 112.99 118.81 117.93 119.01 118.74 116.61 117.96 115.65 116.88 117.71 116.53 116.18 112.21 9999 9999 117.47 119.46 120.18 121.33 120.36 120.46 118.21 115.37 115.3 120.76 122.6 121.52 117.99 116.39 121.26 121.63 121.94 121.69 120.72 120.59 119.83 123.11 121.5 117.32 117.32 117.36 116.7 9999 116.72 118.14 121.37 121.26 118.13 121.51 126.02 127.06 127.07 124.89 126.5 129.1 126.87 126.28 128.69 130.66 131.66 130.85 131.71 132.5
9999 9999 9999 9999 9999 107.27 111.02 112.98 109.93 110.21 109.09 111.96 108.03 107.95 108.18 111.23 114.36 115.61 117.03 113.49 114.72 117.02 115.75 114.82 112.26 117.9 112.53 110.46 110.1 113.69 117.44 116.76 116.31 115.04 115.44 119.03 119.35 116.27 113.46 115.29 112.26 112.27 116 117.25 117.27 116.14 117.98 119.03 115.16 115.32 119.98 118.21 120.95 116.61 118.42 116.21 117.36 117.3 115.14 112.53 113.01 117.84 119 119.5 120.23 120 120.71 118.95 120.13 119.71 118.44 118.89 120.84 119.92 120.82 121.55 120.5 118.01 120.82 119.14 123.08 122.65 120.9 121.68 123.11 120.99 122.48 120.99 117.78 116.93 116.62 9999 118.69 122.82 123.4 119 118.71 121.02 120.91 120.81 122.21 124.05 126.78 128.68 126.07 127.94 128.77 131.24 131.14 131.75 131.57
9999 9999 9999 9999 9999 107.73 9999 9999 9999 108.24 111.95 113.35 108.61 107.79 108.18 108.05 110.84 114.74 116.11 116.97 116.18 115.65 118.69 117.26 110.87 111.09 117.39 110.46 9999 9999 112.93 114.78 115.58 116.08 114.7 115.15 115.37 116.24 116.81 116.17 117.46 114.85 113.06 113.47 115.14 117.61 118.46 116.95 116.78 114.27 112.26 117.1 120.26 118.41 116.8 115.65 113.39 115.82 115.14 118.1 116.2 117.23 117.34 117.01 119.62 115.61 117.24 118.55 119.74 116.21 116.99 118.89 119.54 118.99 117.61 120.33 121.8 121.55 121.29 117.9 118.03 122.52 122.79 120.52 121.71 119 119.04 119.9 121.38 122.02 118.02 9999 124.27 119.8 118.74 118.7 122.4 125.64 120.91 121.23 122.79 126.59 126.21 125.95 126.97 128.66 128.24 130.85 130.81 130.1 130.27
9999 9999 9999 9999 9999 9999 9999 9999 9999 9999 107.57 111.91 115.97 108.25 108.18 9999 108.13 108.65 111.17 115.42 116.31 118.52 118.9 109.56 108.35 108.93 113.41 111.42 115.55 111.39 110.87 111.58 111.14 112.4 113.82 113.73 109.92 109.8 111.12 115.01 115.26 118.04 116.38 113.58 113.04 114.14 116.18 118.51 117.49 116.52 116.49 111.28 113.95 113.86 115.41 116.29 115.61 113.98 115.48 116.62 119.19 112.84 112.64 116.42 117.82 117.39 112.26 9999 9999 114.93 113.05 118.69 115.55 116.74 120.19 117.1 120.94 120.05 121.15 119.31 116.98 118.57 119.71 121.98 120.84 119 120.32 120.54 119.73 121.09 124.2 120.38 122.25 122.39 121.88 122.38 124.89 126.26 122.42 120.97 120.57 122.91 126.38 126.06 125.03 125 125.43 127.57 129.45 129.15 129.17
9999 9999 116.25 109.91 9999 9999 9999 9999 9999 9999 9999 108.04 113.54 108.29 107.76 107.85 9999 9999 108.07 108.01 109.55 113.2 111.5 107.96 108.1 108.44 112.52 116.3 113.07 118.03 114.6 116.12 116.21 113.26 113.19 114.52 111.97 109.73 111.33 117.53 120.25 118.04 115.83 114.29 114.69 113.73 114.15 114.57 116.23 116.92 115.87 114.83 111.76 115.41 114.62 116 114.44 114.09 114.61 115.51 117.16 114.41 118.22 116.87 116.12 116.92 115.45 9999 9999 9999 118.13 113.32 115.55 112.56 115.94 119.03 117.04 117.33 118.04 117.24 114.82 116.56 118.49 118.75 119.21 119.32 119.97 120.5 120.46 119.73 121.58 120.96 120.37 122.11 123.79 123.51 123.46 123.47 124.65 120.97 119.47 121.36 128.28 125.67 124.69 125.72 128.01 125.17 126.2 125.16 129.05
9999 113.23 116.25 111.86 110.69 109.46 9999 9999 9999 9999 9999 108.29 112.4 112.79 108.3 107.85 107.87 107.99 108.24 9999 9999 9999 107.91 107.95 107.97 108.13 111.69 116.93 115.8 117.08 116.32 116.57 116.5 113.51 111.19 110.82 115.06 115.32 114.9 114.71 118.13 112.97 114.87 113.69 110.87 114.46 114.49 111.69 113.68 115.6 115.78 115.78 114.15 111.03 112.65 114.2 111.66 112.85 113.87 115.51 114.11 116.05 115.07 118.45 115.93 117.02 119.12 117.06 113.01 9999 116.27 113.88 9999 9999 113.22 118.1 117.69 117.94 119.17 117.88 114.91 114.53 116.74 117.57 118.38 118.58 119.97 115.21 116.52 117.99 120.98 123.36 119.28 120.79 122.99 122.38 122.46 122.85 122.26 120.66 120.66 119.67 123.88 123.79 122.91 126.01 129.64 127.58 123.37 123.32 126
9999 113.82 118.74 119.27 117.23 109.12 108.97 113.81 116.36 114.58 115.32 115.33 114.09 113.77 110.97 107.67 108.6 108.26 108.28 9999 9999 9999 9999 9999 9999 108.12 108.33 114.12 117.44 114.77 115.7 116.29 116.55 116.05 111.87 110.56 114.12 117.1 116.96 109.89 111.66 113.47 114.87 112.92 111.06 108.98 110.21 112.83 111.75 116.56 114.77 115.47 115.8 115.14 113.67 111.76 110.43 111.27 111.04 112.36 111.83 115.25 115.9 112.37 116.14 115.91 118.2 119.2 120.43 117.84 113.39 113.55 111.96 112.19 115.46 117.25 116.96 116.2 116.78 116.54 116.39 116.35 115.33 114.94 116.45 116.82 118.53 115.82 115.82 117.55 117.43 119.18 118.59 118.66 122.54 122.08 122.11 123.02 123.1 121.96 120.66 123.07 120.08 121.89 126.37 126.26 130.37 130.03 128.78 122.91 123.1
107.25 111.15 111.94 119.27 115.35 113.96 109.94 113.79 116.24 116.53 117.69 117.66 116.11 112.66 115.51 112.03 110.69 110.57 108.19 9999 9999 9999 9999 9999 9999 107.96 108.12 112.27 113.68 114.77 114.21 112.82 112.94 114.02 112.37 111.93 113.99 112.53 112.57 110.72 110.54 108.83 110.93 108.8 110.77 114.39 113.26 109.54 115.48 115.17 116.29 114.46 116.08 117.09 117.39 114.68 114.86 113.15 113.25 110.52 111.83 112.37 115.05 113.85 112.56 113.33 118.25 118.27 117.15 118.72 115.69 9999 113.49 114.31 116 112.41 114.7 114.38 115.43 116.4 113.83 115.47 116.36 115.72 114.37 116 117.8 115.82 115.54 118.99 118.65 116.95 118.36 119.31 119.95 120.77 121.17 122.05 122.13 122.02 121.66 124.88 121.67 125.7 125.33 126.55 129.2 125.81 129.13 126.45 125.03
110.76 108.96 112.09 117.15 114.74 114.32 114.8 112.46 116.26 115.9 114.82 118.18 117.51 114.54 115.43 112.61 110.22 116 113.39 9999 9999 9999 9999 9999 9999 108.01 109.1 111.73 111.74 113.66 112.95 111.79 112.3 113.45 112.7 111.37 115.28 113.82 111.77 111.79 112.34 111.17 108.24 108.8 108.39 112.95 115.07 109.06 107.9 108.82 114.38 114.97 114.46 113.97 115.83 116.69 115.58 116.59 113.72 112.02 112.83 113.78 114.11 109.92 113.42 113.91 114.28 116.17 118.75 120.81 117.94 116.46 116.64 119.45 116 112.07 115.3 114.44 114.49 116.11 114.24 114.79 114.59 114.72 115.36 114.48 114.41 114.72 115.9 118.59 119.07 117.86 117.85 119.59 119.32 119 119.69 118.62 118.33 119.61 120.62 119.32 120.1 121.82 119.76 124.47 127.87 123.67 129.16 128.4 129.83
115.48 114.77 117.36 117.34 114.74 114.21 109.22 108.93 108.75 108.63 108.77 112.01 118.19 112.08 9999 109.4 110.87 116 114.1 117.2 107.73 9999 9999 9999 107.85 109.17 110.1 111.74 111.25 111.53 112.95 111.11 111.39 112.15 112.39 114.84 115.22 113.64 114.64 112.73 111.95 112.08 112.98 110.07 111.69 110.33 114.7 107.92 107.35 9999 9999 112.23 114.43 114.29 113.81 118.16 115.56 118.13 119.3 113.35 111.3 113.78 114.49 115.31 112.32 113.86 115.47 114.79 118.79 120.93 116.09 114.67 115.5 114.84 114.49 115.02 113.46 112.4 113.24 113.45 115.76 114.92 114.4 114.33 113 115.61 114.59 114.83 114.64 114.77 114.56 116.81 116.53 117.24 116.79 117.12 117.78 119.76 121.34 121.3 122.82 119.32 118.48 118.11 119.98 126.2 126.01 123.68 125.6 125.54 128.75
115.74 115.91 115.66 115.56 114.69 114.15 109.9 108.59 108.7 109.02 9999 9999 112.55 114.85 9999 9999 9999 110.69 109.36 115.48 117.06 109.85 9999 9999 109.96 112 111.32 110.34 109.88 109.57 109.77 109.09 110.49 111.3 111.82 112.53 116.78 113.67 112.54 111.04 111 111.19 113.02 112.55 113.85 113.35 112.47 107.55 9999 9999 9999 9999 108.32 112.14 113.83 113.21 109.65 9999 113.25 113.23 113.23 114.48 118.7 115.63 113.35 114.46 112.02 111.47 114.57 117.14 112.22 112.87 114.22 113.53 115.45 115.02 112.71 112.81 111.56 111.43 112.91 116.5 117.1 115.63 113.28 113.24 116.49 113.39 114.64 115.1 114.76 114.2 116.39 116.89 114.65 114.18 115.87 117.74 118.45 121.59 122.32 121.62 121.67 118.72 121.68 126.23 123.11 120.97 123.33 122.58 124.92
111.09 115.58 114.7 116.44 115.15 113.53 114.32 112.41 110.3 9999 9999 9999 9999 112.57 114 111.24 9999 9999 9999 111.82 114.47 113.95 115.13 112.79 113.85 113.47 113.17 110.23 109.02 108.84 108.86 109.09 110.85 111.08 110.17 112.86 115.9 115.26 113.59 112.25 112.05 111.2 110.74 112.2 113.85 115.23 112.61 109.84 106.99 9999 9999 9999 9999 9999 9999 108.09 109.01 108.23 109.5 116.23 117.46 117.78 118.7 115.09 113.36 110.14 113.13 111.9 112.12 112.6 113.39 112.75 112.75 112.83 112.96 113.92 113.87 115.1 115.45 111.44 110.95 112.74 119.36 120.71 118.57 115.75 114.02 111.33 114.44 112.51 116.5 113.91 112.77 116.03 117.24 114.47 114.56 116.22 116.63 117.56 118.07 120.66 121.67 121.45 120.61 120.36 122.43 121.65 118.32 118.77 120.11
106.67 111.47 115.05 113.96 113.4 113.53 114.9 115.27 114.69 114.62 112.99 9999 113.04 115.53 116.08 116.86 116.77 112.28 109.35 113.98 112.28 115.52 114.47 113.85 117.28 116.65 113.4 111.32 109.87 110.04 111.18 110.96 110.5 110.43 111.69 114.4 114.13 113.54 115.63 113.84 112.47 112.06 110.66 110.69 111.94 113.21 115.09 113.71 111.94 9999 9999 9999 9999 9999 9999 9999 9999 108.74 108.2 110.45 115.9 115.46 116.36 110.77 112.22 115.16 110.39 109.58 112.24 111.39 112.98 113.17 113.41 112.61 112.34 112.9 112.22 113.87 115.39 113.34 111.27 111.18 112.21 119.3 120.32 116.53 114.25 110.76 110.83 112.51 112.27 113.79 112.11 114.83 115.63 115.81 115.29 116.07 114.5 115.86 118.46 119.14 120.94 116.55 117.84 118.39 118.95 118.7 116.87 9999 9999
106.62 106.51 110.2 113.6 114.38 112.98 112.95 114.46 112.7 113.6 114.22 113.4 112.99 115.7 115.86 114.65 113.58 115.6 115.08 115.44 114.66 114.47 116.14 116.21 115.35 116.33 114.93 113.69 113 112.73 112.84 113.05 110.5 114.81 114.79 115.27 111.94 111.24 115.73 117.15 114.37 112.72 111.81 110.71 111.66 113.21 110.44 111.45 112.98 109.08 107.41 9999 107.14 109.37 109.34 107.48 107.24 107.28 107.91 108.86 108.52 114.33 114.59 110.77 108.26 113.61 114.31 112.42 110.13 110.95 111.34 112.46 112.45 112.25 112.46 112.92 112.22 111.78 114.27 113.01 111.32 112.83 113.08 112.19 115.69 116.51 117.05 111.76 110.68 110.54 9999 111.59 116.45 113.27 115.15 115.72 116.68 115.16 113.89 114.56 115.16 118.35 118.17 116.55 118.26 117.79 117.17 119.22 121.79 119.53 117.82
106.94 106.48 106.54 110.81 112.76 112.53 112.95 113.9 114.69 114.49 112.35 114.92 114.53 115.3 112.25 114.13 112.51 114.47 115.66 115.44 117.98 117.74 118.53 118.06 117.37 117.13 114.66 113.55 114.03 114.92 112.43 112.17 113.1 113.56 114.36 112.56 109.87 111.09 113.76 116.23 116.15 114.41 110.94 111.46 110.6 109.65 107.71 107.86 109.09 109.88 109.31 110.48 107.41 108.05 109.46 113.96 111.68 9999 109.16 109.12 108.38 108.3 109.27 107.98 109.34 109.98 112.58 112.57 114.43 110.37 112.43 111.99 111.17 112.56 113.43 112.76 111.35 112.87 112.78 115.06 114.12 111.38 113.59 112.21 111.91 114 115.48 116.25 112.3 112.52 110.44 110.46 112.07 112.47 113.36 115.37 115.77 114.33 113.89 115.03 116.63 118.12 115.51 117.63 116.77 115.62 116.21 115.7 121.33 123.01 122.07
106.84 106.78 106.84 111.32 112.2 112.73 112.62 113.51 114.77 113.69 116.13 112.53 112.9 114.34 114.95 114.56 114.11 115.69 117.7 116.43 115.69 118.75 121.18 120.53 117.9 117.93 115.86 114.67 115.52 116.34 115.37 111.74 110.96 113.56 111.87 113.8 109.62 110.99 113.44 114.9 115.06 114.76 114.1 109.89 110.39 107.77 9999 107.89 107.75 108.02 109.42 114.74 108.85 109.35 111.96 113.46 115.19 114.5 108.05 111.35 110.04 108.22 108.23 108.91 111.37 111.01 111.09 108.87 111.34 111.42 114.04 110.93 113.77 110.86 111.21 112.73 115.4 112.87 111.9 112.44 114.56 113.88 113.64 113.97 115.68 112.59 113.41 116.71 117.51 115.64 112.19 110.64 110.31 110.37 110.84 114.37 115.76 114.84 115.2 115.05 115.34 117.04 114.08 115.47 116.53 115.25 114.9 116.28 119.52 120.87 121.47
9999 106.71 106.76 110.56 111.05 112.52 114.1 113.51 113.59 112.8 116.4 113.53 111.57 113.53 114.17 114.03 114.43 115.8 117.16 113.87 115.69 109.62 118.02 120.11 117.91 118.73 116.08 116.89 116.66 114.48 115.46 114.6 114.12 112.67 115.37 113.7 110.04 110.03 111.03 113.93 114.84 113.39 112.68 110.99 109.45 107.74 107.83 9999 9999 108.95 113.57 118.06 114.76 112.96 111.7 110.49 113.46 114.66 113.67 108.15 111.21 108.89 112.37 113.03 111.37 111.7 110.83 111.12 110.59 115.11 112.9 109.87 113.68 112.19 108.59 111.96 115.75 115 114.09 112.98 112.07 113.72 111.43 111.64 113.94 114.69 111.27 111.12 114.76 116.91 116.3 110.64 111.54 110.42 9999 111.68 114.58 115.38 114.61 114.44 113.47 114.36 117.11 114.24 113.5 113.54 115.22 117.52 117.85 119.23 119.65
9999 9999 106.77 114.24 114.21 114.1 113.58 115.49 112.27 114.56 116.13 114.51 111.87 110.83 110.72 113.34 112.16 111.73 112.91 110.3 108.44 108.52 113.85 117.92 118.31 118.28 114.65 115.65 116.44 114.91 112.69 113.51 114.86 115.63 115 115.85 115.94 115.46 115.46 116.09 115.1 113.72 114 115.11 115.74 110.57 107.71 109 115.46 111.56 115.13 115.76 116.01 117.28 112.19 110.61 114.77 114.69 116.66 112.71 111.36 111.43 116.16 114.64 111.58 112.58 112.88 111.81 113.31 112.73 112.41 109.53 115 109.59 109.3 111.52 112.95 114.29 114.09 116.95 113.29 111.45 112.62 111.91 111.58 112.55 113.79 110.05 111.9 116.15 115.99 115.44 111.69 110.96 110.83 111 112.61 117.31 116.37 113.13 113.88 114.93 116.32 117.11 114.91 113.54 117.91 115.58 115.17 117.38 118.9
9999 9999 106.2 112.94 117.45 117.8 115.16 113.86 112.27 115.68 116.03 116.12 113.15 112.09 111.65 111.97 114.65 112.81 112.66 113.21 108.6 108.52 109.11 113.9 116 114.14 109.92 110.92 111.68 111.65 112.85 113.59 113.69 113.46 115 113.15 116.44 115.4 115.32 116.1 117.25 118.47 118.45 114.32 113.46 110.64 109.44 115.33 113.42 111.7 109.02 113.73 116.98 112.5 108.7 106.64 106.68 106.68 107.06 109.1 112.26 112.25 110.3 114.53 111.99 112.58 114.46 112.52 109.96 110.73 112.39 106.72 106.74 107.75 107.32 109.55 114.31 111.69 112.98 113.71 117.1 113.83 110.4 112.58 114.26 111.86 113.1 110.76 110.19 112.09 116.89 118.62 115.82 114.39 115.68 113.4 113.22 116.3 116.04 113.92 111.93 112.72 115.33 115.81 115.02 117.91 118.21 120.23 115.69 112.98 114.49
9999 9999 106.57 112.19 113.58 114.32 113.5 113.3 114.48 113.67 112.59 112.37 114.34 114.48 113.72 114.07 113.02 112.68 114.82 113.75 110.71 108.39 108.76 110.42 114.8 111.12 109.55 9999 9999 109.61 111.08 114.92 113.07 109.73 111.31 109.84 113.77 115.74 113.76 113.81 114.34 115.17 114.4 116.77 113.79 112.8 111.97 112.09 113.42 109.44 106.5 106.74 107.3 106.72 106.59 106.8 106.83 9999 9999 106.52 106.49 107.05 106.96 107.85 116.31 114.62 114.18 110.29 113.79 115.01 110.26 106.98 106.79 107.01 9999 107.21 113.68 117.78 113.01 113.71 114.58 114.89 110.44 109.83 111.38 114.64 113.5 115.03 115.21 110.42 110.54 113 116.06 117.52 114.77 115.3 115.48 114.66 114.23 115.64 113.31 113.69 115.92 115.86 115.73 117.49 118.21 114.84 118.23 114.41 111.99
9999 106.81 106.53 109.4 114.1 115.09 113.4 115.3 115.23 113.67 111.39 112.97 113.13 113.97 112.96 112.13 112.65 112.2 112.1 113.67 113.88 111.74 108.76 108.89 112.06 113.01 112.67 112.44 111.67 112.91 110.6 111.89 111.82 109.28 109.63 109.84 112.64 112.52 113.11 114.64 115.51 115.91 114.42 114.43 115.09 115.04 118.36 114.07 110.33 111.81 106.32 106.44 106.7 106.67 9999 9999 9999 9999 9999 9999 9999 9999 9999 9999 106.63 116.87 114.18 108.57 113.6 115.08 116.46 109.86 106.87 106.77 106.71 106.83 110.9 115.84 113.23 110.64 110.51 111.98 113.84 112.54 112.21 111.54 115.18 114.69 114.96 115.35 112.39 110.31 115.2 117.52 115.87 113.7 115.82 117.05 115.32 114.09 114.85 113.81 115.17 116.99 115.44 113.78 113.97 111.12 113.74 114.08 113.94
9999 9999 106.55 109.16 112.21 114.43 113.45 115.73 113.45 113.55 112.6 109.88 109.23 110.36 113.41 112.68 113.13 115.51 112.26 111.33 113.51 114.66 112.04 108.59 108.19 107.59 107.62 107.95 112.22 115.16 114.71 110.43 110.63 111.72 109.75 9999 113.41 112 113.28 113.59 114.99 115.11 115.74 116.07 116.08 117.41 111.86 114.15 113.74 115.89 106.58 106.78 107 9999 9999 9999 9999 9999 9999 9999 9999 9999 9999 9999 9999 106.86 109.96 106.81 107.96 110.27 108.04 106.81 106.9 106.77 106.88 106.68 109.99 111.73 113.47 114.32 110.51 107.72 108.75 115.55 116.08 111.88 110.51 114.34 115.14 116.41 115.6 115.24 112.2 117.64 117.21 113.21 113.28 115.77 115.6 113.26 112.49 114.08 114.27 114.64 117.03 113.32 114.17 111.12 109.58 112.11 114.89
106.63 106.18 106.19 112.39 115.54 109.85 112.61 112.61 112.38 111.55 110.36 109.17 109.39 110.73 111.39 111.8 113.09 115.18 117.68 113.61 111.86 113.52 110.05 108.59 107.31 107.06 107.36 107.27 107.92 114.27 114.39 113.59 110.5 112.12 111.42 110.59 111.21 113.4 113.4 114.97 113.78 115.68 117.3 114.67 113.96 114.59 115.48 120.38 118.13 115.89 106.93 106.51 9999 9999 9999 9999 9999 9999 9999 9999 9999 9999 9999 9999 9999 9999 9999 9999 106.52 106.69 106.74 106.72 106.72 106.73 106.63 106.83 107.87 111.99 115.29 116.64 109.96 111.1 105.51 106.22 109.45 110.71 112.14 114.09 114.6 116.64 116.29 115.31 114.59 111.88 111.41 114.64 114.09 113.83 115.14 114.04 112.43 111.89 113.9 112.99 114.9 112.5 110.4 110.14 9999 9999 109.63
105.96 106.24 108.4 110.61 112.77 112.76 112.2 116.11 114.03 113.76 110.36 109.19 110.51 111.17 110.62 111.99 112.47 112.14 115.83 117.55 114.11 111.65 109.58 107.91 109.34 107.26 107.93 106.11 107.42 110.28 113.57 113.63 112.38 111.59 111.5 112.74 114.81 112.94 113.42 118.39 119.04 118.72 118.51 118.39 117.18 114.45 117.36 119.5 122.65 119.09 109.66 106.72 9999 9999 9999 9999 9999 9999 9999 9999 9999 9999 9999 9999 9999 9999 9999 9999 9999 9999 106.5 106.45 106.67 106.69 107.41 107.57 108.88 113.39 113.3 113.25 113.48 111.1 104.98 104.86 104.63 104.85 104.95 105.25 105.37 106.36 110.29 113.36 115.87 114.49 111.41 112.44 114.9 114.28 112.91 109.88 113.82 112.11 111.3 114.42 111.45 110.7 109.38 9999 9999 9999 9999
107.72 112.64 115.58 112.31 111.69 110.87 110.11 109.06 110.04 9999 108.5 107.92 108.62 111.07 110.62 111.77 112.19 112.31 112.78 116.38 117.65 114.25 115.35 114.52 114.33 107.57 107.17 9999 9999 107.48 110.31 112.3 112.25 112.04 112.33 111.84 112.59 112.94 111.11 114.46 118.82 117.52 120.16 119.81 120.36 117.58 118.01 117.21 118.93 117.88 109.66 9999 9999 9999 9999 9999 9999 9999 9999 9999 9999 9999 9999 9999 9999 9999 9999 9999 9999 9999 9999 9999 106.84 106.79 108.57 107.5 107.73 111 112.67 113.86 116.38 112.83 104.88 104.63 104.57 104.6 104.61 104.53 104.69 104.97 105.28 109.49 109.13 110.19 108.97 111.02 113.74 113.58 111.8 109.02 109.36 109.76 109.18 115.48 114.8 110.49 109.71 9999 9999 9999 110.18
110.37 114.57 111.65 114.01 116.17 112.22 114.76 113.26 108.18 108.01 107.96 107.92 108.07 108.43 110.08 111.81 112.66 112.35 112.46 113.55 112.99 113.62 113.81 115.7 115.91 110.56 107.51 107.73 9999 107.42 110.9 112.1 112.44 114.04 112.42 112.3 111.22 110.85 112.8 114.17 110.68 117.01 117.52 112.57 114.15 118.27 118.2 118.03 116.24 117.95 111.15 106.68 9999 9999 9999 9999 9999 9999 9999 9999 9999 9999 9999 9999 9999 9999 9999 9999 9999 9999 9999 9999 106.76 107.76 113.53 112.78 108.38 107.14 107.06 109.61 111.51 106.8 104.7 104.48 104.4 104.32 104.23 104.39 104.54 104.63 104.84 106.98 114.21 114.1 112.32 111.02 113.53 114.07 113.48 110.34 112.49 113.8 111.78 115.27 115.3 117.27 115.16 111.33 110.06 115.28 114.21
108.33 111.03 112.81 111.84 113.66 114.52 115.22 114.58 112.52 108.86 107.96 108.02 108.05 108.49 110.55 109.93 112.21 112.46 112.03 112.2 110.93 112.47 113.7 113.28 111.27 113.04 107.84 9999 107.57 109.46 114.66 112.26 116 114.89 114.17 113.95 108.74 109.3 112.02 111.85 109.78 108.44 110.21 107.56 107.36 110.78 115.28 117.81 116.18 116.99 111.38 106.68 9999 9999 9999 9999 9999 9999 9999 9999 9999 9999 9999 9999 9999 9999 9999 9999 9999 9999 9999 9999 9999 112.73 113.38 113.18 108.42 105.92 105.77 105.9 106.88 104.82 104.7 104.3 104.3 104.3 104.58 104.61 104.29 104.62 104.73 105.39 110.82 115.84 115.24 109.1 114.98 113.27 111.07 109.65 110.78 111.01 111.87 112.96 113.01 118.97 119.21 119.09 118.68 115.28 115.45
106.45 108.35 112.88 114.85 115.84 114.68 112.5 113.7 116.03 110.74 108.47 9999 108.05 113.09 112.72 111.66 112.05 111.26 112.28 113.25 110.5 113.01 116.22 112.88 111.19 113.04 113.85 110.7 107.18 107.58 113.12 112.89 116.24 117.69 114.28 113.86 112.31 110.49 112.02 109.84 109.79 108.79 108.86 112.51 107.61 107.14 107.41 109.99 115.69 115.98 112.48 106.74 9999 9999 9999 9999 9999 9999 9999 9999 9999 9999 9999 9999 9999 9999 9999 9999 9999 9999 9999 9999 9999 109.5 115.04 112.13 107.06 106.15 105.73 105.43 105.57 105.03 104.6 104.62 104.34 104.38 9999 104.89 104.83 104.22 104.49 104.63 105.11 106.76 107.48 109.71 114.98 109.11 111.45 113.72 110.58 108.8 112.72 116.21 112.4 114.86 115.31 117.05 114.87 114.43 116.44
106.22 107.11 114.8 113.84 114.87 113.13 113.6 113.75 113.02 111.47 110.04 110.77 111.72 112.88 112.75 112.25 112.46 113.54 113.39 114.39 110.64 111.73 116.33 115.32 114.92 115.63 114.72 115.54 9999 9999 107.26 107.5 109.96 112.59 115.56 115.16 115.64 112.57 111.75 113.77 113.48 111.09 110.48 115.25 107.62 107.43 107.32 109.7 113.83 116.64 111.52 9999 9999 9999 9999 9999 9999 9999 9999 9999 9999 9999 9999 9999 9999 9999 9999 9999 9999 9999 9999 9999 9999 110.04 111.99 115.15 111.36 107.34 105.54 105.47 105.36 105.15 104.81 104.62 104.42 104.64 9999 104.55 105.06 104.11 104.23 104.7 104.96 105.09 105.41 105.61 108.94 105.38 109.18 116.12 114.22 111.92 111.25 111.99 112.44 111.83 110.74 113.35 114.27 113.97 116.44
106.22 106.44 109.33 112.59 114.93 116.08 113.78 109.35 109.59 111.05 113.11 116.57 113.87 112.88 115.11 112.59 112.33 113.85 114.56 114.63 111.36 112.72 115.64 113.36 114 114.15 114.72 114.39 114.36 108.87 107.33 106.94 107.37 110.31 113.21 116.1 116.03 114.1 114.18 113.77 111.61 111.62 110.5 112.99 110.93 107.11 9999 9999 114.26 116 115.51 106.64 106.52 106.63 9999 9999 9999 9999 9999 9999 9999 9999 9999 9999 9999 9999 9999 9999 9999 9999 9999 9999 106.64 110.88 112.31 113.39 114.67 115.02 111.87 106.42 105.36 105.27 105.28 104.91 104.41 104.47 9999 9999 104.8 104.41 104.34 104.32 104.82 104.9 105.05 105.4 105.26 105.38 105.18 109.49 114.51 112.22 111.48 112.28 112.47 111.92 109.77 110.83 112.98 113.74 114.45
105.98 106.7 106.49 106.58 110.22 110.82 108.91 109.2 109.58 107.93 110.71 113.11 115.2 115.38 115.65 115.31 115.44 115.03 115.25 114.28 113.92 113.94 114.43 113.1 114.22 114.95 113.53 114.59 110.71 107.3 107.37 107.24 108.51 114.96 115.32 115.52 115.87 114.48 114.28 113.05 114.28 113.14 111.12 110.45 112.3 110.58 107.14 9999 116.8 118.44 115.8 110.14 106.51 9999 110.53 112.59 106.76 9999 9999 9999 9999 9999 9999 9999 9999 9999 9999 9999 9999 9999 9999 106.82 109.65 113.71 117 115.64 112.85 111.76 113.47 112.51 107.17 105.41 105.47 105.13 104.41 104.68 104.17 9999 104.41 104.69 104.26 104.39 104.37 104.69 104.78 104.78 104.83 105.02 105.01 105.21 108.82 113.1 113.32 111.75 111.02 113.63 108.85 108.79 112.46 113 114.27
106.48 109.01 106.61 106.46 106.64 106.61 106.79 107.17 107.66 107.25 109.02 113.25 114.69 115.96 112.12 113.71 115.32 112.93 113.37 114.46 114.12 113.45 112.69 114.23 113.58 114.02 113.02 114.59 108.07 107.08 106.84 106.91 109.11 113.76 116.67 115.67 116.04 115.91 115.33 114.43 114.28 114.95 112.73 109.2 106.83 110.96 111.51 109.66 117.52 114.89 110.63 106.81 108.44 109.53 117.74 117.23 111.23 107.17 112.15 113.42 116.69 115.58 111.14 9999 9999 9999 9999 9999 9999 106.55 106.49 9999 113.43 109.06 111.91 113.38 113.03 112.88 116.3 111.22 110.26 107.37 105.92 104.64 104.26 104.24 104.24 104.25 104.15 104.49 104.27 104.19 104.29 104.3 104.58 104.36 104.5 104.51 105.01 104.71 104.92 105.49 107.96 110.39 112.71 113.89 111.51 108.55 112.95 114.67 114.7
113.07 109.01 111.85 112.27 112.01 107.81 106.66 107.08 107.21 109.88 114.61 111.78 109.29 110.99 112.12 110.8 109.89 111.11 111.72 114.05 114.1 113.41 112.54 112.93 114.03 113.32 113.3 113.91 107.77 106.66 106.65 107.09 108.98 112.23 116.38 115.9 115.16 115.41 115.87 116.75 116.52 116.75 113.85 106.75 106.07 106.09 110.42 112.71 110.76 111.31 107.21 106.68 111.73 117.29 117.99 116.65 117.35 115.02 112.15 116.11 110.37 113.25 116.35 111.43 109.21 107.05 107.28 109.44 111.87 113.79 110.89 111.52 115.19 112.03 111.89 113.74 112.15 111.08 112.43 113.53 113.57 106.49 104.95 104.21 104.22 104.24 104.2 104.19 104.2 104.27 104.59 104.41 104.18 104.26 104.42 104.41 104.33 104.31 104.53 104.39 104.65 104.79 104.81 104.91 105.3 106.13 108.84 112.98 110.48 113.5 115.19
114.85 113.3 113.9 114.55 113.03 112.12 109.06 108.21 108.42 111.69 111.96 108.33 107.48 107.53 108.82 108.84 106.7 107.19 109.8 112.73 110.96 112.31 113.1 110.93 111.6 114.49 113.69 112.79 107.77 106.49 106.48 106.75 107.01 108.16 113.58 114.57 114.67 111.51 113.25 114.59 117.29 116.75 106.08 105.94 9999 106.01 106.55 114.89 115.61 115.33 117.57 109.11 113.44 117.67 117.99 117.88 116.17 116.35 117.64 117.8 115.68 113.51 108.57 107.82 108.68 112.41 118.48 115.45 115.98 116.63 114.73 115.74 115.19 116.4 117.18 118.72 116.16 111.77 110.82 114.35 111.51 105.36 104.33 104.16 104.23 104.08 104.01 104.73 104.5 104.27 104.15 104.16 104.08 104.2 104.29 104.37 104.44 104.42 104.3 104.39 104.36 104.43 104.75 104.68 104.75 104.89 105.45 110.4 114.14 114.07 114.8
113.63 112.77 113.9 108.16 109.76 111.7 115.15 113.22 112.61 114.24 114.82 114.48 113.34 113.28 112.44 108.84 110.38 109.45 108.72 109.61 109.42 111.05 109.86 109.64 112.71 112.96 113.27 114.56 108.63 106.97 107.09 107.19 106.42 106.24 107.15 112.33 113.54 113.38 113.2 114.15 111.02 106.8 105.64 106.25 106.35 106.07 106.32 109.73 116.49 116.34 114.01 115.99 117.12 119.49 120.26 117.09 114.89 116.99 116.95 117.8 107.68 110.93 111.12 112.04 113.83 114.02 116.74 115.49 115.69 115.14 115.9 118.33 117.86 120.17 118.78 118.91 117.4 113.61 113.18 114.71 106.44 104.63 104.35 104.06 104.34 104.08 104.01 104.11 9999 104.48 104.09 104.24 104.26 104.31 104.43 9999 9999 9999 9999 104.39 104.35 104.38 104.35 104.65 104.73 104.68 104.98 105.44 113.53 112.41 110.54
114.12 113.59 111.92 9999 108.06 108.16 108.98 115.49 114.25 114.63 115.34 114.28 115.37 112.61 112.59 113.7 111.47 112.3 113.1 112.84 112.98 113.7 112.22 115.67 114.69 110.88 111.53 113.42 110 108.1 107.05 108.03 112.3 111.8 112.25 111.46 111.07 111.6 110.9 111.34 106.77 105.78 105.64 105.85 105.92 106.02 106.08 106.03 107.72 113.06 112.41 112.76 115.88 119.1 118.18 117.09 113.29 116.28 118.43 110.05 107.29 9999 9999 110.44 117.32 117.77 115.26 114.16 116.08 116.39 118.37 122.38 123.75 120.17 121.69 118.81 117.5 115.67 112.71 107.83 104.49 104.24 104.1 104.18 104.4 104.23 104.27 104.29 104.29 9999 104.51 104.26 104.18 104.3 9999 9999 9999 9999 9999 9999 104.32 104.33 104.35 104.35 104.55 104.47 104.67 105.04 106.6 112.82 110.91
108.33 9999 9999 107.97 107.98 108 108.1 111.33 113.18 114.17 114.05 113.65 112.69 113.29 110.81 112.03 111.47 111.09 111.73 110.34 111.55 112.09 112.09 112.73 111.98 113.94 113.88 111.62 110.77 108.1 107.06 106.93 111.65 117.94 116.44 114.49 112.45 112.99 112.32 109.72 106.18 105.91 106.02 105.81 105.73 105.68 106.07 106.27 106.37 107.06 111.79 115.64 114.22 115.43 116.13 115.65 114.58 117.27 118.93 110.89 9999 9999 9999 9999 109.96 117.01 118.85 117.73 116.7 115.83 115.62 126 129.22 125.94 119.65 118.78 116.62 116.12 111.1 104.76 104.29 104.13 104.09 104.39 104.41 104.63 104.31 104.05 104.25 9999 9999 104.26 104.32 104.79 9999 9999 9999 9999 9999 9999 104.37 104.3 104.25 104.42 104.42 104.58 104.62 105.06 105.92 113.39 112.22
112.47 108.84 108.06 108.07 110 108.2 108.72 113.58 114.17 113.75 112.69 112.16 112.14 111.07 109.68 111.01 110.97 112 112.86 112.06 111.5 110.01 108.61 108.43 109.53 113.3 113.51 115.15 112.37 111 109.11 107.01 107.21 109.43 112.84 115.73 116.39 110.72 111.42 115.63 117.74 107.73 106.08 106.78 106.49 105.61 105.71 105.86 105.95 106.22 106.61 111.43 115.37 115.73 116.03 114.82 115.78 114.56 118.19 112.93 9999 9999 9999 9999 9999 113 114.76 112.24 114.17 116.68 116.1 114.99 124.83 123.63 119.65 117.25 115.78 114.44 107.77 104.48 104.3 104.12 104.27 104.33 104.39 104.55 104.55 104.05 104.27 104.63 9999 104.22 104.3 9999 9999 9999 9999 9999 9999 9999 9999 104.43 104.19 104.5 104.46 104.39 104.59 104.94 106.79 110.98 112.39
114.43 114.82 114.03 112.78 110 112.16 114.02 113.08 113.86 113.74 113.89 113.08 112.36 112.16 110.68 110.76 111.45 112 111.72 112.98 111.7 108.42 9999 9999 9999 109.69 112.2 114.68 115.72 112.12 109.11 114.69 110.85 107.37 107.32 108.38 114.81 112.52 109.05 111.36 115.5 117.46 108.67 106.78 106.87 106.1 105.66 105.67 105.91 106.01 106.15 108.06 113.57 115.06 113.77 112.02 113 115.4 117.46 114.49 107.31 9999 9999 9999 110.54 111.25 113.25 113.28 113.84 113.73 114.02 114.27 114.15 116.4 117.4 113.89 116.57 116.13 109.14 104.54 104.19 104.14 104.31 104.33 104.2 104.16 104.2 104.06 104.85 104.79 9999 104.78 104.75 9999 9999 9999 9999 9999 9999 9999 9999 104.43 104.31 104.34 104.38 104.55 104.81 105.2 109.32 109.97 117.52
111.25 114.07 113.54 114.1 116.34 115.01 112.57 113.01 114.37 113.43 113.66 113.67 113.85 111.51 110.36 109.74 110.16 110.67 110.32 112.95 112.76 109.72 9999 9999 9999 110.07 111.26 113.45 115.1 113.09 114.02 114.42 115.07 109.71 107.27 107.49 110.52 114.11 112.8 109.43 112.42 116.32 114.35 107.2 108.95 106.73 106.17 9999 105.74 105.56 106.1 107.75 113.59 113.14 114.79 113.66 113.25 112.47 114.02 111.57 9999 9999 9999 9999 112.76 115.23 112.77 111.98 112.13 112.87 111.75 114 115.77 115.46 114.72 113.06 113.57 111.41 106.88 104.4 104.24 104.3 104.33 104.34 104.36 104.23 9999 9999 9999 9999 9999 9999 9999 9999 9999 9999 9999 9999 9999 9999 9999 9999 104.25 104.22 104.26 104.62 104.64 107.36 112.25 112.52 117.03
111.17 111.93 113.67 114.9 114.5 112.62 109.79 110.07 110.27 110.76 112.97 114.08 113.33 112.41 110.05 110.92 110.08 109.7 110.32 110.36 112.56 112.71 114.52 115.52 110.34 112.66 113.17 113.46 113.89 114.16 111.7 114.42 113.68 115.15 113.3 114.55 116.67 117.19 116.11 113.76 112.73 115.35 115.72 118.24 108.95 107.69 109.14 107.37 107.26 9999 107.03 108.94 114.11 112.35 112.11 115.13 116.54 115.84 115.97 110.51 9999 9999 9999 9999 110.94 111.28 111.78 111.42 113.15 111.73 111.92 112.26 113.8 112.74 112.16 113.06 109.72 110.93 105.89 104.65 104.36 104.27 104.17 104.23 104.04 9999 9999 9999 9999 9999 9999 9999 9999 9999 9999 9999 9999 104.29 104.25 104.25 104.14 104.38 104.25 104.53 104.97 104.89 104.88 111.02 114.39 116.24 116.19
109.64 111.63 112.85 112.33 113.83 112.62 106.83 106.99 107.18 106.64 106.83 109.57 113.99 112.9 109.58 110.02 112.46 109.56 108.33 107.98 110.78 110.56 110.25 113.32 112.34 111.49 111.64 112.47 113.65 113.5 115.72 115.73 113.95 115 114.99 114.14 116.07 116.45 116.52 109.4 112.4 116.8 115.98 115.42 115.38 106.36 106.08 106.38 107.85 111.03 111.4 110.53 110.88 111.8 107.32 108.06 110.33 114.53 114.41 107.6 9999 9999 108.03 110.36 111.58 112.32 111.3 109.96 112.8 111.34 112.21 113.48 112.86 112.96 111.3 110.26 110.49 112.74 115.5 111.75 106.95 104.61 104.15 104.16 104.27 9999 9999 9999 9999 9999 9999 9999 9999 9999 9999 104.43 104.36 104.42 104.52 104.67 104.46 104.26 104.37 107.75 108.71 110.3 110.43 113.29 114.26 114.88 114.99
110.29 111.44 113.11 112.56 111.94 113.71 110.92 107.18 106.77 106.68 106.73 107.17 114.18 113.43 111.52 109.78 114 111.98 108.27 108.15 106.93 107.12 106.85 106.91 107.8 108.71 110.45 111.17 113.61 113.56 112.59 112.77 113.95 111.79 111.82 111.46 113.52 115.33 117.18 112.13 110.64 115.2 117.33 114.21 108.53 106.36 105.81 105.77 106.43 110 111.9 114.96 115.03 114.68 109.42 107.02 106.9 108.69 109.19 107.21 109.27 111.37 112.16 110.36 111.1 114.73 113.63 111.82 111.25 108.1 108.87 111.36 110.28 111.29 112.37 111.95 110.49 113.14 118.62 117.7 113.37 111.75 107.89 104.41 104.15 104.2 9999 9999 9999 9999 9999 9999 9999 104.35 104.31 104.19 104.43 104.9 104.91 105.31 107.45 109 106.94 107.75 111.88 113.08 113.85 114.03 109.13 115.53 116.08
109.28 9999 112.3 113.41 110.62 115.51 110.92 111.89 111.19 108.59 107.77 109.19 112.24 110.36 109.48 112.81 109.61 109.8 110.85 108.15 107.6 106.91 106.84 106.82 107.4 107.5 109.11 109.62 112.05 113.53 112.54 112.02 111.34 112.24 116.02 115.23 114.16 114.56 117.45 117 117.2 117.93 116.84 108.06 105.83 105.56 105.7 105.77 106.02 108.5 113.24 114.19 115.59 114.92 115.27 111.67 107.06 107.54 112.88 108.24 108.52 111.74 113.92 112.88 114.93 113.32 112.4 111.16 111.05 109.1 109.31 111.79 111.11 109.83 109.72 111.68 113.99 110.06 112.61 117.33 115.69 114.5 113.9 107.54 104.22 104.13 104 9999 9999 9999 9999 9999 104.24 104.3 104.19 104.39 104.69 104.64 105.42 108.47 108.04 110.13 111.9 109.99 110.68 111.33 112.27 111.22 112.57 111.87 108.37
111.45 110.17 108.34 108.31 111.13 118.93 115.52 110.72 115.14 115.8 115.91 115.97 114.88 114.82 111.77 113.67 113.69 110.21 107.54 110.58 108.57 108.41 108.06 108.87 107.12 9999 9999 107.09 107.39 110.06 113.25 113.54 112.34 105.84 112.03 113.43 114.13 111.83 115.88 117.36 116.62 117.23 115.13 107.13 106.11 105.93 105.7 108.11 110.52 113.66 115.44 113.88 114.35 115.09 114.93 115.89 113.11 108.49 109.68 107.32 9999 9999 9999 109.5 108.53 111.77 111.99 111.64 111.31 109.42 109.7 110.8 111.71 111.86 109.91 108.99 110.11 110.06 113.63 114.92 115.33 115.36 112.13 109.23 104.71 104.19 104.04 9999 9999 9999 9999 104.23 104.2 104.54 104.79 104.67 104.82 105.79 112.27 111.87 110.53 109.24 109.01 107.42 110.68 111.62 114.78 112.76 109.52 107.82 105.07
110.69 112.6 113.81 112.32 109.93 110.83 110.34 110.72 109.41 109.7 113.53 113.68 114.25 114.58 114.23 113.86 116.35 117.64 108.88 107.56 108.57 109.81 112.41 117.34 114.52 108.39 9999 106.95 107.22 9999 108.57 113 110.61 105.84 105.8 105.89 111.37 115.38 115.18 115.5 114.79 107.17 104.56 104.54 106.35 109.52 107.94 111.03 114.69 115.34 114.86 113.22 112.48 111.93 113.68 112.44 113.7 115.2 117.6 107.6 9999 9999 9999 106.34 108.53 111.6 111.66 111.38 111.31 111.88 112.14 112.38 114.19 111 111.3 110 110.58 111.32 110.67 109.51 110 111.35 117.32 108.92 106.74 104.63 104.14 104.34 104.05 104.05 104.23 104.23 106.16 109.99 113.89 112.38 107.76 111.34 112.37 109.83 112.29 114.45 113.73 108.47 107.94 112.14 108.59 106.19 104.94 104.52 104.49
111.57 112.17 115.47 115.42 115.68 111.26 112.78 109.76 114.03 112.11 112.87 112.96 113.15 109.22 108.25 109.3 111.32 112.44 115.39 107.54 107.47 109.21 113.04 114.05 112.77 112.62 107.19 106.86 106.81 9999 9999 109.71 113.75 106.17 105.88 106.02 105.79 109.18 116.07 112.07 104.82 104.33 105.2 104.47 104.97 108.93 109.13 111.03 112.82 115.54 114.27 113.76 108.46 107.33 109.64 112.59 112.32 113.01 115.2 107.96 109.41 106.55 106.33 108.81 110.44 111.13 109.12 111.5 113.63 112.4 112.89 111.49 113.16 112.13 112.79 111.11 114.51 112.77 110.67 104.9 104.94 105.04 108.28 111.11 110.88 111.26 104.64 104.25 104.22 104.21 104.34 104.32 116.97 117.68 116.53 115.28 112.76 113.08 113.27 110.03 111.08 112.4 111.74 110.97 110.19 112.14 104.22 104.33 104.86 105.11 104.8
111.65 112.89 114.54 112.74 112.33 114.1 116.11 113.31 114.03 114.37 112.02 111.51 112.25 111.77 111.72 9999 9999 9999 112.14 109.49 108.01 107.68 108.68 111.25 114.09 114.63 113.52 109.67 109.07 108.7 108.53 112.33 114.23 108.44 105.88 105.98 106.47 108.66 115.83 108.32 104.48 104.76 104.13 104.23 104.71 104.33 105.6 109.66 104.96 107.29 110.71 114.26 113.89 107.18 107.81 109.18 109.42 109.88 113.53 107.77 110.85 111.18 111.27 113.67 112.95 111.13 112.59 112.18 114.57 106.11 107.14 108.46 108.47 108.92 109.45 111.1 112.18 110.5 105.47 104.74 105.19 105.7 106.39 108.61 110.37 111.26 106.73 104.43 104.65 104.54 105.46 110.16 116.97 120.03 123.23 123.9 123.66 118.17 118.16 114.96 113.96 114.68 111.1 106.82 107.7 104.89 103.88 104.11 103.94 104.29 104.39
110.73 112.34 113.93 114.8 115.46 117.29 115.73 115.89 115.35 112.92 111.19 112.26 111.99 112.81 114.04 112.56 9999 9999 110.27 116.68 115.59 111.04 112.35 112.58 114.42 113.46 113.89 108.28 108.28 111.65 117.61 116.17 115.7 107.08 105.85 106.31 106.17 108.48 115.37 106.29 104.54 104.79 104.4 104.49 105.22 104.72 104.56 104.36 104.96 104.4 104.44 108.55 113.7 110.6 110.35 113.46 113.15 112.88 113.3 112.65 110 111.01 110.94 111.01 112.31 112.33 109.1 111.14 111.14 107.86 105.51 104.98 104.83 104.87 104.93 105.02 105.03 105.15 104.88 104.74 109.14 109.79 105.96 107.25 111.65 109.59 106.98 107.88 108.49 110.06 115.25 116.98 117.3 123.42 131.05 133.14 130.92 123.59 120.44 116.53 113.99 114.8 110.13 104.58 104.14 104.1 104.49 104.02 104.07 104.18 104.12
112 111.58 112.58 114.31 114.96 110.63 109.65 112.12 115.2 113.66 111.4 111.82 114.54 113.18 113.72 113.42 115.29 113.63 113.65 114.54 113.92 112.28 112.35 113.47 113.67 113.52 113.06 108.84 9999 9999 113.96 116.84 116.39 107.08 106.16 9999 113.35 114.07 115.76 114.86 104.88 104.46 104.74 104.65 104.74 104.93 104.94 104.82 104.95 104.83 104.54 104.77 112.41 112.7 110.07 109.46 112.33 112.07 111.29 112.24 114.1 114.18 106 105.24 105.81 106.8 109.1 105.14 104.97 105.28 107.98 106.47 105.87 108.84 110.23 106.03 105.27 105.17 104.88 105.02 106.17 106.03 104.92 105.35 109.16 107.3 108.66 111.83 114.71 114.55 115.18 114.32 115.37 122 129.62 132.35 129.76 123.06 118.16 114.92 116.12 113.93 105.44 104.16 104.03 104.3 9999 9999 104.2 104.08 104.16
114.73 112.31 114.42 111.34 107.81 106.34 9999 9999 108.77 110.66 109.73 108 112.53 112.07 113 111.73 113 113.51 113.91 115.49 114.89 112.57 114.16 109.62 108.63 111.42 114.27 108.88 107.1 9999 9999 110.9 111.5 106.27 107.14 110.11 113.78 111.14 109.35 106.27 104.8 104.53 9999 9999 9999 104.49 104.83 104.54 104.79 104.73 104.81 104.12 107.78 115.61 115.93 109.71 106.59 105.81 105.82 107.74 114.55 114.89 112.07 106.67 105.45 105.48 9999 105.41 105.17 105.09 105.17 105.44 106.33 113.87 115.59 115.07 111.48 105.22 104.79 104.96 106.17 104.8 104.77 105.24 105.56 109.53 112.27 114.36 111.18 113.57 114.19 113.73 114.62 122 120.79 120.61 122.03 119.86 116.65 112.13 112.8 106.24 104.86 103.92 104.31 9999 9999 9999 104.25 104.21 9999
114.89 113.84 110.41 107.15 106.98 106.64 9999 9999 106.68 107.06 108.6 107.2 109.28 110.31 110.71 110.52 112.07 111.79 112.79 114.74 115.33 114.96 114.24 109.62 111.38 110.33 111.15 108.91 9999 9999 9999 9999 107.22 109.56 112.79 113.81 113.78 107.03 106.34 104.76 104.35 104.79 104.82 9999 9999 9999 104.2 104.77 104.75 104.73 104.28 104.59 104.65 105.07 111.94 114.19 109.76 106.77 105.81 105.91 112.42 115.27 111.76 111.07 106.64 105.27 105.13 105.41 105.32 105.39 105.08 105.08 105.04 108.97 115.48 115.1 113.67 106.85 106.02 105.17 105.04 105.03 106.21 105.7 106.9 110.11 109.9 111.36 109.47 107.77 112.92 110.99 114.37 116.17 115.94 116.73 119.38 117.29 113.76 112.85 111.45 104.88 104.55 104.09 104.34 104.47 9999 9999 104.12 103.97 9999
114.47 110.12 106.45 106.41 106.7 106.6 106.73 9999 106.72 106.66 108.6 106.73 108.61 112.81 113.28 110.01 111.07 111.69 112.26 112.69 113.11 114.07 113.32 112.71 114.01 111.84 113.03 9999 9999 9999 9999 9999 106.78 108.02 110.83 112.68 110.62 110.91 113.21 109.2 105.05 104.47 104.51 104.61 9999 104.7 104.42 104.55 104.32 104.37 104.81 104.73 104.93 104.58 106.01 111.65 112.96 109.92 110.43 108.04 111.56 113.37 116.14 107.99 106.32 105.53 105.39 105.39 107.69 105.21 105.52 105.63 105.31 109.61 113.89 110.5 110.4 109.37 113.93 108.19 104.93 105.23 105.7 105.09 107.11 108.96 110.84 112.5 111.42 111.56 114.01 113.2 116.25 116.99 115.94 115.64 112.11 113.62 113.35 114.97 111.7 104.98 104.45 103.97 103.98 103.94 103.88 104.12 104.34 104.24 104.28
114.24 112.13 106.37 106.77 9999 9999 106.64 106.72 106.51 106.64 106.51 106.5 106.55 109.32 112.65 111.63 112.12 111.01 111.71 111.56 109.61 108.31 109.41 111.47 113.68 114.03 115.08 114.37 9999 9999 9999 9999 9999 107.33 9999 109.56 108.58 110.91 110.43 113.94 111.34 104.87 104.46 104.12 104.14 104.14 103.72 104.47 104.7 104.49 104.81 104.44 104.97 107.83 109.54 112.14 112.04 113.52 113.81 112.86 110.52 108.36 114.3 111.2 104.79 104.57 104.84 105.85 107.69 105.23 106.99 106.7 105.74 109.86 112.66 110.16 112.63 107.64 107.3 113.49 105.98 105.23 104.65 104.66 107.32 111.13 110.44 111.44 112.17 115.31 116.22 116.83 116.84 116.21 116.83 111.79 113.15 112.79 112.86 114.93 109.94 104.88 104.53 104.16 104.2 104 104.31 104.2 104.34 104.67 104.38
113.57 106.96 106.31 106.77 9999 9999 106.35 106.59 106.87 106.8 106.36 106.5 106.72 109.25 110.89 111.35 111.14 113.69 113.04 111.64 113.07 113.22 111.84 109.55 113.68 111.43 112.54 111.32 112.02 113.35 9999 111.63 108.63 107.88 9999 9999 9999 9999 9999 112.98 113.01 106.51 104.9 107.34 110.53 105.4 104.05 104.31 104.09 104.76 104.99 104.33 104.83 104.56 106.48 111.19 110.21 109.96 110.44 114.16 113.64 115.42 112.08 105.97 9999 9999 9999 9999 105.08 104.89 111.28 115.31 114.97 113.38 113.79 112.91 110.8 113.72 109.9 111.26 109.67 105.17 104.85 105.35 107.82 109.98 111.05 113.65 114.98 112.59 112.39 110.2 107.32 111.85 111.29 111.79 111.39 111.02 110.46 111.86 111.83 109.32 109.3 108.23 108.35 108.01 112.18 113.57 109.04 108.03 104.15
109.62 108.17 107.31 106.39 106.21 106.2 106.67 107.43 106.98 106.81 106.96 106.7 111.7 114.89 113.4 113.7 112.59 112.28 108.18 108.37 111.12 113.03 112.33 108.44 110.76 112.14 111.86 111.26 111.15 111.08 111.66 111.39 111.76 111.49 109.54 9999 9999 9999 9999 114.03 115.97 111.01 104.96 105.79 111.72 112.21 106.88 104.3 104.13 104.05 104.36 104.33 104.63 9999 105.06 111.41 112.36 110.81 112.18 106 104.68 108.57 109.74 105.96 9999 9999 9999 9999 9999 104.53 106.84 111.2 115.95 111.33 111.98 114.77 112.73 113.91 113.64 112.19 108.62 104.55 104.85 106.37 107.84 109.54 109.51 111.82 115.69 115.69 111.42 105.7 9999 9999 110.12 110.25 109.77 108.95 110.18 110.04 111.43 111.92 112.32 113.31 112.96 112.82 113.33 115.6 113.13 108.03 104.31
109.35 106.9 107.76 110.42 109.38 107.11 107.33 107.65 106.34 106.3 106.38 107.82 111.7 110.83 112.92 112.65 114.29 115.49 115.89 107.49 9999 9999 107.4 109.45 112.62 112.14 113.23 111.81 112.04 111.86 112.73 111.56 111.28 112.56 112.22 111.32 108.16 108.4 110.16 114.26 113.15 111.64 109.46 105.18 108.08 114.29 109.1 104.76 104.09 104.15 104.48 104.49 104.71 105.22 106.74 111.68 114.49 115.1 115.78 107.7 104.98 104.48 104.59 104.98 9999 9999 9999 9999 9999 104.53 105.62 104.9 108.06 112.1 107.64 110.51 112.64 113.3 112.91 112.06 104.39 103.69 104.24 106.52 106.4 106.58 109 109.81 110.69 110.18 107.31 107.86 106 105.69 106.12 109.41 109.77 111.37 111.38 110.76 112.38 113.39 113.19 113.46 111.82 109.06 109.54 110.64 113.36 115.83 106.44
106.59 106.53 106.49 108.85 110.61 111.18 109.79 106.5 106.33 106.36 106.35 109.27 113.69 113.43 112.96 114.12 114.88 116.02 112.66 107.22 107.03 106.84 109.08 113.54 114.35 115.27 113.93 112.51 111.7 112.33 113.22 112.13 111.71 112.14 110.81 111.65 110.75 112.09 113 111.27 112.29 113.29 115.19 113.51 107.73 109.32 107 104.55 104.1 104.17 104.17 104.82 104.71 112.93 112.96 112.04 112.48 113.34 113.58 112.62 111.13 108.18 104.62 9999 9999 9999 9999 9999 104.68 104.85 107.46 107.1 107.91 110.48 110.48 108.25 110.01 110.83 110.63 110.71 104.42 103.51 104.34 106.52 106.36 106.19 108.97 109.97 108.2 104.16 103.9 106.69 111.6 107.48 108.48 109.14 110.02 114.82 113.53 113.15 115.15 112.28 114.19 115.04 113.68 111.47 111.44 114.75 114.6 115.93 106.44
106.59 106.69 106.42 106.41 107.16 113.09 111.05 108 106.54 107.83 108.46 113.2 115.02 113.43 114.04 114.03 113.51 111.94 106.93 107.28 107.24 107.46 109.74 110.69 109.59 111.25 113.93 114.02 112.21 112.05 112.43 112.05 110.61 109.3 109.53 110.41 112.13 111.22 110.62 111.27 111.86 110.5 111.81 114.6 111.8 110.35 105.13 104.04 104.28 104.27 104.23 104.35 105.39 111.9 112.16 110.99 111.8 112.71 109.02 108.82 112.73 115.25 111.62 105.75 105.26 104.8 104.49 104.33 104.38 105.62 107.46 109.49 111.77 109.85 115.01 114.4 110.15 106.9 105.86 104.78 105.04 107.2 107.3 111.2 111.58 108.33 107 106.6 105.25 104.03 103.83 103.46 105.24 110.27 113.69 111.55 111.78 113.47 113.52 110.68 115.97 115.59 115.58 117.15 115.64 115.1 115.13 115.93 116.58 113.48 104.39
106.45 106.55 106.73 106.57 106.7 107.35 112.91 111.61 107.59 111.72 113.32 113.85 114.74 113.37 114.27 112.02 109.21 109.85 107.24 107.1 9999 9999 107.07 112.26 110.32 111.65 112.98 112.68 113.53 111.36 110.46 112.26 111.82 109.93 109.08 110.37 111.53 111.8 111.04 110.82 110.83 109.77 110.31 111.5 111.53 109.3 108.24 105.21 104.58 104.38 104.4 104.53 104.42 111.9 112.18 113.48 113.18 112.15 111.77 111.79 113.75 116.42 115.84 110.72 108.22 106.92 107.13 108.22 108.28 108.5 108.5 114.71 114.94 112.41 113.49 111.9 111.38 109.02 107.22 107.89 113.15 115.49 113.62 111.6 111.58 113.22 108.52 108.37 106.14 103.36 103.15 102.86 102.95 103.86 112.21 115.7 115.37 113.97 111.7 114.07 115.36 114.76 114.78 115.34 116.17 115.05 111.81 113.02 114.9 111.03 104.09
106.1 108.17 105.95 106.04 106.06 105.97 106.13 105.84 106.41 109.39 111.41 113.57 112.18 113.83 114.67 111.68 110.8 113.62 108.61 107.33 107.39 9999 107.37 108.83 113.11 113.27 112.89 112.68 112.62 113.71 112.71 112.12 112.75 111.53 111.87 112.27 113.48 112.42 111.32 110.83 110.83 109.74 111.58 112.52 110.14 107.88 108.82 105.32 104.41 104.41 104.77 105.01 107.91 111.61 109.46 113.26 112.58 111.98 112.31 111.5 114.58 115.06 111.22 106.16 105.67 109.46 114.22 114.01 113.53 113.98 108.51 114.71 115.6 113.48 107.44 107.49 113.11 114.95 113.75 114.07 114.46 114.66 115.2 112.43 112.33 106.51 107.91 108.56 105.36 102.75 102.77 102.68 102.75 103.54 105.47 112.28 111.42 111.23 111.7 112.75 113.47 112.3 114.7 114.04 116.07 116.26 113.71 112.24 114.9 106.84 103.94
114.09 108.17 108.92 105.88 105.72 105.43 106.01 109.48 105.99 110.42 110.89 111.3 114.92 116.87 114.67 111.07 110.79 111.52 112.71 107.19 107.31 107.46 9999 107.41 111.25 113.89 113.39 111.76 111.64 112.32 112.82 113.3 111.41 109.04 109.34 111.99 113.77 112.72 112.38 112.32 111.49 110.88 110.94 112.18 112.48 108.79 111.15 110.04 104.79 104.54 104.65 111.05 111.81 109.96 110.5 110.26 112.17 110.71 112.31 113.07 111.45 110.71 114.4 111.16 108.91 112.28 109.24 108.37 109.21 112.06 115.16 115.39 115.95 115.59 114.38 108.05 108.85 114.2 113.85 114.22 112.96 115.46 113.52 109.59 113.49 111.07 103.93 104.7 103.86 103.1 102.62 9999 9999 103.08 104.52 107.31 108.36 112.5 112.37 113.24 110.45 108.5 110.87 113.7 114.06 113.81 114.21 112.31 106.96 104.04 103.97
113.47 113.99 114.76 111.2 105.87 108.4 113.87 116.35 110.16 110.26 113.25 110.66 111.9 112.63 113.68 110.33 110.28 108.87 112.37 108.79 107.48 9999 9999 107.32 110.08 111.01 111.93 111.88 112.65 111.84 109.11 108.67 109.15 109.26 110.67 112.45 113.2 111.98 112.23 113.2 112.35 111.77 112.41 111.37 111.46 110.75 111.16 107.47 105.5 104.73 105.57 112.4 113.19 112.69 110.5 114.03 112.44 110.26 112.51 109.43 111.46 113.6 112.76 111.14 111.97 110.09 109.86 110.1 108.47 109.14 108.75 111.31 114.77 110.1 111.34 111.33 110.78 112.14 113.93 112.39 112.86 114.88 116.27 113.9 112.36 105.55 103.91 103.3 102.93 103.27 102.73 102.58 9999 102.73 103.78 108.35 106.42 110.8 112.22 105.15 104.14 104 104.15 104.91 106.61 108.62 106.6 104.72 103.96 104.22 104.63
112.49 112.95 114.76 107.11 105.75 111.51 117.46 115.36 108.62 108.05 110.83 111.56 112.55 112.45 110.64 110.33 109.52 111.29 114.03 111.34 107.36 9999 107.57 107.34 109.79 110.32 109.4 111.96 112.65 109.63 109.58 110.97 112.31 111.54 111.56 111.74 112.4 111.88 111.57 111.2 112.1 112.57 112.06 112.5 110.03 111.85 111.08 113.87 106.63 104.93 105.05 106.67 107.99 110.19 115.1 104.24 104.1 104.19 104.25 109.43 104.82 112.16 111.28 110.57 112.03 112.97 112.94 112.79 112.86 110.38 113.26 110.79 110.37 110.33 105.89 104.42 105.37 106.9 110.85 113.75 113.7 113.76 113.89 111.16 106.86 104.13 104.97 104.44 104.14 102.95 102.66 102.59 102.57 102.82 104.28 109.13 109.68 107.31 107.47 105.15 104.99 104.45 104.35 104.01 104.13 104.01 103.95 104.13 104.28 104.43 104.62
111.4 113.93 109.51 105.64 106.33 106.58 109.18 107.28 107.17 106.76 106.29 108.08 113.03 113.17 113.72 112.83 110.99 111.4 110.66 112.12 106.94 107.39 9999 107.15 108.7 111.09 111.99 112.37 113.26 112.39 114.41 113.15 114.08 112.76 112.56 111.86 112.1 111.82 111.4 110.52 110.93 111.44 112.06 111.29 111.48 109.34 111.2 112.75 110.05 105.69 105.01 104.44 103.67 104.12 104.03 104.24 104.31 104.26 104.11 104.25 103.62 105.25 113.66 114.4 112.13 113.04 113.07 112.41 112.4 110.69 110.4 111.07 109.94 110.33 106.49 103.22 103.04 103.15 105.26 110.42 111.11 111.74 109.36 107.46 110.32 107.19 104.97 108.93 111.15 108.38 105.14 104.21 103.86 103.7 104.18 108.54 109.57 111.68 110.2 107.93 114.36 111.29 108.11 106.57 104.95 104.32 104.5 106.19 105.9 104.96 104.63
105.74 106.04 105.78 105.64 106.37 9999 106.5 106.42 106.56 106.42 105.67 106.54 112.51 113.81 112.02 109.66 110.99 106.93 107.08 108.87 110.95 107.22 106.93 107.32 111.31 112.18 112.93 113.28 112.52 113.65 112.62 113.77 114.79 113.4 114.15 114.58 113.27 112.25 112.37 111.86 111.31 111.23 110.84 111.25 111.76 112.86 110.36 113.09 113.19 109.22 109.19 105.22 103.82 104.05 9999 9999 9999 9999 9999 103.83 103.82 103.74 106.41 113 113.73 115.01 112.24 112.77 110.89 109.71 109.7 108.73 111.37 111.66 103.38 103.07 102.54 102.57 102.65 103.29 104.09 104.3 104.85 105.96 106.41 106.98 108.92 110.58 110.58 113.69 111.09 111.19 112.22 111.03 112.8 110.02 108.11 109.6 113.95 117.22 114.36 112.21 112.37 113.45 112.26 107.1 105.65 111.79 110.96 109.65 108.62
106.06 105.86 106.31 9999 106.63 108.73 9999 106.28 106.36 9999 105.69 105.65 105.87 107 107.19 107.46 106.91 106.31 105.79 108.48 116.76 112.52 109.95 108.49 110.53 111.61 112.84 112.02 111.46 110.97 114.1 114.38 113.41 113.04 113.15 112.53 113.33 113.62 113.1 113.77 112.68 112.59 111.39 111.81 113.16 114.03 112.47 111.3 110.7 112.26 110.98 109.45 104.21 103.81 9999 9999 9999 9999 9999 103.78 103.73 103.6 104.08 108.01 111.33 110.89 110.54 112.78 111.83 111.43 110.1 111.54 108.99 104.51 103.18 102.52 102.43 102.2 102 102.22 102.18 102.24 103.09 102.13 102.07 102.55 105.82 110.58 108.71 115.01 112.1 111.18 108.72 114.21 116.26 115.8 114 113.65 115.32 112.17 112.38 112.31 111.42 112.28 114.34 108.13 108.54 110.22 110.42 111.47 113.28
106.09 106.15 105.91 106.37 106.63 110.49 106.36 106.32 106.29 9999 105.77 105.76 106.14 106.47 106.17 9999 106.28 9999 9999 107.21 112.35 115.19 115.87 109.93 109.97 110.89 112.43 113.15 113.18 113.26 114.1 111.39 112.22 111.85 111.59 111.02 109.47 111.05 112.4 113.9 112.34 113.95 112.78 111.81 112.76 111.91 112.62 113.26 112.48 112.65 112.79 112.75 111.46 104.28 103.74 9999 9999 9999 103.76 103.69 103.94 103.6 104.68 104.41 105.39 104.95 104.64 106.09 112.68 109.84 111.22 106.4 104.78 103.54 103.18 102.52 102.24 102.16 102.04 9999 9999 9999 102.13 101.88 102.17 9999 102.09 103.56 102.28 104.49 109.78 111.38 107.57 109.12 113.82 114.55 114.48 115.89 115.84 113.53 113.32 112.31 114.51 113.23 111.9 113.05 115.82 113.72 109.67 109.94 109.51
106.11 106.9 107.54 109.64 113.72 110.57 106.23 106.21 9999 9999 9999 106.16 9999 9999 9999 9999 9999 9999 106.32 106 108.88 115.38 113.22 107.99 109.72 110.34 111.62 111.29 113.38 111.88 111.55 111.16 111.24 111.2 112.35 110.01 109.46 111.13 111.28 112.73 113.64 117.48 114.56 112.26 112.07 112.23 111.54 112.2 112.94 113.62 113.06 113.03 111.46 106.13 104.28 104.05 103.7 103.66 104.45 104.33 106.17 105.19 113.19 108.47 106.82 105.19 106.06 105.97 106.56 106.69 107.59 105.67 106.8 103.97 103.05 102.63 102.34 102.19 9999 9999 9999 9999 9999 9999 9999 9999 9999 9999 102.28 102.25 102.44 103.86 103.83 102.78 103.28 106.63 109.87 112.73 109.08 108.99 112.69 114.16 104.34 106.28 108.04 112.69 112.75 111.34 109.64 108.96 109.04
111.86 112.63 112.87 112.48 111.4 106.32 105.98 106.1 106.2 9999 9999 9999 9999 9999 9999 9999 9999 9999 9999 106.49 106.53 110.25 107.71 107.17 107.76 110.19 111.47 108.39 109.19 110.72 111.29 111.16 111.52 110.63 109.77 108.77 111.11 111.26 111.11 112.42 113.97 115.9 117.23 114.99 112.07 113.22 112.06 112.05 114.25 114 112.42 114.55 110.12 108.63 104.78 104.01 103.94 103.9 106.48 105.3 109 110.92 113.19 111.54 111.28 111.69 107.8 105.73 105.64 104.87 105.99 108.97 111.76 110.41 105.76 102.63 102.71 102.3 102.27 9999 9999 9999 9999 9999 9999 9999 9999 101.95 102 102 101.97 102.34 103.17 103.09 103.04 103 102.74 103.77 104.8 103.26 103.95 104.63 104.34 104.5 107.57 109.83 108.51 110.72 107.93 106.28 107.03
110.12 112.2 112.69 107.58 106.29 9999 106.51 106.07 106.47 9999 9999 9999 9999 9999 9999 9999 9999 9999 9999 106.46 9999 106.62 111.5 109.55 106.53 106.47 108.89 110.12 112.96 112.81 112.21 112.13 110.56 110.49 110.76 110.29 108.47 108.08 108.21 109.24 112.22 110.11 109.47 113.94 115.13 114.33 115.59 114.1 114.47 115.86 113.42 113.2 113.6 109.88 104.36 104.19 104.83 104.67 106.48 108.61 109.64 112.94 111.82 110.81 110.01 111.02 112.97 109.93 105.1 105.45 105.93 108.37 112.51 111.65 110.6 105.18 105.67 102.7 102.27 102.05 9999 9999 9999 9999 9999 9999 9999 101.99 101.98 102 102.22 102.15 102.4 102.55 102.51 102.55 102.4 102.54 104.32 103.36 104.3 104.77 104.09 104.25 104.86 107.07 108.72 105.69 104.77 104.73 105.94
106.15 106.3 105.93 106.19 9999 9999 9999 9999 106.23 9999 9999 9999 9999 9999 9999 9999 9999 9999 9999 9999 9999 106.44 112.24 108.2 106.34 106.99 108.18 109.7 110.46 107.88 107.22 108.66 110.56 110.46 112.78 113.13 111.08 110.7 109.02 111.98 108.61 107.14 108.04 112.11 114.15 114.33 111.29 111.52 111.9 115.12 115.68 114.34 112.5 104.91 104.25 104.21 108.55 113.72 112.27 111.19 110.31 113.14 113.03 110.87 111.37 113.09 111.93 112.51 113.56 107.02 105.96 110.52 112.22 110.41 111.57 112.89 105.67 103.34 102.56 102.27 101.99 9999 9999 9999 9999 9999 9999 102.13 102.17 102.14 102.65 102.56 102.8 103.08 102.95 102.81 102.52 102.39 102.59 106.62 105.54 105.12 104.21 104.25 104.77 105.9 105.38 9999 9999 104.75 105.63
105.8 106.25 9999 9999 9999 9999 9999 9999 9999 106.27 9999 9999 9999 9999 9999 9999 9999 9999 9999 106.46 106.15 9999 106.46 106.55 107.63 107.42 107.6 107.13 106.66 106.45 106.43 106.24 108.7 110.08 111.71 112.8 115.19 114.13 111.34 111.82 113.22 109.6 109.33 112.05 111.88 111.16 109.27 109.77 111.61 113.67 111.64 109.94 110.57 109.49 104.31 104.33 107.92 112.2 111.59 111.1 112.98 115.7 112.88 110.87 112.94 112.91 112.8 114.5 113.97 114.35 110.82 113.2 113.05 110.77 113.08 114.42 113.53 105.36 103.33 102.82 102.48 102.32 102.02 101.94 102.02 102 102.05 102.18 102.41 102.55 102.65 102.29 102.65 103.32 103.69 103.42 102.92 103.2 104.43 107.11 107.56 107.1 110.25 108.68 113.55 109.96 106.85 104.8 104.71 104.83 105.46
106.19 105.97 106.28 9999 9999 9999 9999 111.83 110.76 113.52 114.32 110.86 109.83 107.94 9999 9999 106.11 106.2 106.11 106.02 106.29 105.94 106.31 105.99 105.88 106.17 107.21 106.16 106.3 9999 106.12 106.51 111.08 109.71 110.87 115.47 115.12 111.56 112.31 112.29 112.1 113.11 109.78 110.26 111.15 109.95 109.27 111.43 111.64 112.12 111.97 111.14 107.49 104.66 9999 107.6 111.3 109.69 108.82 110.56 112.47 114.88 111.82 112.62 112.13 113.72 114.88 112.82 112.82 113.22 114.63 112.91 114.3 113.03 112.44 113.22 115.18 105.36 105.18 103.11 102.55 102.63 102.28 102.21 102.1 102.03 101.91 102.01 102.44 102.55 102.49 102.32 102.88 103.69 103.62 103.47 106.37 110.73 111.45 111.34 111.62 112.46 111.49 115.16 113.55 116.33 114.44 108.3 105.74 105 106.87
113.67 112.04 109.54 109.23 9999 106.49 108.9 111.83 113.47 114.47 113.91 111.06 111.56 106.52 106.59 106.4 105.8 9999 9999 9999 9999 106.11 106.9 107.68 106.12 105.87 106.45 106.34 107.21 108.67 108.67 109 110.11 109.71 113.46 114.54 115.51 113.76 112.1 111.98 111.94 111.63 113.47 109.16 109.14 111 111.88 110.57 111.42 111.06 107.26 105.17 104.7 104.71 107.29 113.24 112.44 109.85 108.18 108.55 112.29 113.27 112.23 111.02 112.13 110.96 111.46 110.93 111.5 113.22 114.54 112.19 111.91 113.78 113.76 113.28 113.66 106.44 106.76 104.64 103.05 102.97 102.78 102.44 102.51 102.21 101.98 102.02 101.83 101.99 102.03 102.32 102.72 103.09 103.26 105.53 110.76 112.48 112.45 110.94 110.08 111.62 112.41 112.17 115.32 111.5 113.88 114.27 113.01 112.46 108.69
115.72 112.84 113.95 115.65 110.96 112.17 110.98 114.06 110.46 114.84 114.37 111.13 114.2 106.43 106.57 106.34 106.37 9999 9999 9999 106.24 110.3 109.86 111.87 110.86 108.86 106.87 108.89 112.57 110.79 110.25 111.11 110.36 110.07 109.75 112.95 115.19 113.66 111.5 111.82 112.2 111.33 110.97 108.67 109.68 109.58 112.18 110.57 109.31 107.74 104.6 105.17 105.66 105.64 106.51 107.83 110.85 112.39 108.31 110.41 112.93 112.57 112.44 112.1 110.49 111.22 110.88 109.9 111.3 112.52 111.85 107.77 108.16 110.7 111.66 113.84 116.65 110.82 106.76 112.84 106.83 104.02 103.53 103.46 103.52 102.81 102.12 102.1 9999 9999 9999 102.01 101.96 102.01 102.51 105.79 113.98 112.62 112.47 110.41 110.46 110.55 111.48 109.49 110.22 110.76 110.79 110.31 110.71 112.34 113.04
107.71 109.3 115.89 115.84 112.45 113.59 113.19 112.71 110.46 112.81 112.51 111.95 111.48 107.47 106.34 9999 106.37 106.31 106.26 106.4 106.19 110.3 111.31 110.02 110.54 112.24 111.31 111.99 110.99 108.45 108.92 109.95 109.74 108.46 109.75 110.43 110.4 113.41 114.14 112.29 111.46 110.32 109.05 111.3 111.69 108.49 110.21 109.49 111.34 105.05 105.88 105.07 105.22 105.06 105.16 104.87 104.84 108.65 112.18 108.23 111.4 112.67 112.09 111.77 111.94 111.22 112.44 112.17 111.6 110.55 111.7 107.61 107.53 109.45 113.51 113.83 114.01 112.21 110.51 112.2 113.6 110.86 104.37 103.79 103.62 103.58 102.96 102.44 102.11 101.9 101.82 101.78 101.99 102.25 102.93 105.53 109.89 109.76 110.85 110.28 111.27 110.88 110.38 109.06 108.54 110.76 110.68 110.81 108.64 111.67 111.37
110.42 106.34 112.54 115.35 114.25 113.68 114.06 110.88 114.45 113.45 114.13 110.73 111.46 108.22 106.54 9999 9999 9999 9999 9999 107.46 115.62 109.49 108.31 110.71 110.12 109.97 110.96 110.79 110.3 109.93 109.65 108.42 108.28 108.73 109.97 110.49 110.9 111.9 112.26 112.45 111.07 108.94 109.62 110.82 108.72 108.3 111.16 111.91 106.02 108.89 108.73 105.74 104.9 104.8 104.72 104.83 104.92 108.33 107.37 111.02 111.68 111.55 111.09 111.4 113.34 112.01 112.1 111.68 112.35 113.03 110.45 107.63 108.4 110.68 107.94 106.32 105.93 106.75 112.2 109.24 115.96 110.59 106.14 105 105.33 103.36 102.29 102.19 102.04 101.88 101.86 101.99 102.31 104.45 110.9 109.81 108.96 110.68 111.39 111.36 110.46 109.79 110.64 109.31 109.76 110.94 113.49 113.3 111.95 107.79
112.84 114.41 112.96 113.79 115.95 113.69 114.03 113.57 114.81 113.45 114.37 113.65 111.29 108.05 106.49 106.35 9999 9999 9999 9999 9999 9999 109.49 106.75 109.8 110.68 110.19 110.8 111.36 110.88 110.26 110.37 110.51 109.8 109.12 109.97 110.75 111.42 111.51 112.61 113 111.41 110.85 109.37 108.62 107.59 9999 109.86 111.91 106.67 108.18 111.02 105.86 105.1 105.17 104.8 104.82 104.82 107.11 110.27 110.31 109.68 111.11 111.38 110.42 111.45 112.01 110.76 110.47 110.77 112.11 112.38 112.74 112.89 109.67 105.39 9999 9999 9999 105.7 105.67 108.34 114.43 114.51 112.49 111.49 107.12 102.58 102.45 102.27 102.21 102.13 102.1 102.89 104.27 107.22 110.21 109.42 110.31 111.86 111.52 110.79 109.31 109.69 106.77 109.48 109.39 112.31 113.72 109.3 106.17
113.68 113.57 117.3 112.72 107.83 106.9 107.6 109.21 113.22 114.15 107.95 109.66 111.92 109.18 9999 106.11 106.24 106.29 106.36 9999 106.33 106.24 106.22 106.37 108.84 110.1 109.78 108.74 108.13 109.52 109.15 109.81 110.63 112.17 111.32 110.89 110.38 110.31 110.76 111.7 111.8 112.71 110.88 112.13 107.98 9999 9999 107.66 111.54 109.82 104.84 106.78 104.83 104.91 104.86 104.65 105.1 105.24 109.44 109.51 109.09 109.43 110.37 109.98 111.94 111.08 111.5 110.01 109.8 109.72 108.34 110.84 112.85 111.18 113.23 106.16 105.62 9999 9999 105.46 105.59 105.53 109.38 114.91 116.71 114.8 108.2 103.25 102.67 102.61 102.76 102.83 102.48 102.38 105.43 109.27 113.62 111.42 111.21 112.9 112.37 109.93 109.33 109.37 107.6 107.68 107.92 109.31 110.63 107.73 109.07
109.86 111.66 112.37 109.84 106.58 106.3 106.68 108.21 112.3 109.1 107.79 106.92 106.48 107.62 106.15 107.86 107.39 106.03 106.28 106.29 9999 9999 105.95 106.37 110.18 110.88 109.04 108.45 109.24 109.86 109.26 109.43 109.75 110.58 113.09 110.76 110.38 110.32 110.21 110.38 110.29 110.95 108.12 110.58 111.34 108.98 108.46 107.74 108.99 110.87 104.66 104.88 104.65 104.77 104.75 104.83 104.79 105.44 105.38 108.68 110.9 108.7 109.75 109.95 111.73 112.33 110.27 110.01 110.8 110.2 106.76 106.92 110.86 113.82 114.65 108.59 107.28 105.99 105.81 105.63 105.59 105.54 105.46 107.02 111.64 113.08 109.59 104.9 104.81 105.93 104.66 103.31 102.97 103.68 110.43 110.82 111.6 111.09 110.22 110.38 111.58 109.66 108.91 109.4 107.21 108.92 110.34 109.31 107.35 110.19 109.93
