631.74 639.04 646.63 651.47 657.1 662.48 669.75 675.94 682.11 689.28 693.53 696.51 695.93 696.43 696.08 695.95 695.12 694.47 693.95 692.4 690.7 687.08 684.04 680.26 677.37 674.81 671.85 669.86 667.83 665.93 665.17 663.48 663.05 661.21 660.43 660.08 659.31 659.95 658.96 659.28 659.03 659.28 658.4 657.23 656.16 654.56 653.24 652.12 652.1 651.26 650.31 650.55 650.76 651.59 651.68 651.35 651.7 651.8 651.61 651.38 653.39 655.6 658.37 660.77 660.57 661.15 661.31 660.88 660.47 659.72 660.16 660.73 660.78 661.52 661.79 662.44 662.47 662.96 663.73 663.55 664.23 664.36 664.54 665.36 666.87 667.21 668.19 669.74 669.67 671.31 671.91 672.44 672.65 672.59 672.57 673.25 674.01 673.69 672.87 672.22 670.81 669.41 668.92 668.29 669.15 670.85 671.82 672.71 673.73 674.07 673.82 673.29 673.96 671.85 670.89 670.29 669.7 667.77 665.95 664.26 660.97 657.9 656.14 655.24 652.75 651.35 649.49 648.3 647.61 646.24 644.39 9999 643.93 644.27 644 642.67 641.72 638.36 637.11 636.26 635.67 633.01 630.15 627.68 624.07 622.45 620.69 620.82 621.94 624.42 625.78 628.7 631.11 632.56 634.16 635.78 637.04 639.88 641.53 642.96 644.68 646.43 648.96 651.49 654.36 655.52 655.62 656.69 658.01 658.93 660.04 661.43 662.79 662.81 663.8 664.64 665.88 667.77 668.26 667.37 666.58 664.56 662.24 660.47 658.23 654.24 651.16 647.98 642.04 637.6 634.7 629.24 625.24 621.57 618.08 614.08 608.64 604.25 600.24 597.82 594.45 592.31 589.62 584.6 579 570.52 564.89 561.53 557.17 553.18 544.37 537.46 528.35 523.1 520.21 516.76 510.45 505.79 498.94 493.22 489.32 484.75 480.35 477.67 476.48 474.49 473.21 472.73 471.53 470.24 470.18 470.49 470.61 470.91 471.56 471.41 471.55 471.5 472.01 473.72 475.34 477.35 477.63 477.91 477.11 476.63 475.48 473.54 472.78 471.86
627.42 638.6 646.45 651.67 656.62 661.72 667.95 674.15 681.66 687.12 693.32 696.88 697.92 696.87 696.49 695.11 693.95 693.44 692.68 691.43 690.2 684.95 681.46 678.54 675.21 672.34 669.84 667.69 665.47 663.76 662.79 661.77 660.82 659.87 659.6 658.58 657.63 657.96 658.1 657.89 658.5 658.57 658.34 656.35 655.54 654.28 652.64 652.07 651.56 650.82 650.19 650.78 651.59 651.3 651.15 651.09 651.31 651.16 651.3 651.73 653 655.31 658.07 659.88 660.6 661.07 661.17 661.12 660.3 660.41 660.53 660.45 661.36 661.01 661.47 662.27 662.42 662.57 662.87 663.66 663.92 663.91 664.9 665.33 666.35 666.61 668.53 669.14 670.77 671.21 671.98 673.09 673.44 673.66 673.53 673.92 674.48 674.63 674.43 672.35 671.14 669.48 668.54 668.74 669.63 671.05 672.4 674.37 675.14 675.65 675.47 675.98 674.6 674.76 672.92 672.59 670.3 669.61 667.89 665.65 663.13 661.17 659.7 657.76 655.03 652.79 651.65 649.79 648.75 646.11 646.22 645.55 644.5 644.66 644.53 643.04 640.87 639.62 638.74 636.9 635.45 633.35 630.71 627.99 625.28 623.97 622.8 622.76 623.85 625.55 627.88 630.43 632.41 633.98 635.1 636.43 639.45 641.07 643.45 645.16 646.6 648.39 650.89 654.16 655.7 658.38 658.78 660.27 661.42 661.82 662.97 664.58 665.33 666.11 667.59 668.97 669.1 670.04 670.71 669.95 668.92 667.77 666.7 663.69 660.02 657.7 654.38 650.3 645.69 640.9 636.3 630.75 627.75 623.99 620.56 616.67 612.91 607.68 604.74 599.61 598.12 597.36 595.1 593.38 589.06 582.68 571.36 566.04 561.5 557.26 553.14 545.1 537.01 532 525.53 519.27 514.8 508.34 504.92 500.36 497.06 490.08 487.13 482.72 478.07 477.07 475.5 475.09 472.88 472.24 471.56 471.57 471.76 472.02 472.13 472.25 472.05 472 472.57 474.46 475.98 477.86 477.7 479.3 478.65 476.94 475.99 474.73 474.27 473.69
625.67 633.11 639.78 645.56 653.73 660.2 663.56 672.4 679.68 685.09 689.56 693.49 695.5 696.15 695.25 693.55 691.57 690.47 690.69 688.13 682.76 680.85 677.93 676.02 672.34 669.93 667.61 664.58 663.77 662.24 661.37 660.03 660.04 658.81 656.49 655.9 656.47 656.56 656.21 656.4 657.6 657 656.69 655.82 654.72 653.01 652.27 651.52 650.72 650.74 650 651.56 651.12 651.09 651.16 651.19 650.63 651.3 651.32 651.79 652.61 655.54 657.28 659.24 660.12 659.77 660.58 659.69 660.75 660.89 660.11 660.73 660.93 660.87 661.28 661.79 661.7 662.39 661.9 661.01 661.24 662.35 663.52 664.38 665.08 665.45 666.93 668.74 670.86 671.64 672.31 672.82 674.31 674.71 675.48 675.69 675.84 675.11 675.37 673.85 671.22 670.15 669.21 669.61 670.9 671.35 673.03 675.66 676.66 677.22 678.36 677.85 677.05 676.26 675.59 673.99 673.59 671.9 669.96 668.37 665.47 662.93 661.7 660.56 659.49 657.84 655.99 652.3 649.99 648.85 647.99 647.96 647.02 645.92 644.12 642.51 641.23 640.12 639.36 638.79 638.64 634.99 630.89 628.24 625.78 625.04 624.42 624.91 627.26 628.44 629.25 630.92 633.12 634.29 636.24 639.01 640.82 642.43 644.47 646.3 648.64 652.4 654.91 656.92 659.31 660.27 661.18 662.46 663.82 664.86 665.91 667.28 668.14 668.68 670.39 671.32 673.24 673.62 673.87 673.42 671.33 669.86 668.35 665.67 664.2 661.49 658.03 653.07 648.42 642.39 638.71 634.3 631.29 627.9 623.29 619.67 615.07 611.71 607.98 605.83 604.63 603.09 599.89 597.09 593.95 588.52 581.3 575.19 568.92 560.3 556.84 549.82 542.09 538.97 533.42 526.94 520.48 514.66 511.15 507.17 502.7 499.08 495.97 490.57 483.37 478.53 478.66 475.99 475.67 474.73 473.51 472.47 472.94 473.12 473.29 473.75 472.81 473.86 473.98 474.11 476.01 477.41 477.89 478.94 478.51 477.44 476.27 474.71 473.65 473.28
619.8 624.37 634.61 639.28 645.74 653.87 657.42 663.26 673.24 679.42 683.68 687.52 689.93 690.3 689.07 687.39 688.19 686.62 685.43 682.77 678.83 676.69 673.93 671.44 669.41 667.06 665.26 662.92 661.18 659.61 659.29 658.43 657.52 656.41 655.74 654.58 654.74 654.73 654.98 655.57 655.96 656.25 656.07 654.95 653.94 652.99 651.12 651.33 651.16 650.83 650.09 650.07 650.12 650.39 650.7 651.31 650.71 651.33 651.64 651.51 652.94 654.13 656.63 658.11 658.32 659.78 659.52 659.22 660.08 659.44 659.36 660 660.5 660.62 660.91 661.08 660.08 660.51 659.91 659.33 660.26 660.28 661.72 662.86 662.41 664.01 666.27 668.85 670.36 671.77 672.61 673.63 674.28 675.3 675.56 676.14 676.57 676.47 676.88 675.85 672.9 671.41 670.68 670.7 671.82 672.94 675.57 677.13 678.41 678.3 679.37 679.71 679.16 678.19 677.57 675.65 674.87 673.78 671.56 670.21 667.84 667 665.84 663.47 661.92 660.87 659.23 656.53 655 652.86 650.12 648.44 648.15 646.35 645.07 643.89 642.43 642.12 641.58 640.75 640.38 638.41 632.73 628.89 627.48 626.41 625.85 626.83 628.95 630.26 630.45 632.27 633.93 635.28 637.85 639.31 642.42 643.9 646.51 648.59 650.19 653.9 656.69 659.43 660.37 662.73 664.2 665.25 666.12 667.66 668.65 669.99 671.27 673.13 674.92 674.77 675.43 675.33 675.78 675.56 674.53 673.22 671.63 668.81 665.83 662.86 659.48 655.4 649.67 645.01 640.29 637.08 633.62 630.79 627.18 623.81 620.72 615.26 612.76 611.24 609.13 605.87 604.62 602.83 599.56 593.52 586.63 580.38 571.56 567.14 562.1 556.7 549.59 543.65 537.79 531.99 526.93 523.73 520.11 516.5 509.33 505.58 500.12 495.93 490.87 486.68 482.17 478.46 477.4 475.07 475.36 475.11 475.26 474.73 474.51 474.12 474.43 473.96 475.32 474.3 475.49 476.28 477.1 478.68 478.1 477.53 477.36 475.7 475.07 474.61
620.29 620.26 622.68 630.99 642.76 648.55 652.6 656.19 661.65 666.09 670.14 676.36 683.25 683.62 682.01 680.49 679.32 677.66 675.68 674.94 673.3 672.02 669.5 667.87 664.99 663.29 661.18 660.62 659.33 658.17 656.98 656.32 655.56 654.45 653.62 653.59 653.71 653.16 653.58 654.07 654.83 654.82 654.85 653.43 652.79 651.47 650.66 650.48 649.77 649.6 649.38 649.38 649.87 649.94 650.18 649.94 650.88 650.98 651.46 651.79 652.49 653.67 655.56 656.63 657.26 659.13 658.84 659.43 657.17 655.62 655.01 656.6 658.58 659.9 659.04 658.37 658.52 658.19 657.87 657.64 658.01 659.69 661.02 661.25 662.47 664.32 665.63 667.63 669.68 671.88 672.71 673.65 674.64 675.51 676.14 677.15 677.11 677.7 677.58 677.51 676.43 674.9 673.98 672.68 673.33 675.04 677.44 679.27 680.31 681.61 681.33 681.12 680.31 680.22 679.19 678.42 677.13 675.77 673.56 671.51 669.61 668.85 667.61 666.82 665.45 663.34 661.38 659.63 657.92 656.75 652.3 651.36 649.68 647.05 646.03 644.02 643.37 642.98 642.46 640.66 639.31 636.99 631.79 628.82 628.17 627.72 627.92 629.35 629.73 630.83 632.48 633.45 634.84 637.27 639.38 641.33 643.04 645.29 646.98 649.29 653.08 655.62 658.39 660.01 662.18 663.85 666.08 667.49 668.85 670.36 671.67 672.13 674.08 676.21 676.79 678.24 678.72 678.4 677.65 677.13 676.89 674.98 672.94 670.39 668.14 663.91 660.57 654.53 650.98 646.99 644.22 640.92 637.18 632.69 630.03 626.87 624.09 621.27 618.93 618.57 615.97 612.41 609.04 606.52 603.46 598.9 592.63 584.22 576.78 572.67 566.86 563.54 556.93 550.94 545.02 538.54 534.03 530.12 525.91 523.17 519.22 514.12 509.03 501.68 497 494.01 488.56 481.69 479.74 479.14 476.92 476.72 476.44 476.82 475.84 475.46 475.17 474.77 475.91 476.16 476.19 477.12 477.37 478.06 478.17 477.97 477.42 476.54 475.65 475.01
620.24 620.42 621.05 622.73 629.05 637.21 643.27 652.74 656.17 658.66 664.15 670.03 673.75 675.52 676.8 677.68 674.08 673.82 672.45 670.68 669.86 667.95 666.05 663.39 661.86 659.59 658.64 657.45 656.75 654.4 655.09 654.03 653.85 653.52 651.88 650.93 651.07 651.59 652.63 653.06 653.71 653.63 652.79 652.27 651.03 650.68 649.49 649.48 649.5 649.5 649.82 649.35 650.82 650.7 650.14 650.13 650.37 650.95 651.09 651.59 652.93 653.45 654.77 656.18 656.56 657.47 658.17 656.09 652.91 652.38 652.83 655 656.63 656.97 656.37 655.82 657.14 657.81 657.68 658.15 658.02 659.52 660.61 661.42 663.04 664.03 666 667.05 669.27 670.99 671.93 672.98 675.55 675.68 676.92 677.26 678 678.31 679.43 679.02 678.19 676.74 675.5 675.58 677.05 679.07 679.38 680.62 682.02 682.91 683.02 683.52 682.91 681.28 680.69 679.01 678.8 677.52 674.66 672.92 672.28 671.57 669.27 668.2 666.66 665.01 663.66 662.03 659.77 657.16 654.63 651.9 649.48 648.58 646.8 644.95 643.96 642.29 641.35 638.73 635.45 633.25 631.18 630.26 628.42 628.35 628.38 629.61 631.67 633.76 634.35 636.31 636.97 638.71 639.99 642.53 644.76 646.23 649.53 651.03 654.23 657.08 659.47 661.69 664.47 666.55 667.51 669.26 670.62 672.45 673.88 676.4 678.32 679.07 679.31 679.32 680.84 681.1 680.71 680.3 679.09 676.72 674.1 672.1 669.23 664.63 661.74 658.1 654 649.53 646.43 642.92 639.82 637.23 635.28 632.98 629.51 625.63 624.77 625.07 622.9 620.79 619.27 615.7 608.77 601.4 594.67 589.88 584.92 580.21 576.85 568.19 562.62 555.86 552.3 548.93 543.68 539.87 531.8 528.13 524.59 519.47 514.82 510.27 506.71 502.37 493.18 488.81 485.19 482.71 480.87 480.26 480.43 478.16 478.11 477.13 476.03 476.61 477.34 478.09 477.5 477.83 477.34 478.02 478.13 477.82 477.97 477.32 476.38 475.69
620.78 621.16 621.71 621.57 621.89 622.72 629.89 638.07 645.09 650.17 657.17 662.32 665.58 668.1 670.37 669.95 668.46 668.09 669.31 668.27 667.1 665.35 662.43 659.75 657.1 655.52 655.64 654.92 653.59 651.67 651.32 650.73 650.41 650.64 650.29 650.15 649.85 650.09 651.33 651.86 651.99 652.43 652.21 650.93 649.91 649.12 649.06 648.82 648.65 648.56 649.54 650.56 650.41 650.86 650.57 651.24 650.35 651.02 650.79 651.75 652.05 653.16 654.21 655.81 656.03 657.13 655.32 9999 9999 9999 9999 654.4 655.15 655.59 655.64 656.09 658.83 659.36 659.59 658.39 658.38 659.32 661.15 662.53 663.98 664.88 665.41 666.92 667.47 669.53 672.14 674.23 674.67 675.64 676.82 677.95 678.56 679.46 680.29 680.99 680.56 679.31 677 678.05 679.48 681.13 683.3 684.31 685.16 685.48 684.34 684.47 683.83 682.57 682.35 681.54 680.71 677.67 676.44 674.94 672.75 672.4 671.15 670.19 668.55 666.1 664.74 663.41 660.97 658.27 655.55 653.41 650.56 648.58 647.17 645.02 643.88 642 639.36 636.16 634.89 633.98 632.6 631.6 629.77 629.56 630.24 630.84 633.32 634.66 636.11 637.97 638.41 640.28 641.77 643.61 645.64 648.26 650.51 652.85 655.55 658.42 660.37 662.79 666.04 667.9 670.11 672.07 673.82 675.19 676.97 679.52 680.5 681.75 682.33 683.83 684.25 682.96 683.28 682.08 681.03 679.5 677.04 674.16 670.76 666.62 663.76 660.24 656.79 653.6 649.78 646.77 643.28 640.6 638.17 637.33 636.16 635.47 635.57 631.43 632.3 627.99 624.84 622.88 616.05 607.5 603.12 594.56 590.27 586.31 581.6 575.69 569.73 567.86 561.84 556.11 551.33 546.19 541.38 537.72 533.43 529.28 520.98 517.45 514.37 508.96 504.21 500.2 494.78 487.2 483.61 484.26 482.49 483.04 481.59 479.5 478.12 477.65 478.07 478.36 479.62 479.15 479.79 479.51 478.61 478.54 477.83 478.33 477.66 477.27
621.65 621.63 622.04 622.34 622.62 622.81 623.47 629.39 638.93 642.38 644.06 646.43 654.31 657.31 663.12 662.46 662.64 662.62 660.88 660.67 661.04 661.06 658.07 656.97 654.68 653.27 650.98 650.03 648.15 648.45 647.92 647.93 647.99 648.13 647.91 647.97 648.02 648.96 649.78 650.91 651.4 650.66 649.37 648.25 648.48 648.6 648.44 648.95 649.36 649.25 649.16 650.83 650.74 651.16 650.41 650.85 650.62 650.72 650.82 651.39 651.97 653.17 653.37 653.88 655.03 654.33 9999 9999 9999 9999 9999 654.64 656.2 656.09 655.62 656.67 659.08 661 660.88 661.15 661.22 661.77 662.84 664.47 665.19 666.01 665.66 666.33 666.75 668.2 671.26 672.69 674.22 675.81 676.76 678.27 678.98 679.93 681.15 681.55 682.23 680.86 679.63 680.24 682.32 683.78 684.83 686.12 687.18 687.7 687 686.63 685.77 684.18 683.44 682.97 680.92 679.31 678.11 675.46 674.24 673.61 671.87 670.74 669.63 667.7 666.16 663.97 661.76 658.7 655.99 652.87 651.12 649.44 647.33 645.25 643.56 641.01 638.92 636.96 635.07 634.19 633.68 632.16 631.16 630.79 631.65 632.83 635.33 637.4 637.39 639.11 640.04 641.72 642.65 645.54 648.2 649.68 651.79 654.04 656.65 658.96 661.72 665.34 667.72 668.97 670.94 673.37 675.4 677.56 680.71 682.55 683.35 683.96 685.29 686.44 686.97 687.13 686.71 686.07 684.49 682.73 679.36 675.92 672.83 669.26 667.33 663.32 659.3 656.33 652.73 651.06 647.77 646.63 644.54 641.59 642.06 643.98 645.35 643.06 643.03 639.3 630.47 627.72 621.87 614.61 609.77 602.24 598.62 594.54 586.24 580.73 577.59 575.68 574.1 569.71 564.07 552.33 549.23 544.33 540.62 534.36 530.09 528.95 525.07 517.31 512.67 507.76 500.78 495.21 490.44 487.61 486.49 484.14 483.72 481.66 481.3 482.11 479.62 479.44 480.85 480.61 480.9 481.02 480.89 480.73 479.61 479.34 479.3 478.47
622.67 622.7 622.71 622.46 623.17 623.16 623.32 623.97 625.24 634.19 638.13 640.05 644.24 647.52 649.21 650.24 651.97 656.02 655.2 654.35 652.88 651.66 651.91 650.1 648.35 649.34 648.12 646.03 644.85 644.49 643.44 644.1 645.77 645.35 645.94 645.88 646.69 646.69 647.65 648.15 649.18 648.51 647.36 647.21 648.5 649.34 649.87 650.32 650.44 650.65 650.6 652.12 651.33 651.59 651.09 651.69 650.5 651.21 651.03 651.54 652.12 652.44 652.94 653.48 653.19 653.53 9999 9999 9999 9999 654.14 656.16 656.98 657.01 656.33 657.18 659.62 660.79 661.43 662.87 662.98 663.57 665.25 666.61 666.92 666.52 665.65 665.51 666.53 667.47 669.36 671.97 673.19 675.17 677.5 678.08 680.01 680.29 681.95 683.46 684.21 682.68 682.09 682.74 684.64 685.62 687.4 689.15 689.47 689 689.12 688.04 686.7 686.86 684.92 684.13 681.8 680.44 678.79 676.72 675.47 674.56 673.3 671.93 670.28 668.6 666.74 664.82 661.9 659.71 657.19 654.24 651.8 649.27 647.58 644.87 642.29 641.22 638.93 637.09 635.92 635.44 633.77 633.27 633.51 633.27 633.54 634.51 637.61 639.25 640.26 641.57 642.45 643.22 644.78 646.63 648.91 651.23 653.47 655.97 658.52 660.53 663.81 666.07 668.7 670.55 673.34 676.15 678.22 680.98 683.57 684.46 686.11 688.75 691.06 691.54 690.03 690.54 689.72 689.14 687.81 685.17 682.29 678.77 675.16 672.64 669.76 666.68 663.95 660.02 658.33 653.85 651.81 650.38 648.83 648.5 649.48 654.07 653.66 652.78 652.46 649.74 642.21 639.09 632.83 624.22 616.06 609.2 604.24 598.37 594.32 592.61 590.28 583.58 580.81 577.36 572.53 566 560.69 556.61 547.55 541.82 538.6 533.84 530.61 528.33 524.72 519.15 507.95 501.05 495.19 490.66 488.78 487.83 487.58 485.59 484.34 483.41 483.41 482.14 481.91 482.5 481.84 482.38 481.86 480.78 480.28 480.28 479.51 478.85
623.18 623.39 623.31 623.81 623.72 623.29 623.37 624.02 624.09 625.05 625.86 628.43 640.43 641.17 640.51 642.48 644.91 647.1 646.78 646.05 646.68 645.82 646.64 645.25 644.59 644.19 642.59 641.02 641.99 641.21 641.08 641.45 642 643.29 642.22 643.31 643.82 644.63 645.28 645.85 647.58 647.33 647.09 647.36 648.38 649.44 651.53 651.38 651.49 652.36 652.54 651.7 651.74 651.39 651.37 651.21 651.59 651.79 651.7 652.26 652.1 653.38 653.08 653.21 653.36 653.31 653.02 653.95 653.97 654.42 655.4 655.81 656.77 657.58 657.49 657.79 659.61 660.73 661.54 663.01 663.79 664.35 665.89 666.47 667.45 667.38 666.42 666 666.33 667.16 667.65 669.42 671.81 674.98 676.95 678.31 679.55 681.08 682.42 683.54 684.57 684.31 685.03 685.82 686.05 687.86 689.58 691.05 691.55 691.89 691.43 690 688.36 687.17 685.96 685.11 683.85 682.62 680.82 678.08 676.54 675.3 674.12 672.37 671.44 669.19 667.39 665.06 662.91 660.49 657.74 654.55 652.15 648.85 647.04 644.23 642.48 641.32 639.41 638.15 637.63 636.58 634.77 634.62 634.89 635.15 635.58 636.77 638.87 640.8 641.2 642.78 644.76 645.49 647.69 649.18 651.6 653.17 654.8 656.6 660.23 662.79 665.84 667.62 669.7 672.35 674.32 678.17 680.62 683.89 685.8 687.09 689.44 691.87 694.29 697.05 698.07 697.9 697.96 693.45 692.25 688.15 685.09 682.88 680.42 677.05 672.8 670.26 666.57 663.65 661.3 659.27 656.21 656.82 652.59 653.37 654.45 658.6 660.15 660.18 660.81 654.94 650.83 649.66 642.03 630.71 621.86 615.35 608.7 603.85 601.19 600.62 597.67 594.92 591.14 587.99 581.38 575.32 569.09 564.5 558.15 553.63 549.39 540.59 537.06 534.17 532.03 528.27 517.81 512.84 506.43 497.4 491.56 491.15 493.02 492.95 491.79 489.03 487.18 484.52 483.63 483.66 484.53 484.88 483.33 481.87 481.37 480.9 480.74 480.44
624.19 624.52 624.33 623.93 624.58 624.55 624.22 624.7 624.27 625.46 625.73 626.42 627.48 628 628.2 629.61 638.39 641.98 642.39 641.6 640.58 641.22 640.15 641.24 640.18 639.82 638.99 639.23 638.55 639.3 639.4 639.84 640.77 641.43 641.5 641.73 642.95 643.49 644.86 645.48 645.88 646.04 646.55 648.2 650.58 651.43 651.85 651.98 653.1 652.68 653.33 652.99 652.66 651.8 651.97 651.7 651.33 652.01 651.78 652 652.6 652.84 652.61 653.31 653.29 653.55 653.57 653.89 654.45 654.21 655.1 654.85 655.78 656.14 657.63 658.47 659.65 660.3 661.38 662.46 664.03 665.02 666.72 667.84 668.35 667.09 667.07 666.22 666.66 666.89 667.69 668.12 670.68 673.18 676.17 677.52 679.33 680.91 681.73 683.34 684.22 685.4 685.88 686.95 687.9 690.92 691.54 691.83 692.71 693.29 693.15 691.28 689.57 688.2 687.43 686.06 684.57 683.92 681.93 679.5 677.72 676.87 674.84 673.51 671.78 669.92 666.88 664.6 662.29 661.1 658.5 655.62 651.44 648.69 647.25 645.04 642.67 640.98 640.34 639.36 638.39 637.74 636.41 636.42 636.67 635.94 636.66 638.2 640.53 643 644.13 645.3 645.73 647.82 649.57 650.91 652.55 654.85 657.19 660.25 660.99 663.88 666.29 668.61 671.58 673.68 677.46 679.57 682.12 685.14 687.68 690.27 693.34 696.66 700.25 701.32 702.47 703.16 702.47 700.51 698.59 697.05 691.56 688.17 685.28 681.92 677.29 674.29 671.94 667.79 665.35 662.81 660.23 660.32 661.02 662.01 663.71 664.32 664.58 664.39 664.55 661.85 660.31 658.58 649.1 638.4 626.58 617.2 613.78 611.06 610.6 608.76 604.06 598.86 597.15 595.1 590.92 587.43 581.17 570.74 563.34 560.77 557.17 551.71 545.08 543.62 539.96 535.76 526.42 520.92 514.01 506.55 500.02 500.98 499.83 500.01 498.16 495.95 494.25 492.63 487.03 485.64 485.29 485.5 484.99 484.07 483.81 482.12 482.62 481.09
625.46 625.61 625.3 625.07 625.13 625.31 625.43 625.6 625.44 625.68 626 626.7 626.9 627.72 628.54 628.91 629.95 630.54 632.14 636.05 637.52 637.92 636.43 636.1 636.11 636.15 637.12 637.14 637.94 638.24 639.07 638.84 639.91 640.21 639.99 642.74 644.5 646.06 647.14 647.01 648.62 649.21 648.77 650.63 651.55 652.58 653.4 653.19 653.84 652.87 653.16 652.69 653.05 652.45 651.87 652.21 651.43 651.84 652.74 652.86 652.02 653.29 653.91 654.16 654.63 654.08 653.44 653.85 654.13 654.93 655.19 654.92 655.53 655.74 657.24 657.75 659.08 660.61 661.58 662.49 663.66 665.22 666.5 667.58 669.57 669.07 668.66 668.5 667.01 666.93 666.9 668.24 669.48 671.89 674.63 676.45 677.53 679.11 679.93 680.99 682.68 683.9 685.09 687.03 689.47 691 692.01 693.19 694 694.49 693.58 691.81 690.47 688.52 688.01 687.5 685.56 684.98 682.37 680.4 678.81 677.42 676.16 674.22 671.76 669.92 667.22 665.75 663.11 661.15 658.58 655.19 652.37 649.7 647.09 645.4 643.46 642.1 641.48 640.6 640.29 639.33 637.94 637.77 638.34 638.96 640.2 641.7 641.93 644.56 646.05 647.46 648.62 649.99 651.94 652.57 654.54 656.58 658.89 661.7 663.25 665.01 668.1 670.01 671.6 675.36 677.74 681.39 684.37 687 689.97 692.24 696.4 699.23 701.41 704.55 706.67 707.48 705.54 704.89 704.1 704.14 701.28 697.36 695.23 686.2 681.85 678.3 676.29 673.84 671.67 668.35 667.1 665.19 665.31 666.25 668.02 670.96 669.76 669.05 666.88 665.2 663.47 658.55 652.82 640.07 630.62 622.09 618.63 616.81 614.81 613.38 610.27 606.57 603.92 600.92 596.81 594.04 588.79 580.61 575.01 572.89 564.51 556.69 553.29 550.04 546.84 543.92 537.4 531.83 521.24 512.49 504.71 504.15 507.98 508.72 507.8 502.68 498.76 494.96 490.91 489.21 488.07 488.34 486.03 485.19 483.79 483.55 483.23 483.03
625.99 626.15 626.25 626.28 625.71 626.08 626.46 626.18 626.35 627.13 627.27 627.47 628.01 628.67 629.31 630.22 631.38 631.12 631.33 632.24 633.45 633.68 634.24 634.86 635.57 635.92 635.67 636.21 636.46 637.48 638.12 638.8 639.14 639.27 642.01 645.63 647.61 648.35 648.98 650.07 650.97 651.84 652.72 653.89 654.29 653.88 654.83 654.42 654.6 653.69 653.77 654.34 654.29 653.04 652.33 652.65 652.4 652.21 652.6 652.76 653.08 653.58 654.17 654.88 654.12 654.54 654.39 654.04 653.68 654.64 654.89 655.27 655.26 655.79 656.94 657.85 659.05 660.3 661.45 662.44 662.95 664.32 666.35 667.65 669.28 670.12 670.25 669.74 668.91 668.22 667.74 668.25 669.32 671.6 673.3 674.28 674.31 674.56 677.08 678.39 680.54 681.97 684.3 687.14 689.22 690.7 692.13 693.62 694.46 695.5 694.49 693.1 691.49 689.54 688.56 687.52 686.1 685.18 683.54 681.9 680.12 678.11 676.65 674.1 672.69 671.1 669.26 666.04 663.82 661.63 658.44 655.51 653.31 650.54 648.73 646.86 644.49 643.06 642.21 642.24 642.14 641.42 639.83 639.91 639.52 640.06 642.52 644.36 645.98 647.27 649.05 649.31 651.27 652.21 653.62 655.5 656.56 659.64 660.75 662.57 664.49 666.76 669.21 671.58 674.41 677.11 679.53 682.62 685.22 688.24 694.14 697.33 700 701.58 704.1 707.08 708.91 711.02 710.83 710.58 710.94 708.52 706.38 703.55 699.62 695.87 690.86 686.71 680.67 677.94 675.16 672.28 671.34 671.42 672.19 672.59 672.27 674.49 673.01 672.54 669.99 668.01 664.94 659.34 651.02 642.23 634.71 630 627.31 624.31 619.55 615.45 614.63 610.62 606.97 606.53 607.51 605.23 594.71 589.8 585.23 580.38 574.17 571.08 566.51 555.62 551.25 548.28 543.03 538.71 531.97 519.11 510.9 509.85 513.93 515.42 511.81 509.83 506.86 503.03 496.14 492.01 491 489.04 488.46 486.46 485.88 484.55 484.99 483.95
626.93 628 626.87 626.77 626.63 626.97 627.53 627.25 628.26 628.24 627.98 628.41 629.19 630.01 631.01 631.69 632.66 632.6 631.65 631.86 633.02 633.36 634.45 635.69 635.83 635.43 636.19 637.27 638.15 638.09 637.74 639.81 640.28 640.59 645.56 647.91 649.47 651.62 652.41 653.49 654.46 654.5 655.43 655.12 656.41 655.8 656.75 655.74 655.67 655.19 655.31 655.29 654.22 654.04 653.33 653.25 652.77 652.4 652.71 653.08 653.47 654.2 655.23 655.17 654.4 654.88 655.17 654.59 654.22 654.04 655.3 655.31 655.07 655.19 656.79 657.71 659.41 660.15 661.36 661.98 663.02 664.48 666.37 668.36 670.25 671.37 671.32 671.3 670.87 669.28 669.11 670.11 670.85 671.78 672.74 673.44 673.67 673.85 673.21 674.59 676.64 680.94 683.88 686.03 687.89 690.1 692.1 694.15 695.77 695.94 695.51 694.4 691.75 689.95 688.38 686.74 686.05 684.91 683.11 681.4 680.33 679.12 677.04 675.05 673.37 671.58 669.08 666.59 664.46 661.57 658.66 656.99 654.14 651.53 649.95 647.94 646.39 645.4 644.56 643.43 643.38 643.05 642.13 642.01 641.83 643.33 646.13 646.42 648.22 649.1 651.42 651.7 653.17 654.93 655.6 657.03 659.06 660.6 662.59 664.42 666.41 668.67 670.46 673.18 675.62 678 681.32 683.22 688.38 694.24 699.15 702.1 704.68 706.24 708.64 710.39 711.24 713.32 713.71 713.63 714.28 715.04 714.84 712.04 706.41 702.23 696.9 692.66 689.11 685.65 681.28 676.96 676.4 674.94 675.39 676.1 677.59 678.45 677.58 675.22 673.15 670.33 666.45 660.02 654.2 646.86 639.71 635.94 633.02 629.38 625.61 623.27 619.66 616.99 612.34 610.48 612.64 610.88 606.55 602.57 596.56 586.57 580.72 575.58 572.34 567.26 562.83 556.28 548.93 544.4 534.22 523.73 516.3 521.73 523.65 524.6 517.46 514.08 511.59 509.51 503.43 497.38 494.06 491.53 489.83 488.25 487.32 486.68 486.48 485.71
627.98 628.15 628.17 628.04 628.24 627.7 627.78 627.94 629.01 629.26 629.39 629.91 630.33 630.57 631.44 632.57 632.97 633.65 633.36 632.94 634.67 634.95 635.75 636.25 636.57 637.26 638.02 638.66 639.46 639.03 640.11 641.08 641.96 644.96 647.94 649.71 651.45 653.34 654.89 655.95 656.76 657.69 657.69 658.34 657.68 657.97 657.72 657.97 656.78 656.66 656.72 656.54 655.41 655.08 654.57 654.01 653.57 653.55 653.42 653.03 653.92 654.63 655.77 655.41 655.85 654.92 655.17 654.17 654.07 654.13 655.15 655.56 655.41 655.76 657.51 657.75 658.97 661.04 661.15 662.12 663.55 664.7 666.56 668.46 670.08 671.56 673.29 674.03 674.18 672.21 672.1 671.1 672.38 673.3 673.3 673.37 672.54 9999 9999 9999 674.48 678.14 681.17 683.68 686.69 689.7 691.83 694.43 697.17 697.24 696.18 694.96 692.45 690.22 687.67 686.01 685.05 683.09 682.14 680.68 679.57 678.84 677.56 675.76 674.14 671.65 669.01 667.24 664.37 661.79 659.68 657.85 655.23 653.67 651.11 649.14 648.03 647.24 646.39 645.64 646 645.23 644.27 643.79 643.51 644.67 647.37 649.43 650.77 653 653.14 654.01 655.56 656.71 658.01 659.77 661.37 662.78 664.59 666.37 668.46 671.02 672.75 675.12 678.14 679.63 683.32 688.04 698.28 705.58 710.27 711.47 708.85 710.63 713.44 715.71 716.75 717.39 717.38 717.66 716.73 717.12 717.25 716.09 713.97 711.37 707.15 698.4 693.47 689.54 686.2 684.52 682.04 680.37 679.15 680.04 680.32 682.07 680.73 679.69 676.87 673.96 668.06 662.12 657.24 651.17 646.99 644.09 640.99 633.21 629.67 628.3 625.3 622.73 621.96 619.56 619.31 618.08 615.04 610.85 604.27 597.65 589.22 585.78 579.44 574.5 570.43 563.33 557.21 550.27 542.14 530.73 522.27 526.91 527.16 528.24 525.14 520.48 515.55 510.42 505.95 500.27 494.37 493.49 494.15 491.19 488.66 487.85 487.9 486.84
628.44 628.69 628.99 628.73 628.57 628.75 628.5 629.45 630.04 629.9 630.25 630.89 631.11 631.63 632.45 633.17 633.7 633.48 634.38 633.71 635.49 636.64 636.95 637.65 637.42 638.17 638.34 639.05 639.31 640.58 640.53 641.98 644.1 646.69 649.47 651.73 653.79 655.89 657.53 657.99 658.66 659.61 659.9 660.5 659.99 659.53 659.8 658.74 657.63 657.88 657.28 657.6 657.23 656.86 656.09 654.8 655.13 654.64 654.03 654.58 655.65 656.43 656.75 656.33 655.53 655.42 654.72 654.49 654.89 655.05 654.57 654.67 656.28 656.39 657.26 658.01 660.11 659.7 662.03 661.91 663.02 665.03 665.93 668.15 670.6 672.32 675.42 676.37 677.52 679.48 679 675.65 675.72 674.59 674.5 673.83 673.12 9999 9999 9999 673.7 676.23 679.76 682.77 685.83 688.53 692.25 694.1 696.25 697.61 696.27 694.47 692.89 689.17 686.02 685.34 683.77 682.39 681.35 679.61 679.32 679.04 677.72 675.78 673.99 670.86 666.87 665.27 664.18 663.25 661.35 659.42 657.46 654.95 652.98 651.76 650.44 650.19 648.3 647.95 647.35 646.93 645.72 646.17 645.24 646.46 648.34 651.81 653.03 654.63 656.14 657.37 658.43 659.28 660.59 662.34 664.32 665.76 667.34 669.8 671.15 672.95 674.72 678.05 680.63 686.47 694.68 705.16 706.83 712.64 715.67 716.95 718.41 719.24 719.28 718.96 720.17 720.37 720.17 720.99 721.51 721.56 721.09 718.7 717.73 715.61 713.23 707.58 703.13 700.38 692.01 689.95 686.55 685.01 683.8 684.42 685.16 685.7 683.87 682.49 680.27 675.81 673.83 669.25 663.86 656.46 652.56 648.56 644.69 641.76 639.89 637.33 631.68 632.48 629.2 624.62 622.91 622.8 620.61 616.32 609.99 602.77 595.27 590.5 588.55 583.5 577.37 568.53 560.54 555.09 548.51 536.35 529.55 536.38 534.74 533.81 530.11 524.46 519.79 514.91 508.82 502.75 496.57 495.32 494.85 493.17 491.29 490.57 489.49 488.56
628.68 629.62 630.22 630.7 629.21 628.95 9999 629.67 630.22 630.73 631.27 631.79 632.12 632.65 633.43 634.21 635.01 636.01 635.03 635.13 636.44 637.18 637.63 638.3 639.29 639.51 639.52 640.11 640.37 641.33 642.03 643.61 646.06 649.14 651.71 652.85 655.41 656.71 659.13 660.18 660.91 661.75 662 661.97 661.26 661.45 660.72 660.75 660.44 659.29 658.8 658.76 658.45 657.6 656.96 656.89 656.23 656.05 655.37 656.05 655.96 657.55 657.39 657.52 656.89 655.82 655.25 654.96 655.28 655.12 654.95 655.38 656.06 656.71 657.82 658.84 659.51 660.62 662.03 661.72 663.02 664.15 666.48 668.57 670.29 673.99 675.92 677.96 679.39 680.71 678.45 676.64 676.6 675.83 676.14 674.94 673.6 673.24 9999 9999 672.2 673.64 676.98 681.59 684.39 688.55 691.35 693.68 696.1 697.61 697.53 694.38 690.92 689.05 686.37 684.71 682.92 681.5 679.76 678.45 678.11 677.56 677.05 674.97 672 668.03 666.45 665.12 664.14 664.06 662.93 662.52 659.76 657.07 653.93 652.33 652.27 652.35 651.09 650.79 650.56 649.26 647.82 647.83 647.13 648.26 650.55 653.32 655.4 656.26 657.99 659.42 660.54 661.9 664 665.24 666.25 668.33 669.59 672.85 674 676.63 679.01 680.85 685.77 695.01 707.5 712.88 718.07 722.65 723.39 722.74 724.55 725.16 723.11 723.32 723.95 724.36 722.53 723.83 723.7 723.87 723.62 723.35 723.49 721.61 716.1 713.65 710.6 708.45 703.29 699.74 698.1 688.58 688.32 688.89 689.24 689.55 688.62 686.08 684.21 680.41 678.08 673.3 669.24 664.62 660.79 658.58 653.55 651.71 646.64 644.47 641.53 640.1 637.31 629.17 626.27 624.91 622.59 619.82 613.76 608.15 602.74 596.74 592.36 588.57 583.6 573.91 567.01 560.77 551.1 540.86 534.54 541.86 544.91 544.07 540.74 535.03 525.18 517.14 510.65 504.83 501.51 498.49 497.24 495.84 493.52 491.86 490.99 490.79
629.54 630.36 630.97 631.7 631.08 630 9999 9999 9999 630.99 631.8 632.67 633.06 633.49 634.42 634.69 636.27 637.08 636.08 636.01 636.92 638.09 639.1 639.18 639.32 639.96 640.62 641.02 641.94 642.58 643.63 644.65 647.65 650.43 653.56 655.37 657.36 659.61 661.1 661.47 662.86 663.53 663.77 663.96 663.51 663.27 662.21 661.86 660.89 660.62 659.58 659.83 659.58 659.15 658.14 658.65 657.45 657.32 657.24 657.38 658.3 658.48 658.88 657.89 657.19 655.87 655.59 655.59 655.18 655.08 654.86 655.29 656.92 657.72 657.97 659.76 660.24 660.34 661.1 662.56 663.31 664.89 666.84 668.4 671.36 673.81 675.99 677.78 679.52 680.59 679.36 678.05 677.22 677.26 676.73 676.17 674.88 673.13 9999 9999 9999 672.96 675.79 679.78 685.04 687.8 691.45 694.15 695.78 698.47 697.69 695.85 692.96 689.72 686.07 684.72 683.25 681.38 679.75 678.37 677.4 676.95 675.99 673.42 670.1 667.47 665.77 664.7 665.67 665.95 665.37 663.18 661.35 659.31 657.55 656.38 655.38 654.21 653.35 653.11 652.36 651.36 650.61 651.05 649.57 650.23 651.53 653.67 655.96 657.87 660.12 662.89 663.2 664.31 665.2 667.94 669.28 670.84 673.72 675.22 676.87 679.48 682.28 689.22 699.45 713.7 720.09 720.06 724.34 728.63 730.02 732.44 733.95 734.34 732.51 731.06 729.93 729.8 730.94 730.52 728.84 727.1 726.86 726.67 727.26 726.23 723.95 722.66 720.43 714.57 710.59 708.26 706.36 703.34 698.05 696.23 693.25 693.26 691.42 689.41 687.9 687.57 685.93 682.43 676.02 671.19 668.56 666.82 665.88 662.83 659.3 652.95 647.91 644.87 642.19 637.31 632.12 629.6 626.55 621.45 615.53 610.81 607.03 604.46 600.6 594.2 586.14 578.64 569.77 563.16 556.72 549.46 541.96 542.43 548.11 549.96 545.93 542.68 531.69 519.85 514.12 508.33 503.05 500.36 499.35 497.57 495.75 494.28 492.24 491.94
629.97 630.92 632.93 633.39 632.81 631.08 630.87 9999 9999 631.5 632.27 632.9 633.91 634.32 634.86 636.11 637.22 639.76 638.94 636.65 637 637.96 639.36 640.3 640.43 641.2 641.26 642.07 642.38 644.02 644.78 646.68 649 651.95 653.99 657.08 659.21 661.1 662.26 663.63 664.16 665.63 665.88 664.89 664.78 664.31 663.96 663.45 663.23 661.62 661.01 660.34 659.98 660.2 659.49 660.09 658.95 658.4 658.81 658.18 659.38 659.3 659.48 658.63 657.28 655.97 656.44 656.05 655.96 655.67 656 655.35 656.56 658.45 658.8 659.25 660.36 660.63 661.26 661.78 663.87 664.24 666.32 668.8 671.26 673.15 674.22 676.69 679.63 680.74 679.73 678.82 678.14 677.65 678.1 677.66 675.91 673.68 9999 9999 9999 9999 675.2 680.47 684.57 687.36 690.62 694.1 695.81 697.54 697.09 695.77 694.1 690.63 687.53 685.88 684.57 682.66 680.88 679.75 678.78 677.15 675.43 673.05 669.62 667.01 666.09 665.68 667.36 668.18 667.98 666.04 662.8 661.53 659.25 658.31 657.27 657.43 656.85 656.43 654.28 653.36 652.6 652.1 651.79 653.47 654.83 655.15 657.57 659.87 662.34 664.83 666.57 667.75 668.67 669.13 671.37 673.71 675.66 677.95 681.52 685.18 688.47 700.2 711.17 722.13 727.01 729.94 732.99 736.17 735.66 738.21 740.14 742.2 743.23 744.32 741.51 736.68 737.94 737.4 737.06 736.13 735.65 734.36 732.72 730.14 729.55 728.7 728.68 725.8 722.54 721.17 716.04 712.26 707.55 703.5 701.68 701.17 702.71 698.55 696.28 694.61 693.97 691.98 688.01 684.76 681.86 674.96 673.22 672.08 668.61 665.19 657.97 651.59 645.9 640.61 636.06 632.71 630.44 625.09 620.1 616.52 610.95 607.71 603.11 599.43 592.93 584.31 575.84 565.43 557.9 546.71 543.65 548.03 556.33 560.5 556.71 547.93 533.54 525.59 518.54 511.49 506.88 504.39 500.56 499.38 498.36 495.79 493.96 493.5
630.91 632.21 633.43 635.58 635.38 633.13 631.59 631.6 631.35 631.81 633.11 633.69 634.1 635.01 635.83 636.5 637.44 640.91 641.73 639 638.43 638.84 640.28 640.66 640.96 642.6 642.55 642.83 643.11 644.25 645.94 647.23 650.03 652.14 656.67 659.26 660.78 662.15 663.71 665.03 666.16 666.51 666.98 666.7 665.73 665.33 665.55 665.09 663.9 663.69 663.16 661.92 661.26 661.01 660.04 659.52 660.13 659.28 660.19 659.26 659.86 660.57 659.19 659.03 657.91 656.86 657.35 656.07 656.05 655.72 655.33 655.66 657.3 658.66 659.26 659.36 659.73 659.74 661.47 662.68 663.27 665.51 666.98 668.55 670.79 672.53 674.92 676.16 678.56 679.11 679.56 678.59 679.04 678.19 678.68 678.22 677.62 675.21 9999 9999 9999 670.45 675.68 681.18 684.14 687.1 689.87 692.42 695.92 697.38 697.2 696.21 694.92 691.28 689.21 688.02 686.49 685.09 684.17 681.5 680.16 678.45 675.94 673.01 670.88 669.01 668.01 667.74 668.66 670.63 670.55 667.8 666.27 664.41 662.33 660.34 658.96 659.88 658.91 658.02 656.9 655.91 654.54 654.08 654.28 655.97 657.86 659.33 660.98 663.47 664.05 666.09 667.99 669.89 670.75 672.46 673.62 676.47 677.23 680.47 685.01 690.74 700.47 711.47 722.1 727.94 732.43 735.58 739.73 744.2 746.45 748.36 750.93 750.14 751.49 750.87 750.31 748.87 749.11 747.78 744.67 741.65 738.97 737.73 737.09 737.89 738.65 738.09 734.28 731.3 732.24 731.4 729.08 726.64 722.11 712.94 708.41 707.28 709.17 711.82 710.56 705.99 704.99 700.15 698.75 696.04 692.15 690.99 689.69 687.49 677.62 671.56 663.6 657.15 651.59 646.49 641.31 636.71 635.54 628.2 624.48 619.75 616.57 612.84 609.35 603.5 595.33 586.96 578.1 567.97 554.05 548.95 548.17 555.43 560.28 562.45 560.94 552.33 541.59 531.51 525.14 517.09 510.87 506.16 505.15 502.21 499.78 496.27 495.51 494.42
632.23 633.93 634.74 635.6 635.94 634.34 633.1 632.71 631.57 631.93 632.9 633.99 634.85 635.48 636.37 637.05 638.46 641.1 642.82 639.48 639.46 639.07 641.09 641.86 642.31 643.06 643.75 643.39 644.3 645.75 646.1 647.97 650.22 654.19 657.29 659.54 661.94 663.65 665.64 666.71 667.33 668.31 668.02 668.58 668.22 668.43 666.77 666.59 665.86 664.96 664.11 663.15 662.63 661.34 661.94 660.57 660.57 660.04 660.21 660.53 660.27 660.41 660.47 659.08 658.23 657.6 656.88 655.99 656.31 656.05 655.8 655.66 656.74 658.27 658.19 9999 9999 9999 659.17 662.27 663.81 665.14 666.39 668.34 669.44 671.51 672.96 674.98 676.16 677.5 678.05 678.79 678.69 679.03 678.91 679.7 679.15 676.75 673.28 9999 9999 673.16 676 680.75 683.99 686.81 688.62 692.17 694.71 696.2 696.18 696.1 695.64 694.29 691.33 690.21 688.57 687.28 686.54 684.31 682.4 680.3 678.59 675.2 672.66 670.25 669.51 671.35 672.04 672.56 672.8 669.74 668.79 666.17 664.66 663.45 662.93 662.91 662.53 660.1 658.87 657.27 656.88 656.65 657.23 659.55 660.11 661.57 663.64 665.27 667.95 669.75 671.36 673.5 673.54 674.44 676.07 680.04 682.16 685.26 690.77 698.96 708.1 717.99 726.86 733.95 740.02 745.08 746.56 751.06 752.28 753.72 755.49 757.33 759.41 760.27 758.49 758.12 755.81 753.24 749.54 747.69 745.69 742.83 743.57 743.64 743.46 742.7 741.26 741.67 742.33 740.06 737.19 733.85 729.03 723.76 720.3 717.35 713.57 714.51 713.34 711.25 711.45 712.27 712.07 711.33 704.4 702.42 700.64 699.35 694.35 684.96 675.15 663.99 656.22 647.68 643.43 641.36 637.95 631.67 626.22 622.89 618.82 616.61 612.29 604.16 597.37 590.57 579.98 565.4 555.49 552.93 562.82 565.04 567.72 564.82 562.94 553.78 546.58 538.26 532.22 525.39 514 508.84 506.29 503.69 500.55 497.69 496.54 495.89
633.74 634.96 635.55 636.36 636.53 634.55 634.64 634 632.76 631.75 632.32 633.19 635.44 636.25 636.81 637.15 638.73 640.62 641.46 641.05 640.41 639.77 641.42 641.94 642.79 643.43 644.79 645.34 644.51 646.24 647.91 647.98 651.19 654.02 656.88 659.67 662.45 665.24 666.51 668.37 669.23 669.63 670.16 669.57 669.31 668.84 668.29 667.78 667.83 666.62 666.63 664.55 663.34 662.75 662.04 661.67 661.62 660.81 661.2 660.62 661.06 660.6 660.56 659.8 658.19 657.42 656.94 656.63 656.71 656.5 656.19 655.86 657.03 657.86 9999 9999 9999 9999 657.11 660.5 662.43 664.78 666.2 667.39 668.82 670.45 672.08 672.67 674.68 676.14 677.21 677.66 678.47 678.08 679.33 679.8 679.86 677.34 673.45 9999 9999 674.6 676.99 680.62 683.93 685.48 688.65 691.03 693.43 694.37 694.39 695.22 695.27 694.31 692.93 691.58 690.88 689.84 688.77 685.36 684.48 682.15 679.15 677.11 674.16 673.33 672.38 672.86 674.89 677.04 675.66 673.75 671.89 670.11 667.57 665.86 665.81 665.02 664.94 663.37 662.56 661.56 659.46 658.58 658.7 661.77 664.6 666.27 668.74 668.12 669.6 672.02 673.24 675.99 677.42 678.59 680.47 681.81 684.54 690.26 700.18 709.62 718.2 725.95 731.6 739.07 744.7 751.89 755.87 759.55 761.52 761.13 759.12 761.34 764.04 765.6 766.9 768.42 764.42 758.24 754.18 753.01 753.09 752.3 750.51 749.23 747.38 747.25 746.89 748.46 751.08 749.42 748.69 744.84 735.2 731.7 728.15 724.6 722.1 720.36 718.55 715.88 716.84 719.13 719.6 719.64 718.01 717.8 717.33 710.2 703.85 695.47 686.11 675.27 663.8 655.9 647.63 644.78 641.33 636.23 630.05 624.71 622.01 619.29 614.03 606.23 601.11 591.43 582.71 568.91 561.48 563.64 572.36 572.06 570.72 568.51 562.79 558.24 550.22 542.45 536.08 527.02 519.99 513.09 508.48 505.88 502.36 499.09 497.62 496.85
633.06 635.5 635.55 636.8 637.05 636.86 637.14 636.44 635.13 633.85 632.1 633.17 634.9 636.48 637.04 637.95 639.08 639.96 640.96 641 641.9 640.84 642.64 642.77 643.94 645.38 645.56 646.34 646.03 646.85 647.99 649.92 651.03 654.06 656.84 659.48 662.45 665.26 668.45 669.29 670.46 671 670.94 671.3 670.9 670.83 669.41 669 669.03 667.84 667.54 666.43 665.42 664.61 662.93 662.57 662.73 662.62 662.41 661.48 661.53 662.16 660.37 659.78 658.08 657.32 656.77 656.87 656.94 656.76 656.82 656.42 657.66 657.2 9999 9999 9999 657.06 658.04 659.22 661.28 663.61 665.23 665.76 667.97 669.97 670.59 671.94 673.55 673.79 675.12 677.38 677.89 676.34 676.65 677.53 678.78 674.15 9999 672.96 674.08 675.44 677.9 680.03 682.64 685.19 686.88 689.53 691.52 692.44 693.3 693.73 694.14 694.6 694.87 693.34 692.28 691.52 689.57 687.33 685.7 683.41 680.27 677.99 675.99 674.14 674.8 676.21 677.73 678.9 678.36 676.57 674.49 672.65 671.4 670.43 670.12 668.09 667.5 667.02 665.58 664.12 662.54 663.04 660.38 664.08 667.16 669.33 670.62 672.3 673.84 675.99 677.42 678.51 680.48 681.53 683.93 688.73 694.72 706.38 710.74 720.31 726.24 731.16 738.52 747.51 753.95 756.51 760.29 763.39 765.17 767.92 768.21 768.95 769.64 769.57 771.93 772.51 771.2 766.43 765.2 764.46 758.92 756.55 755.55 753.35 753.5 753.49 753.27 754.84 759.69 760.52 756.28 751.33 746.25 742.1 739.25 732.49 729.15 726.45 725.64 726.57 725.65 725.06 723.7 724.44 723.64 724.76 725.17 723.37 716.32 710.12 696.32 682.33 672.31 662.31 653.29 648.21 644.31 637.92 632.19 627.02 623.91 618.95 614.31 607.62 600.57 592.98 584.91 574.89 567.5 576.88 583.49 577.88 572.3 569.87 565.79 559.9 555.24 548.75 539.28 530.77 522.62 515.23 510.38 506.17 503.59 499.57 499.53 498.22
633.38 634.05 635.26 636.41 637.27 637.43 638.52 639.79 640.49 639.54 633.12 633.54 634.99 635.91 637.18 638.17 638.95 639.59 640.59 641.37 641.93 642 642.73 644.48 645.19 645.87 646.65 646.77 646.96 647.16 649.25 650.48 652.12 653.06 656.71 659.86 664.01 666.6 668.51 670.1 671.52 672.27 672.22 672.24 672.2 671.54 671.66 671.63 670.65 669.59 668.05 667.32 666.93 665.51 665.8 663.86 663.81 662.16 662.62 662.56 661.83 662.55 660.55 660.07 658.77 657.2 656.95 657.39 657.57 657.63 658.01 656.77 656.52 657.15 657.23 9999 9999 656.81 658.47 658.64 660.58 663.06 664.64 666.47 667.31 668.73 669.26 670.15 671.71 671.24 673.19 675.96 676.49 674.93 672.94 673.65 673.15 9999 9999 671.77 673.53 675.29 678.72 679.78 682.47 684.34 685.86 687.65 688.8 690.65 691.85 692.49 693.35 694.36 694.77 694.65 693.89 691.72 689.99 688.92 686.43 684.08 680.93 679.02 677.56 675.93 677.07 679.46 680.48 681.33 681.28 679.99 678.81 675.81 674.02 673.3 672.7 672.18 672.43 671.35 668.05 667.23 665.2 665.19 663 667.3 672.3 673.82 673.21 675.13 676.73 679.04 681.37 683.29 685.38 685.47 689.57 695.92 707.17 716.8 726.7 732.86 736.75 737.83 747.01 753.78 757.63 760.67 764.46 766.87 767.99 770.53 771.88 773.11 773.09 774.02 775.66 776.47 774.14 773.63 771.63 770.27 767.9 765.81 762.17 758.43 758.28 758.21 758.39 759.76 762.9 767.02 765.81 760.17 755.04 749.86 745.96 742.56 739.52 739.26 734.88 734.86 734.41 732.48 731.21 729.91 730.04 729.04 731.59 730.06 723.32 715.16 706.2 694.84 683.3 668.8 659.82 652.51 646.21 640.52 636 630.64 624.66 620.61 616.05 608.33 600.82 595.01 586.92 578.06 570.89 576.34 586.4 582.72 576.6 571.24 566.67 560.98 555.01 549.36 541.43 533.81 528.01 521.14 510.89 505.7 503.2 501.02 501.47 498.26
632.86 633.88 635.42 635.89 637.26 637.6 638.41 639.44 641.27 641.17 637.12 635.62 636.64 636.66 636.43 638.41 639.56 640.33 641.11 641.59 642.7 643.02 643.81 645.35 645.82 646.91 647.21 648.26 648.41 649.47 650.24 650.77 651.79 653.44 655.96 660.49 663.8 666.66 669.39 670.97 672.66 673.8 673.46 674.1 673.81 671.99 672.62 671.89 672.21 670.81 670.1 669.46 668.69 667.05 666.03 664.68 663.72 663.69 663.24 663.13 662.53 662.23 661.17 660.65 659.31 657.55 657.45 657.96 658.03 658.35 658.04 657.99 657.12 657.87 658.38 657.92 657.19 656.96 657.95 658.14 659.33 661.49 662.92 665.04 665.21 666.42 667.91 667.95 669.17 668.36 669.27 672.39 672.63 672.48 672.34 672.79 673.07 9999 9999 9999 673.56 675.46 679.2 682.16 683.54 684.61 685.51 687.01 688.54 689.55 690.64 691.36 692.38 693.62 694.81 694.41 694.2 693.38 691.89 690.11 687.9 685.17 682.07 680.57 680.08 681.03 681.8 683.26 684.61 683.91 683.8 682.71 681.86 680.25 679.59 678.02 675.12 674.58 674.58 673.78 672.14 669.8 668.59 669.26 664.61 670.2 675.29 677.61 679.08 679.74 681.17 681.86 684.56 686.45 689.38 692.5 701.01 712.38 721.76 726.69 734.29 738.58 743.87 750.42 756.69 763.48 765.01 767.4 770.01 770.79 772.09 773.51 774.94 774.65 775.09 776.37 778.99 779.53 779.55 778.34 775.68 771.87 770.39 767.89 766.34 765.65 765.59 764.31 763.96 765.21 768.28 769.15 768.75 767.15 763.57 758.67 753.44 748.53 745.3 745.75 744.74 743.71 742.24 738.52 736.41 734.38 733.26 733.63 734.87 734.48 727.4 720.59 711.24 700.06 687.59 675.61 665.01 655.71 648.52 643.11 637.47 632.41 626.68 621.97 614.6 609.59 602.98 596.2 589.66 582.43 575.76 579.12 585.05 587.18 582.45 576.39 570.63 562.87 558.43 553.02 544.45 536.23 529.63 522.35 511.14 508.3 504.7 501.99 501.45 497.84
632.32 633.64 635.54 635.95 636.28 636.94 638.39 639.5 640.78 641 642.33 640.97 640.37 638.6 637.09 638.74 640.04 640.93 641.85 642.54 643.58 644.41 644.61 645 646.47 648.1 648.04 649.06 648.95 649.28 650.84 651.29 652.73 653.99 656.91 660.06 663.3 666.12 668.34 670.72 673.46 674.14 674.55 674.39 673.87 673.91 673.32 673.66 672.86 672.62 671.46 670.65 669.96 669.16 667.38 666.7 664.61 664.67 664.15 664.22 663.73 662.85 661.98 660.71 659.21 657.98 658.17 658.61 659.37 659.64 659.71 658.85 658.52 658.31 657.76 657.93 658.01 658.11 658.07 657.84 659.05 660.49 660.71 661.02 663.02 664.1 665.76 666.24 666.97 667.8 668.6 668.82 670.09 671.12 671.84 674.12 674.81 674.78 674.23 9999 675.72 678.78 680.9 682.38 684.81 685.18 686.34 686.87 688.9 689.78 689.93 691.6 692.49 694.05 694.46 695.6 694.97 694.26 692.75 690.96 688.45 686.36 685.11 685.16 683.24 684.3 686.13 686.36 687.59 687.37 687.26 686.61 683.27 682.51 681.82 681.57 679.01 678.45 678.17 676.64 675.9 673.37 670.37 669.89 666.29 672.35 675.68 679.71 680.77 682.23 683.77 685.47 688.08 691.96 693.85 701 709.3 718.96 727.82 734.77 739.65 743.97 751.09 757.48 762.97 767.25 769.9 772.86 773.88 774.68 775.33 775.74 776.8 778.12 780.66 781.24 781.34 781.67 780.88 779.79 778.7 775.91 773.8 772.39 769.67 769.6 768.24 767.84 768.64 771.02 772.46 773.07 771.92 770.92 768.62 764.33 760.31 756.14 754.63 751.42 749.81 750.93 747.9 745.51 744 742.36 738.61 738.16 737.85 736.87 728.97 722.31 714.24 703.39 690.75 679 666.46 659.78 652.78 646.52 640.18 633.63 628.88 622.58 616.87 612.02 606.03 599.37 592.89 582.06 578.06 577.3 583.49 589.19 587.08 581.92 571.01 566.5 561.46 555.98 545.61 537.83 531.62 522.49 515.69 508.91 505.55 503.52 500.83 496.24
631.92 633.87 634.69 635.27 635.63 637.05 638.35 639.38 639.71 641.14 641.84 642.48 642.42 638.16 637.4 639.11 641.59 643.48 643.15 643.65 645.41 645.06 645.18 645.54 647.39 648.24 649.43 650.2 650.12 650.24 650.97 651.92 653.52 655.24 656.61 659.51 662.43 665.77 667.9 670.71 672.58 673.23 673.64 674.31 674.14 674.12 674.87 674.52 673.91 673.38 672.9 672.27 670.29 669.26 668.67 667.65 667.07 666.22 665.05 664.65 663.79 663.16 662.73 661.75 660.2 659.26 659.6 660.18 660.79 660.98 659.9 660.24 659.57 659.69 658.64 658.59 658.89 658.41 658.31 658.18 658.16 659.44 660.1 660.88 661.97 663.51 664.64 664.53 664.89 665.96 667.05 667.83 668.82 671.82 674.41 677.63 678.94 678.66 678.24 679.25 680.03 682.28 684.31 686.7 686.38 686.18 687.2 688.84 689.71 690.64 691.44 692.52 693.04 694.2 695.06 696 696.08 695.21 694.46 693.37 690.27 688.52 688.49 689.19 688.92 689.48 690.1 689.28 689.96 690.16 689.41 688.83 687.03 686.6 685.46 682.71 681.82 680.66 680.89 679.13 678.82 677.77 674.43 671.21 668.41 671.57 676.29 680.39 682.25 684.53 685.78 688.28 690.88 695 703.32 709.71 717.5 724.63 732.13 736.54 740.95 749.62 756.99 763.73 768.08 770.26 772.91 775.27 776.33 777.28 778.26 781.65 781.68 784.45 787.61 785 783.78 783.66 783.99 783.74 780.52 778.59 776.28 774.13 773.46 772.78 772.01 770.42 771.95 772.66 774.1 775.24 776.5 778.03 777.93 772.09 769.18 765.39 762.89 761.9 761.65 763.08 754.93 752.15 750.51 749.37 749.99 751.22 750.97 743.37 734.76 724.31 714.36 704.2 694.11 681.05 672.44 663.01 655.1 648.04 641.89 635.33 630.27 625.14 619.39 612.89 607.15 602.8 592.3 585.84 581.19 578.41 583.94 590.2 590.91 581.07 575.16 568.86 563.52 556.4 547.91 538.73 529.65 523.76 515.18 510.49 506.42 503.65 499.1 494.51
632.62 633.2 634.1 634.54 635.84 636.54 637.63 637.97 639.63 640.2 641.63 641.54 638.42 637.91 638.29 639.39 640.94 642.92 644.26 644.31 645.94 645.91 646.87 647.03 647.06 649.62 650.52 650.8 651.14 651.51 652.42 652.85 654.51 655.05 656.18 659.16 662.69 664.03 666.12 670.8 667.66 670.57 671.08 671.1 673.2 675.19 675.79 675.39 675.32 674.68 673.84 673.52 671.46 671.01 670.18 668.9 668.42 667.06 666.12 664.99 664.46 663.97 663.43 662.46 661.51 660.76 660.75 662.02 661.96 661.77 660.61 660.72 660.83 660 660.15 659.74 659.66 658.56 658.43 658.4 658.65 659.28 659.31 661.04 662.76 663.41 665.54 664.37 664.48 665.14 665.73 665.9 667.99 671.66 675.71 678.5 680.32 680.96 682.14 683.27 682.29 684.59 686.77 687.98 688.32 688.7 689.53 691.04 690.71 691.32 692.88 693.67 694.95 695.51 696.8 696.86 696.84 696.87 695.42 694.51 694.25 694.53 693.87 693.23 692.59 693.23 692.9 693.6 693.54 693.67 691.85 690.86 689.7 689.04 687.11 685 685.21 685.11 681.1 679.68 679.76 680.03 680.76 680.05 675.09 672.11 676.92 680.41 682.56 684.89 688.49 692.25 699.78 701.82 708.87 715.26 722.07 728.46 732.96 737.63 744.8 752.13 759.49 765.48 770.82 774.57 777.34 779.07 778.07 780.27 784.44 789.37 791.81 791.62 791.48 789.39 787.08 786.3 786.27 785.87 784.74 784.06 782.01 778.13 775.22 774.73 775.51 776.27 776.44 776.9 775.97 776.79 777.54 779.33 779.96 778.64 776.67 773.97 768.61 768.29 770.62 771.08 768.65 765.21 763.72 758.05 760.15 761.11 759.42 751.48 741.76 731.32 717.94 704.08 692.89 682.34 673.34 665.42 658.97 651.88 642.48 636.93 631.87 627.4 622.45 616.96 610.42 601.31 593.87 587.96 582.66 582.26 584.76 586.53 585.56 582.26 577.32 571.46 565.46 558.61 547.18 538.11 530.43 523.92 516.27 510.16 505.39 502.02 497.63 495.08
632.91 633.54 633.57 634.3 635.46 636.67 637.51 639.28 639.94 640.7 640.4 638.12 638.26 639.42 640.06 641.21 642.61 644.64 645.17 647.22 645.97 647.13 647.3 647.93 648.49 649.55 650.76 652.16 651.96 651.95 653.24 653.58 654.73 656.24 656.09 658.73 660.73 662.22 663.46 665.35 666.85 667.4 667.42 669.22 673.2 675.41 676.63 676.5 676.36 676.38 675.51 674.18 673.11 672.33 670.68 669.77 669.26 668.49 666.26 665.87 665.59 664.75 663.17 663.4 662.21 662.23 662.43 662.57 662.82 661.84 662.17 661.65 661.65 661.26 660.93 660.78 659.62 660.02 659.1 659.19 658.5 658.28 659.15 660.86 665.03 667.52 668.25 666.41 664.75 666 665.91 666.33 669.35 672.69 676.85 679.76 680.77 681.77 683.97 684.57 685.87 687.03 688.31 689.15 689.7 690.14 690.99 692.43 693.49 693.99 695.49 695 696.49 696.92 697.74 698.53 698.49 698.99 698.07 697.15 696.56 697.52 697.33 697.45 698.11 697.96 696.39 696.22 696.47 696.12 695.06 693.39 691.63 690.55 687.56 686.88 688.19 688.31 683.65 681.66 683.92 684.61 684.5 682.98 680.88 673.9 679.09 681.4 685.02 688.12 691.34 697.31 707.91 713.82 717.94 722.32 724.61 729.62 736.46 740.77 747.51 754.07 761.36 768.7 772.35 778.26 781.29 784.14 787.53 789.87 792.67 792.91 793.57 793.09 792.89 793.08 790.93 790.1 787.11 787.25 787.42 786.43 785.18 784.72 781.99 781.11 778.39 777.93 778.39 779.49 779.87 780.68 782.09 780.61 781.39 781.42 781.77 780.95 780.25 781.51 781.21 777.38 776.01 773.04 770.83 771.64 772.88 773.96 764.77 756.05 746.9 737.2 723.7 712.51 700.06 689.16 676.56 667.9 660.68 651.37 645.73 640.27 634.95 630.65 625.41 619.27 610.88 604.59 597.27 590.31 584.43 583.39 584.64 585.73 584.22 582.18 577.15 571.63 565.91 557.38 546.13 535.89 529.46 522.1 514.19 509.49 505.06 501.37 497.15 495.93
633.19 633.16 634 634.37 635.69 637.99 639.35 640.79 641.62 641.26 637.73 9999 638.02 639.77 640.59 641.87 644.08 644.87 645.83 646.9 647.95 648.33 648.97 648.98 649.79 650.53 650.75 651.45 653.41 654.01 653.93 654.74 655.17 656.69 657 658.49 660.82 660.6 661.62 663.86 664.8 665.11 666.04 670.21 673.05 675.82 676.98 677.48 678.06 677.64 677.15 675.92 674.85 672.66 672.02 670.59 669.24 668.29 667.58 666.08 665.58 665.16 663.56 662.9 662.64 663.77 663.06 663.77 663.44 662.95 662.71 662.74 662.38 662.03 662.17 661.42 660.7 660.17 658.39 660.42 659.75 658.89 659.1 660.94 665.65 668.22 670.22 670.09 669.78 672.07 671.03 669.45 671.64 674.63 678.03 680.36 681.73 684.56 685.56 686.24 686.94 687.87 689.23 690.3 691.88 692.27 694.04 693.93 695.45 695.91 697.19 698.72 698.99 699.21 698.83 699.64 699.82 699.52 699.72 699.9 699.66 700.46 700.19 700.9 700.63 701.24 700.48 700 699.67 698.46 697.78 694.71 693.86 691.8 690.09 689.55 690.99 690.08 688.03 684.82 687 687.13 686.3 686.06 683.14 676.79 680.42 682.9 686.64 691.39 699.69 707.04 711.74 717.2 721.38 724.76 729.47 735.69 739.92 743.44 748.82 756.57 763.86 770.86 777.98 784.51 790.41 791.03 792.53 793.94 794.73 794.34 795.24 794.57 794.04 793.59 791.5 791.39 790.56 788.99 788.72 787.6 787.28 786.22 784.95 783.74 783.12 782.98 783.31 781.45 782.61 783.3 783.2 784.16 784.7 786.49 786.37 787.48 786.83 787.44 786.2 785.44 784.82 784.45 779.52 780.48 781.56 778.46 770.22 762.6 754.92 739.89 730.78 719.95 707.5 695.57 682.88 671.75 660.23 653.3 647.67 643 638.97 634.68 630.64 624.66 615.51 608.78 601.36 593.13 586.74 586.33 586.44 585.94 583.97 581.62 576.84 571.34 561.75 552.94 544.61 536.14 528.68 521.58 514.17 505.45 502.29 498.18 496.89 496.03
633.51 633.97 634.37 634.94 636.31 638.8 640.36 641.56 642.91 642.45 638.54 9999 638.61 639.85 640.85 643.88 644.82 645.32 646.39 647.23 647.64 649.41 649.16 649.64 650.04 651.03 651.99 652.39 652.96 655.17 656.27 656.1 656.17 656.95 658.36 659.68 661.88 661.96 662.78 663.83 663.91 663.02 666.38 670.47 674.29 676.15 677.5 678.56 678.47 677.9 677.53 676.59 675.45 674.6 672.45 670.84 670.75 669.55 667.68 667.05 666.08 665.13 664.11 664.48 663.83 664.03 664.44 664.74 664.37 663.87 664.58 664.4 663.51 663 662.55 662.1 660.86 660.39 660.25 661.09 661.08 661.54 660.25 662.04 664.79 667.74 670.45 671.94 672.47 673.68 674.72 674.38 675.67 677.04 679.76 681.16 682.73 684.15 686.06 687.33 688.64 690.04 691.46 692.06 693.42 694.18 695.3 696.45 697.7 698.95 699.27 700.51 701.11 701.54 701.63 701.51 701.38 701.35 701.87 702.67 701.67 703.4 704.18 703.89 704.49 703.31 702.51 702.36 702.31 701.45 701.05 697.74 694.8 692.82 691.03 691.99 693.24 693.03 691.07 689.14 688.29 688.72 687 686.74 682.24 678.26 683.04 684.66 687.65 693.95 700.83 708.25 714.93 719.71 724.36 727.87 733.1 737.27 742.44 747.35 753.41 759.86 766.95 777.37 782.01 789.09 793.69 795.19 796.51 795.81 795.32 795.33 796.29 795.45 796.03 796.48 793.03 792.01 791.16 790.9 789.85 789.45 788.41 787.63 786.91 785.54 785.65 785.04 784.36 784.28 784.79 786.78 786.95 788.11 788.36 788.98 790.09 790.87 792.05 791.36 791.86 791.47 791.73 791.47 791.26 794.34 793.24 782.7 774.95 768.5 759.76 751.64 741.58 730.77 715.53 701.91 689.22 672.74 663.67 656.25 651.04 646.94 641.23 635.9 632.03 628.28 622.66 616.58 610.33 598.96 588.42 588 589.18 587.24 584.82 582.34 575.68 566.12 559.27 549.62 541.38 533.77 525.21 516.05 509.24 502.82 499.75 498.45 497.6 497.08
634.26 633.87 634.55 634.95 636.31 639.02 641.02 642.83 643.67 643.4 641.29 638.7 640.47 642.86 642.42 643.9 645.71 646.66 647.38 646.89 648.34 650.08 649.57 650.46 651.53 651.8 652.64 654.3 654.57 655.53 656.6 657.6 657.53 658.11 659.61 660.33 660.94 662.53 663.71 664.09 664.39 663.9 666.95 670.78 673.59 675.53 677.7 678.2 678.64 678.81 677.79 678.16 676.67 675.61 672.43 671.42 670.6 669.67 668.7 667.69 666.51 664.61 664.56 664.89 665.17 665.02 665.4 664.43 665.03 664.54 665.56 665.59 664.31 663.99 663.41 661.92 661.83 659.95 661.76 662.49 662.7 663.92 664.77 663.97 665.96 668.33 671.69 672.44 674.3 675.19 675.55 676.49 677.12 679.12 681.53 682.43 684.01 685.61 686.86 687.65 689.72 691.1 692.62 694.51 696.78 697.73 698.9 698.28 699.86 700.68 702.36 703.45 704.33 703.53 703.68 703.53 704.13 705.16 705.11 705.93 704.71 705.88 706.78 706.33 706.81 707.39 706.16 705.22 703.08 702.65 700.64 698.81 696.16 694.99 694.61 693.81 695.08 695.2 694.44 692.32 690.82 691.77 690.71 688.22 683.74 679.54 683.58 686.17 691.28 695.77 701.29 708.44 715.62 720.75 725.11 731.63 735.14 740.12 745.54 752.38 758.4 763.16 771.32 777.82 780.51 785.81 793.59 795.95 796.22 796.75 796.33 797.22 796.8 796.55 796.52 796.59 794.7 793.69 793.2 791.88 790.69 790.32 789.24 788.7 788.62 788.15 787.72 787.37 786.08 786.38 788.97 791.71 792.66 793.5 793.74 793.35 793.82 793.28 793.89 793.68 797.58 802.15 805.17 800.94 801 801.41 797.25 790.85 784.36 776.87 766.89 757.22 747.36 736.63 722.71 702.96 689.79 676.6 667.56 660.08 653.6 649.13 643.94 639.46 634.83 630.99 626.26 620.85 614.97 604.79 592.72 594.28 590.58 588.68 587.1 583.33 570.66 562.55 553.74 545.99 536.9 528.73 517.58 511.62 504.59 502.09 500.26 498.7 497.86 496.7
634.99 634.48 634.99 635.78 636.34 638.97 641.47 642.32 644.03 644.7 643.69 642.75 643.65 645.66 645.87 645.44 647.46 646.57 648.07 648.08 650.14 650.29 651.29 651.89 652.19 652.11 653.5 653.96 655.18 655.99 656.65 658.31 658.59 658.87 659.77 660.93 661.89 662.76 663.88 664.88 664.72 664.82 668.81 670.93 671.46 671.91 675.38 676.55 678 678.11 678.82 678.74 678.98 676.53 674.78 672.76 671.7 670.34 668.58 668.15 666.95 666.41 666.45 665.87 665.75 665.69 665.38 665.33 666.27 666.72 666.94 666.41 665.22 664.72 663.77 662.53 661.54 661.32 662.39 662.76 664.1 665.62 665.69 666.97 667.88 669.65 671.24 673.19 674.33 675.29 676.46 678 679.55 680.83 682.31 683.54 684.62 685.78 687.67 689.12 691.9 692.51 694.05 696.26 699.81 704.11 704.14 706.68 708.23 704.99 704.2 705.44 705.93 706.6 706.66 707.25 706.11 707.17 707.41 708.44 708.94 709.21 709.7 710.68 709.35 710.46 709.55 707.22 706.51 705.04 703.78 700.45 698.86 697.16 696.94 697.58 698.32 698.35 698.28 696.02 692.74 693.07 692.12 690.91 687.84 684.32 684.46 689.13 691.86 697.27 703.31 710.67 716.69 721.51 727.42 732.31 737.41 742.94 749.1 755.06 763.17 766.71 772.44 777.33 781.67 787.06 792.11 793.74 795.62 796.32 796.49 797 796.93 797.09 796.61 796.22 795.97 794.68 794.37 793.81 792.81 791.88 791.32 790.61 790.2 789.07 788.91 790.29 791.96 792.92 794.52 793.97 794.39 795.44 795.52 796.27 797.13 797.6 798.06 799.87 804.15 809.56 811.21 809.46 806.72 805.86 801.18 794.7 790.06 785.62 775.82 764.82 752.97 738.88 719.78 705.18 691.79 680.82 672.59 666.05 656.52 650.5 645.56 641.42 636.6 632.62 627.76 623.66 615.42 604.63 596.08 598.79 597.65 591.82 585.34 579.49 568.38 559.68 548.7 538.2 531.27 523.81 516.74 510.38 504.74 502.59 500.59 500.16 498.9 498.05
635.18 635.26 635.28 635.96 636.82 639.78 641.5 643.15 644.63 645.77 646.91 647 647.91 648.27 648.48 648.94 649.28 649.99 650.41 650.51 650.42 651.07 652.11 651.84 652.43 653.77 655.2 655.89 655.58 656.84 657.28 658.39 660.49 660.64 661.53 662.5 662.53 663.29 664.61 665.66 665.41 665.8 668.07 669.14 669.48 669.99 672.66 674.83 676.82 678.18 678.41 679.18 678.45 676.79 676.5 673.62 673.1 670.65 670.34 668.47 668.98 668.61 667.49 667.45 666.7 667.44 667.32 667.27 666.83 667.37 667.45 666.86 666.47 665.16 663.01 662.64 661.22 661.78 663.1 664.19 664.22 664.83 666.13 667.3 668.63 670.8 671.48 673.7 674.96 675.87 677.32 678.46 680.81 681.1 683.3 684.52 685.75 686.6 688.47 690.75 692.59 694.45 696.67 698.81 700.6 703.76 707.25 710.73 712.29 711.52 710 709.39 707.76 709.26 709.7 709.66 709.61 710.74 711.34 710.77 710.9 711.28 711.47 711.95 713.25 712.77 711.62 709.06 707.84 706.72 706.23 703.61 703.1 702.8 702.14 701.49 701.25 701.4 700.96 698.47 696.52 697.26 695.1 692.12 689.94 686.92 686.29 690.31 692.52 696.77 703.3 709.02 717.09 726.25 732.14 737.96 742.25 745.88 752.22 759.3 764.92 769.8 773.07 777.95 783.64 788.39 792.16 793.98 795.08 796.14 796.87 796.89 797.31 796.9 796.51 795.89 795.18 795.18 794.92 793.85 793.33 792.89 792.24 791.46 791.83 793.03 792.88 793.31 793.23 793.81 794.48 794.92 795.41 796.7 797 798.75 798.76 801.33 804.66 809.69 813.71 813.86 816.05 811.02 808.63 807.9 806.13 807.19 800.21 789.29 776.27 767.94 754.28 735.96 721.49 707.98 694.45 682.62 675.06 668.46 658.3 652.65 648.65 644.17 638.82 634.13 629.3 621.69 615.42 608.53 601.43 600.76 597.27 591.32 584.33 575.47 566.5 555.77 546.04 536.14 528.99 523.37 516.67 509.21 505.93 504.25 501.9 500.59 499.75 498.53
635.55 635.62 636.06 636.93 636.95 638.33 641.98 644.14 644.82 646.56 647.34 648.42 649.46 650.07 650.45 651.38 651.81 652.08 651.91 651.78 651.67 652.25 653.08 652.52 653.47 654.61 655.91 656.7 656.95 657.6 658.28 659.21 660.4 661.31 662.21 662.95 663.89 664.62 665.25 665.84 666.53 666.61 667.96 669.01 668 668.29 670.98 673.29 674.7 676.2 677.8 678.44 679.13 678.85 676.63 674.8 673.18 671.05 671.22 670.21 669.93 669.99 668.37 668.04 667.83 668.35 668.68 669.34 669.55 668.4 667.98 666.77 666.37 664.24 663.49 663.16 662.02 661.88 664.28 664.43 665.42 666.46 666.8 667.77 669.32 670.53 672.06 673.52 675.11 676.56 678.28 679.34 681.26 682 683.42 684.96 686.83 688.3 689.86 692.66 693.39 696.07 698.74 701.46 704.99 706.95 709.86 712.63 714.51 715.66 713.96 711.95 712.24 711.95 713.28 712.31 712.85 712.96 713.57 714.35 714.23 714.54 714.37 714.75 714.76 714.19 713.69 712.07 711.63 710.1 708.25 707.04 705.19 706.24 707.34 707.24 705.33 704.91 703.48 701.07 699.45 699.61 696.89 694.48 692.08 689.08 687.87 690.38 693.37 696.34 702.48 710.43 720.01 727.38 732.57 738.32 744.68 751.25 758.3 763.86 768.12 771.48 774.49 780.37 786.89 791.02 793 794.07 795.26 796.31 796.08 796.86 796.42 796.55 796.15 796.49 795.26 794.92 795.03 793.99 793.56 792.66 792.92 792.71 793 792.44 793.03 793.14 793.87 794.74 794.54 795.09 796.44 797.13 799.32 802.83 806.55 808.58 812.84 815.24 818.3 820.29 820.79 815.63 810.54 809.95 810.4 809.48 797.94 785.87 778.33 768.2 749.82 736.79 722.5 709.07 697.57 686.64 679.17 668.74 661.83 655.64 650.77 646.25 641.11 633.99 629.65 623.41 616.84 609.86 603.53 600.11 594.2 589.79 582.94 574.69 565.43 553.9 543.22 534.82 529.92 522.09 515.21 510.53 507.85 505.42 503.08 501.55 499.98 499.4
636.79 636.36 636.78 637.75 637.04 637.81 640.51 643.99 646.18 647.71 648.27 648.74 649.98 650.51 651.15 652.94 653.4 654.15 654.19 653.77 653.19 653.83 653.72 655.44 655.17 655.19 655.7 656.51 657.98 658.93 658.89 660.48 661.22 662.41 662.91 663.95 664.69 665.65 666.03 666.94 667.13 667.93 669.37 670.73 669.11 668.05 669.46 670.79 672.5 674.2 677.1 678.39 678.96 679.44 678.39 675.5 673.33 671.54 670.8 670.73 670.76 670.73 670.8 669.78 668.87 669.08 669.15 669.67 670 668.11 666.59 664.27 663.56 663.65 663.97 663.16 661.71 663.04 664.45 665.58 666.13 666.48 667.36 668.86 669.52 671.17 671.84 674.92 676.17 677.49 678.61 679.96 681.77 683.57 685.32 686.86 689.25 690.43 692.05 693.54 695.49 697.05 700.04 703.05 705.64 707.97 710.63 714.09 715.48 716.45 716.52 716.67 716.98 716.4 715.76 715.98 716.3 716.95 716.07 716.28 716.61 716.71 717.24 717.3 718.31 716.23 715.4 715.19 713.65 712.43 711.33 709.76 708.26 707.79 708.4 708.09 706.65 706.13 704.52 704.11 702.52 700.05 697.71 694.72 693.61 691.88 691.91 692.42 693.21 696.19 703.09 710.71 717.57 724.65 730.68 736.41 744.81 755.22 760.08 764.66 768.39 772 777.67 782.03 788.23 791.79 792.52 793.97 794.71 796.06 796.62 796.84 796.74 796.03 795.5 795.66 795.05 794.43 794.4 794.2 793.34 793.08 793.3 793.43 793.01 793 793.64 794.32 794.45 795.19 796.09 797.21 797.6 799.53 803.54 807.73 810.89 817.17 819.35 819.78 819.36 822.34 821.41 817.65 814.11 813.23 812.79 803.11 793.74 784.54 775.64 759.52 747.73 735.41 723.28 711.03 699.47 686.44 679.56 673.02 664.76 658.02 652.12 647.33 639.88 634.47 630.19 625.37 620.47 612.42 604.98 599.48 595.32 589.91 582.47 573.24 562.78 553.03 540.22 534.97 528.34 520.18 515.9 511.84 507.97 505.35 503.61 502.26 501.4 500.31
637.26 636.98 637.78 638.19 638.17 638.97 641.78 644.5 647.14 647.79 648.82 649.97 651.08 651.42 653.23 653.88 654.48 655.14 655.55 655.34 656.17 655.69 656.26 656.27 656.76 656.54 656.87 657.33 659.12 660.92 660.92 661.14 661.75 662.41 663.34 665.33 666.01 666.81 666.8 667.48 668.47 669.57 669.13 669.95 669.84 669.67 669.4 670.75 672.01 672.69 675.82 678.31 678.37 678.72 678.03 675.68 673.89 673.01 672.08 671.61 671.08 671.4 671.18 671.18 669.97 669.7 669.59 669.78 668.98 667.73 665.2 663.91 663.49 663.11 662.91 662.73 663.44 664.7 664.25 664.96 666.9 667.63 668.48 669.06 669.86 671.57 673.41 675.75 677.92 678.88 680.6 681.49 683.13 684.41 686.19 688.67 691 692.93 693.83 695.61 698.6 700.93 705.22 706.01 708.07 710.26 711.59 714.04 716.02 717.95 719.02 720.26 720.69 720.31 718.71 719 718.46 719.45 719.42 719.85 720.17 719.39 719.36 719.71 719.58 719.42 718.73 718.62 717.24 714.48 713.66 711.5 710.65 711.16 710.71 710.08 706.99 706.55 705.76 704.48 702.06 698.89 696.01 695.35 694.32 694.22 694.71 694.52 695.79 698.85 702.39 708.73 715.23 722.1 728.36 734.15 744.4 751.17 757.87 763.81 768.98 773.75 780.54 784.72 788.03 790.43 792.61 794.2 794.75 796.07 796.26 796.49 795.59 795.67 795.11 795.17 794.36 794.08 793.43 792.34 792.89 792.57 792.6 792.56 792.39 792.82 793.27 794.54 794.89 796.11 796.65 797.4 800.19 807.23 812.31 815.56 817.74 819.29 819.44 820.84 824 824.08 823.24 817.54 815.07 813.7 809.13 798.72 789.07 776.19 765.77 756.78 745.76 734.08 723.4 711.99 697.77 689.56 683.56 675.08 666.33 658.12 652.36 646.16 640.45 635.07 629.94 625.94 619.65 611.63 606.61 603.48 597.21 590.3 582.61 570.89 559.92 549.08 540.3 533.77 527.17 521.09 517.23 511.21 509.52 507.64 506.66 503.01 502.3 501.83
638.62 638.46 638.44 638.98 638.78 639.85 642.63 645.6 647.83 648.87 649.27 650.25 651.67 652.75 655.42 655.83 656.52 657.03 656.75 657.21 656.7 657.9 658.23 658.62 659.36 658.06 657.54 658.55 660.16 661.81 663.61 664.04 663.42 663.48 664.61 665.5 666.75 668.34 668.49 669.32 669.69 669.69 670.01 669.7 669.21 669.93 670.27 670.5 671.47 672.39 674.17 677.52 678.29 677.73 676.94 676.21 674.95 673.65 672.62 672.35 672.4 672.04 672.05 671.78 670.88 670.19 670 669.85 668.77 667.34 665.26 663.48 663.73 663.47 663.24 663.03 663.82 665.31 665.76 665.17 667.18 667.94 669.37 670.04 671.54 672.89 674.4 677.23 679.56 680.98 681.43 683.84 688.55 690.76 689.62 691.64 693.76 696.32 699.09 702.11 705.47 712.32 714.1 714.82 714.31 713.86 714.5 715.65 717.84 719.08 720.08 721.55 722.1 722.77 722.49 722.3 721.9 721.86 722.1 722.72 722.72 722.11 722.73 722.89 721.79 721.27 721.19 720 719.4 718.72 716.28 715.01 713.29 713.54 712.06 710.89 710.22 707.04 705.99 703.64 701.23 698.8 696.86 695.95 696.83 697.24 697.21 696.54 697.44 700.34 702.34 705.84 711.5 719.05 727.36 735.01 742.16 750.25 755.85 761.67 767.57 774.87 779.81 783.69 786.67 789.48 791.85 793.85 794.7 795.71 795.85 795.62 795.12 794.62 794.34 793.86 793.2 793.16 791.99 792.24 792.02 790.46 791.8 791.6 792.62 793.09 792.95 794.41 795.39 796.34 796.88 799.33 804.39 810.71 816.13 818.26 820.02 821.43 823.32 824.54 827.11 825.43 824.26 821.93 816.04 808.15 802.3 793.5 781.64 771.03 761.1 750.45 740.1 729.81 721.25 707.66 698.65 693.1 688.28 678.45 667.25 661.02 652.7 646.39 640.27 632.88 629 623.12 615.81 610.33 607.97 604 596.27 588.11 580.13 568.36 560.37 549.35 540.42 533.29 528.86 524.67 517.64 512.18 511.24 510.09 508.27 505.89 503.19 501.93
638.81 639.24 639.4 639.19 639.7 640.73 644.21 646.53 648.55 649.58 650.08 650.98 653.64 655.16 656.57 656.55 657.11 657.85 658.48 659.38 660.07 659.55 660.43 660.82 661.32 661.41 663.37 664 662.65 662.68 663.74 664.62 666.31 665 665.84 666.13 666.91 667.72 669.11 669.75 671.3 671.33 671.14 671.26 670.85 670.38 670.69 670.51 670.92 671.84 673.31 674.48 677.28 676.6 675.77 675.94 674.52 674.04 673.6 672.71 673.22 672.67 672.93 672.23 671.66 671.74 671.72 670.51 668.83 667.73 665.68 664.46 663.87 664.62 663.29 663.78 664.45 665.41 666.2 666.49 667.33 669.65 670.41 671.03 672.26 673.71 676.18 678.35 680.63 682.47 683.15 687.55 691.7 694.07 697.38 698.91 699.55 699.26 702.45 706.11 711.79 716.23 720 723.29 725.59 721.78 720.18 721.34 723.5 723.57 724.08 724.49 724.59 723.93 723.83 723.97 724.5 725.46 725.96 726.63 725.03 725.26 725.09 724.72 725.26 724.35 725.22 723.24 721.85 720.65 718.9 716.61 715.54 715.24 713.27 711.1 709.93 708.2 706.27 704.83 703.53 702.15 700.1 699.61 699.98 699.55 699.41 699.1 698.92 701.05 703.53 707.28 710.56 717.69 725 733.37 739.41 748.35 755.08 761.63 768.69 774.79 779.19 782.82 785.94 788.46 791.14 793.1 793.94 794.43 794.27 794.78 794.68 794.19 793.45 792.68 791.89 791.87 790.55 789.95 790.41 789.89 790.91 791.17 791.28 791.92 792.94 794.73 795.81 797.09 798.59 803.06 810.37 816.82 821.22 821.15 822.9 824.65 827.19 832.01 833.83 829.5 824.7 816.82 808.77 800.48 792.84 783.9 773.68 766.64 756.44 747.13 737.51 727.53 715.06 706.87 701.19 696.1 690.39 679.62 669.09 659.26 654.63 647.9 639.81 633.31 627.73 620.33 615 610.87 605.75 599.6 593.69 586.62 574.88 567.91 559.98 549.55 542.43 533.76 527.93 519.79 516.48 514.41 513.07 511.9 509.29 505.51 503.05 501.87
640.41 640.05 640.15 640.25 640.98 641.04 643.48 646.61 648.83 649.7 650.74 651.88 654.5 656.02 657.62 658.17 658.18 658.66 660.1 660.62 661.15 662.44 663.34 664.36 663.79 664.45 665.75 666.62 665.86 664.98 665.36 666.01 667.45 667.65 666.96 667.2 667.8 669.27 670.75 671.54 671.63 672.4 671.81 671.98 672.48 672.61 671.93 671.32 671.04 672.16 672.37 673.39 674.61 674.42 675.17 675.42 674.53 674.31 673.97 674.36 674.43 673.71 673.8 673.24 672.8 672.47 672.45 671.24 670.2 668.02 665.49 664.1 664.86 664.62 664.32 664.18 664.16 665.21 667.22 668.05 668.32 668.25 670.51 672.16 673.64 674.44 676.95 679.47 681.68 683.66 686.28 692.1 697.3 697.32 700.12 701.26 704.76 706.68 708.22 711.87 714.64 721.21 725.95 727.75 729.37 730 731.95 734.05 731.36 732.21 732.06 731.77 730.01 729.32 729.46 727.13 726.96 727.31 727.95 729.26 729.23 729.35 729 727.6 727.12 728.04 727.49 726.39 726.04 724 721.52 717.75 717.46 716.87 713.9 712.36 710.33 709.85 707.93 706.11 706.17 705.64 704.55 703.91 703.24 702.74 700.85 700.18 700.04 701.45 703.57 706.58 710.57 716.91 722.89 729.01 736.59 745.41 754.55 762.54 767.83 772.64 777.47 781.71 786.14 789.08 791.24 791.94 793.07 793.36 793.96 793.87 792.87 792.52 790.95 791.39 790.92 790.06 789.47 789.26 788.53 788.48 788.08 790.08 790.43 791.23 792.53 794.19 796.1 799.34 802.98 809.66 817.46 822.72 824.41 826.71 829.07 830.72 830.58 834.08 829.3 820.22 812.53 806.04 798.39 792.36 785.44 777.21 768.23 759.35 750 740.55 733.74 722 713.76 707.36 701.96 698.06 691.44 675.98 667.02 661.22 655.84 647.66 639.23 632.52 625.24 619.6 614.89 610.82 604.98 598.46 593.14 582.36 574.78 567.1 557.66 548.29 540.14 532.61 524.77 522.09 519.95 515.28 513.05 511.74 508.64 505.73 503.14 501.21
641.51 641.31 641.74 641.8 641.5 642.14 644.01 646.43 649.44 649.75 651.39 652.72 655.08 657.37 658.67 658.97 660.16 660.9 661.02 661.88 662.22 663.38 663.94 664.89 665.38 666.32 668.45 667.85 667.19 666.16 666.81 667.06 667.95 668.91 669.64 668.83 668.56 669.83 671.28 672.68 673.04 673.8 673.72 673 673.53 673.35 673.07 672.82 672.25 672.41 671.9 672.94 673.36 673.87 673.98 673.74 673.66 674.68 674.3 674.71 674.78 674.93 675.53 674.98 674.06 673.01 672.28 671.01 669.77 668.01 666.88 665.36 664.84 664.62 664.65 664.82 664.34 664.25 666.4 668.85 669.56 669.48 669.67 672.26 674.03 676.5 678.39 680.29 682.86 685.18 687.74 693.12 697.53 699.9 702.14 705.02 709.09 712.15 713.4 715.81 721.59 727.51 729.33 731.61 733.22 736.32 738.68 739.77 740.71 742.94 743.93 741.48 739.63 739.51 738.3 736.62 735.66 735.12 733.21 732.15 730.87 731.76 730.79 731.21 730.49 730.76 729.8 728.44 728.15 726.48 723.59 719.04 717.72 716.02 714.07 714.13 711.73 710.99 710.27 709.77 709.64 707.62 707.43 706.35 704.87 704.53 703.48 702.12 701.65 702.35 704.14 707.11 710.45 714.9 720.33 725.43 734.28 743.07 755.01 760.42 766.07 771.2 776.11 782.3 787.32 789.76 790.59 791.41 792.41 792.54 792.5 792.6 792.11 791.51 789.63 789.14 788.45 787.29 785.91 787.42 786.71 786.44 786.89 788.16 788.61 790.02 792.08 794.02 797.24 804.03 810.21 818.28 822.51 826.12 828.2 831.06 833.07 833.96 828.89 820.96 814.14 811.52 804.53 798.63 791.38 781.85 777.14 769.44 762.75 755.19 745.91 733.81 726.71 721.17 710.78 705.42 701.59 698.33 687.45 676.81 668.69 663.03 657.28 649.33 639.65 630.31 625.76 619.51 616.6 611.86 604.05 598.08 588.35 581.05 573.15 565.21 554.92 545.83 537.2 530.51 524.01 522.98 519.93 516.24 513.64 510.94 507.72 505.49 502.73 500.28
641.38 642.52 643.14 642.95 643.2 643.45 643.69 645.53 648.13 650.46 651.16 652.71 655.4 657.9 658.48 659.37 660.62 661.78 661.93 662.64 663.59 664.72 665.98 665.91 667.08 667.85 668.65 669.16 668.38 668.76 668.29 668.3 668.98 669.67 670.58 671.54 670.79 670.54 671.52 672.56 674.09 675.15 674.98 675.43 675.5 674.28 673.45 674.58 673.26 672.64 672.55 672.89 672.52 672.78 673.05 672.65 674.32 674.97 675.61 675.47 675.63 676.18 675.96 675.03 675.75 674.5 672.83 670.8 669.28 668.34 666.75 665.9 664.85 665.06 665.11 665.07 664.41 664.82 666.66 669.48 670.6 670.41 671.04 673.46 674.99 676.6 679.25 681.26 683.48 685.67 689.55 693.19 697.14 699.03 700.61 703.8 709.6 713.74 716.82 719.63 724.83 728.34 730.64 732.92 737.79 740.15 741.46 742.82 744.23 745.53 745.93 746.44 747.07 747.42 743.81 743.48 741.09 739.64 737.06 736.42 736.12 735.62 733.85 735.31 736.42 735.03 734.93 735.42 733.86 729.38 723.61 719.71 717.77 715.19 714.6 714 713.93 712.58 712.64 712.38 711.96 711.66 710.6 708.65 706.86 705.67 704.16 703.55 703.03 703.18 705.22 706.65 708.52 713.39 718.53 724.81 732.41 743.09 749.37 758.19 763.84 769.34 775.48 782.06 786.28 788.43 789.92 790.96 791.67 792.22 791.81 791 790.07 789.74 788.7 787.96 786.97 785.52 784.21 783.6 783.72 783.35 784.89 786.3 787.42 788.91 790.64 795.05 801.52 806.51 815.39 819.93 825.43 830.96 832.2 834.68 836.48 829.06 820.2 812.61 805.54 798.61 792.74 787.47 781.79 777.32 771.22 764.11 756.19 747.55 736 729.62 723.68 718.31 711.28 705.98 701.98 694.28 685.48 676.93 670.05 663.84 658.13 650.05 639.24 632.72 625.71 620.69 617.99 611.85 600.51 594.04 587.57 578.96 571.38 562.12 553.86 546.93 538.37 527.85 524.97 525.03 519.08 516.78 513.37 510.91 507.28 504.33 501.82 500.99
642.76 643.14 644.2 644.79 643.64 644.07 644.62 644.89 647.27 649.2 651.13 652.4 654.26 657.72 658.23 660.16 660.5 662.33 662.37 663.36 665.02 666.03 667.29 667.69 668.61 669.13 669.44 669.25 668.59 668.83 668.8 669.7 670.09 671.08 671.71 673.26 673.19 671.8 673.36 673.66 675.51 675.69 675.93 675.99 676.48 676.19 676.56 676.19 675.1 673.4 673.58 672.69 672.93 672.95 674.03 674.27 675.58 676.18 676.33 676.84 676.78 677.56 677.12 677.31 676.3 676.2 675.66 671.33 670.37 668.94 668.83 668.02 665.66 666.16 665.69 665.38 664.93 664.25 668.11 671.32 671.35 672.06 671.79 672.61 674.67 676.98 679.16 681.31 684.62 686.43 689.68 692.08 695.81 698.04 700.03 702.73 705.9 710.22 715.05 717.48 722.8 727.43 731.17 735.09 738.91 740.84 742.61 744.8 746.29 746.8 747.37 747.4 748.17 748.11 747.23 746.68 744.16 742.17 740.32 739.47 738.56 739.17 741.23 741.5 740.29 739.25 736.64 736.05 734.95 731.06 725.62 720.51 718.17 716.84 715.48 715.04 716.15 715.8 714.93 715.69 714.63 713.84 712.7 710.11 708.73 706.57 706.23 705.24 702.87 704.22 704.95 706.15 707.79 710.57 714.32 725.79 732.78 739.55 746.12 754.59 761.03 767.51 775.58 779.29 782.93 786.71 788.77 789.82 790.53 790.72 791.06 790.53 789.56 788.5 786.91 785.49 784.26 783.75 782.8 781.96 781.63 780.91 781.49 782.53 783.14 786.48 790.79 796.58 802.65 811.45 816.14 819.88 826.64 829.31 832.05 832.16 825.61 815.2 808.34 801.64 798.57 792.02 783.97 777.32 772.58 768.58 762.03 758.11 750.58 739.94 731.14 724.94 720.87 716.31 711.16 707.47 701.25 692.41 684.25 676.76 670.11 663.69 658.06 648.35 641.59 634.56 627.47 620.77 618.79 609.22 600.52 594.22 587.86 577.84 568.3 566.51 556.85 545.63 537.59 528.38 526.06 523.54 519.25 515.64 514.18 510.01 505.8 502.91 500.85 500.59
643.21 643.68 644.06 645.27 645.45 645.69 644.81 645.58 646.61 648.95 650.42 652.33 653.36 655.36 658.89 660.02 661 662.33 663.53 663.91 666.63 668.51 670.33 670.21 669.65 670.35 669.87 671.5 670.47 669.42 669.86 670.74 671.53 672.43 672.93 674.22 674.94 673.09 672.99 675.05 676.16 677.75 677.41 677.83 677.98 677.36 676.75 676.14 675.39 673.59 673.45 674.26 674.12 675.13 676.3 677.21 678.09 677.5 677.7 678.71 677.81 678.31 678.74 678.55 678.41 677.85 677.14 673.92 671.88 670.22 670.74 668.84 667.88 667.28 666.69 666.12 665.78 664.62 669.78 672.89 673.93 674.06 673.83 673.27 674.09 677.1 679.72 682.52 684.65 686.92 689.63 692.07 694.58 696.82 699.61 702.17 704.49 706.97 709.92 714.19 719.33 725.22 728.08 733.45 737.69 740.51 743.61 746.61 747.09 748.72 749.35 749.52 749.67 749.19 748.74 748.19 746.6 745.57 744.91 743.85 744.05 744.61 744.26 743.18 741.96 739.45 737.84 735.29 734.84 732.23 726.32 721.34 718.93 718.13 718.1 719.16 718.78 718.02 718.17 717.58 717.22 716.87 715.53 712.91 711.23 708.66 707.75 706.8 706.06 705.75 706.15 706.52 707.69 710.45 714.1 720.72 727.52 734.02 742.95 750.74 757.3 765.85 770.85 775.05 779.69 784.49 787.55 788.28 789.49 788.9 789.47 788.42 787.84 786.98 785.14 783.33 782.06 781.04 779.91 778.7 778.62 779 778.81 779.84 779.82 781.38 787.13 792.51 803.87 811.43 812.07 815.88 818.24 823.3 823.08 822.27 814.83 807.18 800.02 793.73 786.82 778.84 772.55 770.46 765.77 761.35 756.04 749.18 740.33 732.74 728.82 723.28 719.54 714.96 710.83 705.65 698.03 690.03 682 673.98 668.51 661.6 654.13 646.93 640.87 635.11 627.1 621.94 615.24 608.49 601.06 595.91 587.78 577.69 570.48 563.36 556.62 545.76 540.63 532.44 526.82 523.1 518.45 515.84 513.78 508.77 505.08 503.41 502.51 500.71
643.82 644.38 644.5 645.93 645.89 645.99 646.51 646.34 646.75 648.01 649.81 651.46 652.94 656.24 658.39 659.86 661.29 662.3 662.77 665.91 667.37 668.57 669.54 670.04 671.07 670.64 671.97 672.07 672.39 671.08 671.66 672.56 673.38 673.93 675.3 676.04 676.24 676.84 676.26 675.26 676.54 678.1 678.41 678.11 679.3 678.08 677.87 678.14 675.51 674.79 674.34 675.85 676.76 677.81 678.45 678.5 678.7 678.54 678.53 679.25 680.35 680.11 680.2 679.51 679.21 678.95 677.45 676.73 673.32 672.68 672.64 670.52 669.11 668.49 667.66 667.4 666.09 667.19 672.12 675.18 675.48 675.27 675.27 675.54 675.41 675.06 680.18 682.09 684.64 687.4 688.75 691.91 693.91 697.27 699.43 701.91 703.85 706.09 708.68 710.97 716.13 721.75 724.74 729.59 734.93 739.83 744.47 745.98 747.03 748.66 750.13 750.63 750.92 752.25 751.81 752 749.57 748.19 747.38 747.21 746.3 746.51 746.92 745.06 744.06 742.27 739.29 737.72 735.62 733.38 727.22 722.86 720.8 719.32 720.88 721.96 722.11 721.89 720.87 719.77 718.96 718.31 718 718.35 716.45 714.22 710.31 708.36 707.37 706.46 707.25 707 708.16 709.61 713.01 717.87 724.82 731.53 738.04 743.11 752.29 760.45 764.84 770.19 775.13 780.3 786.59 787.68 787.94 788.15 787.74 786.95 786.47 785.08 782.57 781.26 780.81 778.69 777.66 777.09 775.94 775.51 775.3 776.19 778.38 778.8 782.32 791.55 797.71 803.57 806.23 809.33 812.84 816.47 814.18 810.34 802.18 794.83 791.7 784.86 776.23 771.19 766.34 760.79 756.92 752.6 750.07 739.99 734.89 729.25 726.11 721.49 717.24 712.81 709.78 704.79 695.33 685.93 678.18 671.47 663.37 658.32 651.54 645.15 639.11 632.14 625.37 619.28 612.83 605.21 600.71 593.6 586.25 578.92 569.29 562.6 554.52 547.81 542.49 533.41 527.96 522.62 517.68 515.65 513.24 507.55 504.9 502.89 503.23 502.18
644.76 644.81 645.52 646.26 646.72 646.42 646.61 647.14 647.03 647.94 648.21 650.01 652.95 655.26 657.97 658.98 660.67 662.35 663.85 664.69 667.13 667.46 669.34 670.2 671.81 672.67 674.22 674.6 673.46 673.41 672.51 674.3 675.89 676.52 676.84 678.75 678.37 678.92 679.62 678.25 677.89 678.45 679.75 679.58 680.08 680.15 679.83 679.19 678.08 676.88 677.35 677.68 679.55 679.22 679.48 679.8 679.98 680.08 680.16 680.73 680.89 681.62 681.4 681.35 681.28 680.5 678.51 677.25 675.12 674.43 674.26 671.84 669.46 668.39 668.33 667.38 667.55 669.77 676 677.1 677.79 676.91 676.78 676.84 677.13 675.93 677.65 680.47 682.9 686 688.65 691.07 693.91 696.23 698.44 700.9 703.38 705.55 708.89 711.37 715.14 717.76 720.92 725.17 732.3 738.45 742.1 742.31 745.32 747.48 749.47 751.56 752.14 752.34 752.61 752.58 752.4 751.51 751.16 750.24 748.5 748.26 747.68 746.09 744.75 743.02 741.19 739.11 736.31 733.25 728.24 725.5 723.32 724.05 723.95 725.1 725.48 725.87 725.13 724.97 725.69 725.84 724.17 722.49 718.97 713.95 713.34 712.26 710.96 708.1 708.43 707.98 708.42 709.21 711.05 713.29 718.53 726.73 731.54 739.68 745.05 751.17 757.6 765.78 772.47 780.58 784.43 786.67 787.04 786.81 786.69 786 784.58 783.72 782.18 779.76 778.04 775.87 774.9 774.4 773.34 772.84 773.55 773.96 775.26 776.31 779.84 787.88 793.25 797.86 801.74 803.74 806.3 806.09 806.47 802.42 794.81 787.42 779.47 771.48 765.45 763.49 758.62 755.71 750.39 745.94 738.9 733.75 730.5 727.38 723.84 720.17 714.25 711.91 707.5 698.6 691.35 684.06 676.74 667.8 660.57 654.89 647.75 640.01 635.3 629.64 622.21 616.47 608.28 602.81 598.73 591.46 582.12 574.19 568.59 562.04 553.77 549.45 543.73 531.64 528.82 522.21 517.47 515.64 509.95 506.1 505.46 504.52 504.5 502.26
645.5 646.1 646.6 646.92 647.2 646.82 647.68 646.92 647.35 647.5 648.98 650.31 652.52 654.8 656.83 658.07 660.4 661.73 662.9 665.09 666.95 667.97 669.12 671.53 672.78 674.28 676.27 676.94 677.28 677.69 677.29 676.55 678.21 679.12 680.55 680.71 681.23 682.02 682.61 681.33 679.16 678.97 680.53 681.57 681.63 682.11 682.81 681.49 679.66 680.39 680.17 681.07 682.01 681.75 680.79 680.58 680.86 680.35 681.13 681.97 682.89 682.85 682.2 682.51 682.19 681.88 679.77 677.13 676.38 676.77 674.65 671.64 670.25 669.3 669.21 668.95 672.53 673.99 676.22 678.95 679.25 679.17 679.29 679.13 678.57 676.63 676.6 678.4 681.65 685.11 687.81 690.87 693.96 696.01 698.45 700.06 702.64 706.47 707.58 710.43 713.77 716.69 721.33 724.83 729.27 733.26 737.44 741.3 743.8 746.16 748.9 751.42 753.1 753.8 754.55 753.58 753.5 752.97 752.76 752.37 752.81 750.93 748.73 745.76 744.79 743.46 741.49 739.19 736.59 733.5 729.8 726.18 725.78 724.95 727.07 728.7 729.82 728.41 729.04 729.01 729.63 729.35 729.7 728.13 723.69 716.24 715.43 713.92 713.86 711.98 710.3 709.49 709.41 709.42 710.36 711.82 715.12 721.2 726.58 732.97 740.55 746.47 753.23 761.08 768.57 774.22 779.35 783.8 784.94 784.63 784.89 784.24 783.81 782.64 780.38 778.17 776.13 774.31 772.42 771.16 770.19 769.82 770.81 771.74 772.58 774.34 776.31 782.22 788.22 792.61 798.35 800.5 799.2 798.63 795.12 788.85 783.03 780.13 769.38 763.79 759.05 754.45 749.96 746.01 741.83 739.32 736.3 732.77 728.19 724.77 721.75 715.92 712.55 709.05 702.48 695.1 687.56 679.42 669.7 664.25 657.55 650.61 643.18 637.18 631.69 624.62 618.12 612.09 606.15 602.39 596.71 584.49 575.87 569.96 564.23 556.83 553.87 549.64 539.78 535.23 529.28 521.89 518.35 515.33 508.86 506.2 505.55 507.08 503.94 501.15
648.09 647.93 648.28 648.46 647.62 647.94 647.97 648.08 648.12 648.54 649 649.88 652.13 654.23 656.55 658.11 660.28 660.97 663.07 664.78 667.05 668.78 670.14 672.7 675 678.11 678.9 679.33 679.48 680.65 681.72 682.61 683.17 684.12 682.6 683.57 684.1 684.84 684.97 684.38 683.51 681.28 681.34 682.37 682.83 683.4 684.37 683.67 684.32 683.75 682.99 683.36 683.86 683.89 683.27 682.94 683.5 682.63 682.33 682.62 683.51 683.57 684.36 683.64 684.08 682.83 680.38 678.02 678.53 677.29 673.59 671.9 671.11 670.48 670.11 670.32 674.9 677.41 679.07 680.34 681 681.11 680.61 680.51 680.24 678.99 678.83 679.16 679.27 684.29 687.69 690.07 693.36 695.31 698.54 700.44 703.8 705.25 706.8 709.56 711.88 713.94 717.5 725.64 728.96 731.87 735.74 738.14 741.62 746.2 748.69 751.28 752.54 754.15 754.62 755.38 756.26 756.06 754.41 753.98 753.51 754.03 751.02 746.54 744.86 745.16 742.57 740.32 737.72 734.69 731.52 730.29 729.87 728.62 730.23 731.99 732.35 733.61 733.26 733.58 732.85 731.41 732.37 730.2 726.06 720.72 717.42 716.7 714.06 713.4 712.17 710.42 709.73 709.02 709.8 710.7 714.18 718.77 723.55 728.79 734.57 740.36 747.12 758.07 765.17 769.73 773.44 777.13 780.88 783.27 784.15 784.14 783.72 781.64 779.62 777.6 772.03 770.78 769.95 768.33 767.26 765.97 767.09 768.03 770.02 772 773.17 779.37 783.85 788.36 790.21 789.44 787.73 789.85 786.25 781.11 774.88 767.47 759.55 754.6 753.51 749.35 746.24 742.93 739.45 736.58 733.17 729.54 727.48 723.63 717.24 713.25 708.83 704.28 699.89 694.13 684.19 673.1 665.56 658.23 651.77 646.12 641.23 633.25 628.76 624.31 615.69 609.84 605.59 601.3 590.99 580.99 574.73 570.6 561.95 556.73 553.89 547.76 541.38 536.86 529.12 522.2 520.25 513.66 507.99 506.86 507.05 506.35 503.35 499.5
650.04 649.5 649.14 650.03 649.52 650.09 649.34 648.33 648.66 649.43 650.92 651.44 652.14 654.18 655.69 658.38 660.29 661.54 663.14 664.85 667 668.63 671.8 674.16 677.43 680.11 682.14 685.94 691.86 695.85 691.26 692.58 693.63 694.2 694.05 692.49 692 691.57 688.08 686.7 685.25 683.42 682.67 683.26 684.59 685.23 686.2 686.68 687.04 687.54 686.65 686.65 687.06 684.98 684.12 684.4 684.47 685.36 685.64 685.96 685.76 685.1 685.24 685.15 685.17 684.2 680.75 679.05 679.57 676.64 674.45 673.98 672.9 671.41 670.79 674.24 676.47 678.79 680.55 682.25 682.82 683.08 682.94 681.86 681.27 681.43 680.87 680.92 680.85 683.23 686.01 688.87 692.27 694.61 697.24 700.82 702.57 704.55 706.89 709.17 711.07 712.9 716.49 720.61 725.84 730.08 734.47 737.54 742.02 746.13 748.4 750.2 752.51 754.53 756.21 756.99 756.36 757.29 758.25 757.56 756.79 754.8 752.19 748.62 745.93 745.46 743.72 742.45 739.57 736.04 734.38 733.52 732.84 733.2 734.62 736.06 735.18 736.35 737 736.64 735.51 735.47 735.6 733.12 728.81 722.78 720.66 718.33 716.33 715.56 713.33 711.61 710.69 709.16 709.37 710.64 712.76 715.14 718.02 725.09 728.89 734.57 743.72 750.16 755.86 761.32 770.04 773.89 776.32 782.25 783.71 783.38 781.71 780.26 778.34 773.44 770.52 768.37 766.35 765.02 764.47 763.8 764.4 765.13 765.84 766.65 769.18 773.36 778.78 782.85 782.91 781.67 781.08 777.33 774.35 768.2 766.62 760.65 753.23 748.03 746.18 744.86 741.6 740.24 737.44 734.89 731.59 727.65 724.52 719.26 714.4 710.04 707.14 702.84 698.98 686.32 675.34 667.72 662.28 655.11 649.63 644.18 635.66 629.69 627.9 623.14 615.41 609.41 604.11 598.51 590.5 581.57 575.65 571.31 564.29 558.29 553.56 549.4 541.69 536.4 529.04 524.23 518.88 512.55 510.06 508.54 506.59 503.37 501.29 498.68
651.28 651.16 650.54 650.7 651.47 650.8 650.11 650.07 650.1 649.78 650.75 651.48 652.89 655.39 657.44 659.27 660.6 662.51 663.71 664.89 667.49 670.08 671.96 676.29 681.27 687.99 689.88 697.47 703.1 707.37 711.14 713.2 713 707.05 706.87 705.8 703.13 700.61 698.36 694.72 689.41 685.28 684.47 684.13 685.5 688.18 689.44 692.63 693.44 691.24 691.91 691.11 689.35 688.38 687.59 687.05 686.08 686.85 686.62 687.27 687.24 686.37 686.88 687.15 686.32 684.43 681.61 679.68 677.01 676.51 676.22 674.41 673.18 672.05 671.25 676.74 678.41 681.37 683.63 684.07 685.43 684.84 684.86 684.19 684.2 684.3 684.16 682.63 682.07 682.79 685 688.44 692.06 695.13 698.32 700.17 701.89 704.46 707.03 708.47 711.24 713.54 715.82 719.54 722.46 726.15 729.87 736.33 741.48 745.9 748.51 749.85 751.27 753.74 756.21 757.89 758.57 758.98 760.03 758.94 756.25 754.36 752.49 750.11 747.43 746.34 745.14 743.08 742.22 739.55 738.03 737.65 736.25 736.67 737.97 739.1 739.18 739.89 741.11 739.05 737.56 737.63 737.16 734.55 731.91 727.98 723.33 719.79 719.3 718.31 715.79 713.26 711.59 710.78 709.85 710.6 711.04 712.07 713.54 716.18 720.39 726.81 736.41 741.24 747.39 757.13 763.19 766.14 773.29 780.32 782.72 782.77 781 777.99 773.86 769.55 765.12 764.46 762.76 762.16 761.64 760.41 759.76 760.35 761.59 763.09 764.98 768.98 771.61 772.65 772.23 771.35 772.43 770.98 765.15 759.97 753.14 748.9 745.09 745.07 743.72 741.23 739.79 737.33 734.39 731.22 729.58 725.51 720.96 717.23 713.01 708.75 703.89 698.47 691.53 683.25 672.61 663.81 656.57 651.52 646.53 640.38 631.52 628.17 626.04 620.23 613.96 609.19 602.4 598.53 590.83 581.98 576.03 571.87 564.43 559.54 554.06 549.17 542.09 535.4 528.33 522.4 517.39 512.94 511.32 508.38 506.01 503.98 501.73 499.51
653.09 652.49 652.64 653.16 653.2 653.39 651.62 651.06 650.62 651.01 651.87 654.07 655.24 656.65 658.62 659.74 662.01 663.33 664.65 666.04 668.14 670.52 673.94 681.41 688.96 697.09 706.88 715.47 723.2 721.46 725.63 727.26 727.01 724.64 721.57 716.67 710.77 706.31 704.98 701.06 695.06 690.21 686.11 686.06 686.35 689.08 693.36 695.57 696.25 698.36 697.73 697.51 694.07 693.69 691.18 689.22 687.77 688.08 689.37 688.85 688.5 687.96 687.99 688.2 688.41 687.48 682.42 680.32 678.5 677.39 677.57 678.02 675.47 674.29 675.22 677.94 681.37 683.19 684.56 687.21 687.21 687.1 686.44 686.02 685.95 686.25 685.55 685.49 684.88 683.86 685.62 688.63 691.19 695.64 698.41 699.66 702.09 704.97 705.95 708.88 711.44 713.35 715.99 718.15 720.48 723.86 727.86 734.78 740.13 744.73 747.58 750.1 751.79 753.64 757.02 758.29 759.64 758.44 758.12 756.46 755.57 754.41 752.66 751.16 749.88 749.03 747.96 745.27 744.62 743.17 742.09 741.04 740.82 741.11 741.94 741.25 741.89 742.7 742.94 742.12 742.3 743.07 740.56 738.77 734.95 729.53 725.17 723.17 720.91 719.07 717.26 714.9 713.94 711.62 710.85 709.58 710.01 711.06 711.89 714.09 716.48 721.85 726.57 731.08 738.4 751.04 756.11 763.31 768.28 775.61 779.23 775.76 775.9 772.07 768.91 763.34 760.48 760.1 759.44 759.4 758.95 758.01 756.67 757.68 757.44 758.59 760.46 764.37 766.34 766.99 765.97 765.74 764.7 758.38 752.58 752.06 746.77 743.38 742.11 741.65 740.23 738.12 737.12 734.92 731.99 728.76 724.25 720.54 717.45 714.27 711.13 705.91 700.49 692.7 685.28 678.24 668.23 661.39 655.43 649.43 643.3 638.04 630.92 627.13 624.46 619.01 612.97 607.44 601.65 596.02 588.29 580.73 576.63 570.19 564.76 559.47 555 548.66 543.68 536.33 525.79 520.81 516.83 512.95 510.21 507.09 506.11 503.51 501.62 499.73
655.03 654.57 654.7 654.45 654.39 654.1 653.7 652.74 652.79 651.78 653.42 655.11 656.78 658.39 660.1 661.6 662.83 664.09 665.96 667.32 669.43 674.34 683.96 694.62 698.83 711.32 719.07 727.87 735.9 741.47 745.36 746.48 738.53 734.67 729.66 725.24 720.31 714.77 710.93 709.81 701.78 694.14 687.61 687.31 688.65 689.65 695.05 698.06 699.58 701.46 702.04 700.66 699.78 698.46 696.12 692.66 690.33 690.2 690.59 691.19 690.65 689.95 689.26 689.53 689.38 687.86 684.82 682.23 679.67 681.2 682.63 681.01 680.64 678.61 680.1 683.49 686.14 686.92 686.89 687.64 688.28 688.8 688.48 687.98 687.62 686.73 687.14 686.73 685.58 684.42 684.58 689.25 692 695.15 697.45 699.1 701.86 703.69 706.29 708.74 710.74 712.61 715.22 717.22 719.97 722.48 725.49 728.69 736.47 741.2 744.33 748.42 751.19 753.3 755.33 756.44 758.46 757.16 757.72 756.3 755.36 754.86 754.13 751.75 751.26 750.29 750.46 749.58 748.72 747.55 746.79 745.09 743.88 744.21 745.68 746.64 746.08 746.5 746.01 746.33 746.56 747.83 746.42 742.9 738.46 729.88 726.47 724.51 722.7 720.05 718.44 716.85 715.4 712.23 710.62 710.18 709.48 710.06 711.27 711.94 714.01 717.95 722.74 727.34 732.52 741.07 749.47 756.91 764.94 772.29 772.9 769.75 766.89 763.25 759.99 758.9 758.29 757.35 756.92 756.06 755.45 754.23 752.87 754.37 754.31 754.53 755.28 756.86 758.26 758.52 760.02 759.27 756.2 751.4 745.89 742.16 740.1 739.16 739.34 738.62 737.24 735.57 733.67 731.27 728.93 725.43 722.24 719.28 715.19 711.34 706.91 702.5 695.18 689.7 682.16 675.67 666.1 658 652.56 645.78 642.27 637.23 631.5 626.91 622.75 617.79 612.62 606.71 600.19 594.6 588.4 582.79 576.19 570.3 565.29 560.22 555.36 549.49 545.2 531.72 526.72 520.5 515.26 512.9 510.97 506.71 503.78 502.86 501.41 498.64
657 656.74 656.13 656.11 655.47 655.69 655.94 654.9 654.98 654.37 655.9 657.28 657.86 659.57 660.72 663.04 664.03 666.03 667.68 671.13 673.69 681.11 691.93 703.15 716.52 727.86 736.57 738.9 748.03 754.25 758.6 758.82 754.46 749.1 742.3 732.8 727.42 720.55 718.48 714.55 711.61 704.13 694.48 688.95 689.51 689.89 696.45 701.99 704.82 706.52 705.1 705.24 703.55 702.01 700.09 696.69 695.26 694.51 692.74 691.48 692.03 691.51 691.21 691.37 691.02 687.85 683.33 681.5 683.11 688.26 690.49 690.82 689.29 686.42 687.73 688.64 688.11 690.06 690.59 690.07 690.19 688.51 688.76 689.14 689.22 688.37 687.55 688.16 686.65 685.86 685.71 687.18 691.11 693.85 696.4 698.89 701.33 704.57 706.03 707.62 710.02 711.94 713.96 716.86 719.82 721.73 724.49 727.1 730.13 734.04 741.84 748.43 751.31 753.32 754.68 755.74 756.85 756.45 755.79 756.34 755.82 755.25 755.02 755.35 754.28 754.22 752.66 751.43 750.92 750.63 750.13 749.3 750.99 753.27 751.16 751.21 750.75 750.21 750.76 752.58 753.23 753.21 750.62 747.85 739.03 733.77 728.4 726.39 724.97 721.53 719.08 717.19 716.54 713.57 711.42 710.07 710.05 9999 710.31 711.83 713.25 715.99 718.36 723.75 730.41 736.6 744.49 751.45 757.17 760.47 757.89 762.63 761.35 758.24 756.71 755.59 754.78 754.38 753.02 753.7 753.36 751.3 749.89 749.13 747.29 746.5 749.81 750.68 751.46 751.83 751.37 748.9 745.75 744.17 738.99 737.1 736.61 736.12 735.12 734.86 733.66 733.23 731.46 729.54 726.29 723 720.54 717.11 713.96 709.8 704.89 698.56 692.72 686.03 680.9 672.74 664.74 655.72 650.04 645.38 641.03 636.37 631.61 626.79 621.89 617.77 612.29 605.83 599.22 593.57 588.44 582.36 577.35 569.95 565.8 558.57 555.05 551.83 540.88 532.51 527.53 519.14 515.14 513.96 509.67 506.87 504.75 503.45 500.27 497.88
657.71 657.76 657.72 657.45 657.49 657.62 657.56 657.55 656.98 656.31 656.85 658.43 659.79 661.03 663.12 663.38 665.54 667.01 669.99 675.31 682.94 692.37 708.21 715.48 726 738.66 748.29 757.47 764.93 771.68 772.55 766.74 763.59 757.34 749.85 743.29 733.8 727.26 719.88 715.1 712.13 706.58 692.42 691.04 691.7 693.14 698.18 704.49 708.05 710.15 709.94 708.74 708.2 706.97 703.99 700.16 698.6 696.49 694.82 694.33 693.25 692.72 692.61 691.98 691.66 686.49 684.29 687.27 690.82 692.3 694.08 694.13 692.42 691.39 690.79 690.79 691.27 691.41 691.55 691.28 690.96 691.37 690.51 690.66 689.49 689.16 689.38 689.1 689.1 688.73 687.7 687.61 689.72 693.56 695.95 698.31 701.6 703.8 705.93 707.71 709.42 712.49 713.55 716.64 718.53 721.46 723.12 725.91 728.75 732.52 736.49 741.65 747.21 750.22 753.77 755.23 755.47 755.18 755.56 756.72 755.92 755.84 755.25 756.39 755.95 755.45 755.28 754.35 754.02 752.69 753.11 752.43 753.96 756.24 757.5 757.14 757.27 755.01 759.08 759.22 758.8 759.68 758.95 750.86 741.02 735.77 730.37 727.72 725.37 722.9 720.89 720.36 716.72 714.32 712.5 710.67 710.13 9999 710.31 710.94 713.2 715.11 717.66 722.61 726.58 731.32 735.83 743.73 748.17 753.57 753.89 754.79 754.04 754.48 754.31 753.29 752.04 751.59 750.81 750.26 749.14 747.46 746.56 745.62 743.5 741.13 740.35 741.4 741.15 744.58 744.78 741.91 738.96 735.41 734.45 732.82 732.42 733.51 733.28 732.36 731.03 730.4 728.42 726.21 724.98 722.43 719.41 715.49 711.79 707.52 700.17 696.55 690.25 685.09 679.51 672.17 661.35 654.41 648.81 644.74 640.51 636.98 630.48 624.53 622.05 617.6 612.47 606.37 598.63 594.97 587.63 582.35 577.62 569.8 564.84 558.82 554.68 550.35 540.32 533.76 526.94 519.03 516.36 512.47 509.9 506.19 505.21 501.91 498.92 496.84
659.63 660.24 659.71 659.08 658.84 659.51 659.12 658.94 659.6 658.78 659.33 660.36 661.06 663.04 664.16 666.14 666.92 669.87 674.8 679.67 689 703.05 714.57 728.27 741.14 753.88 760.42 768.95 778.58 781.57 782.87 779.35 775.11 769.19 757.67 747.07 739.12 730.98 723.55 715.98 710.92 700.81 692.25 691.88 692.97 696.34 702.36 708.2 711.34 712.17 711.32 711.07 710.37 709.15 708.79 705.15 701.73 698.69 696.98 696.53 696.97 697.67 695.1 694.58 692.17 687.12 686.82 691.09 695.08 698.44 699.77 697.33 695.36 694.06 693.24 693.45 693.66 693.56 693.18 693.57 693.12 691.77 691.22 690.67 690.48 690.53 690.74 690.53 690.53 689.76 689.64 688.63 689.67 692.78 695.15 699.3 701.14 702.73 705.32 707.06 708.97 711.77 713.66 715.43 718.37 720.33 722.91 725.12 728.28 730.12 734.03 738.65 742.58 745.68 748.5 750.53 751.62 753.45 754.73 755.63 755.98 756.9 757.64 758.31 758.9 757.78 757.14 757.76 757.98 758.8 759.86 761.47 763.72 761.01 761.79 761.14 761.39 760.73 764.49 767.11 765.63 765.4 762.32 754.7 745.95 738.71 732.99 729.03 725.69 723.26 721.99 720.66 717.97 715.85 712.96 711.25 709.93 9999 710.62 711.24 712.22 715.11 717.46 720.96 724.8 729.02 733.74 737.12 742.69 747.77 751.35 752.72 753.47 754.01 751.25 751.48 750.05 750.09 748.79 747.52 746.49 744.51 742.33 740.83 739.2 739.28 737.24 736.31 736.66 736.04 733.63 732.33 733.07 731.53 731.04 730.05 730.25 729.23 729.11 728.66 729.03 728.35 725.76 723.98 721.87 719.34 716.55 714.22 709.65 703.61 698.13 693.24 687.54 681.13 677.36 668.07 660.66 653.93 648.33 643.6 640.93 636.18 630.21 624.99 621.12 618.01 612.41 604.82 597.44 594.39 587.49 581.55 577.15 572.22 566.14 560.44 556.17 550.57 540.22 535.39 527.03 519.93 515.17 511.86 509.08 506.65 505.25 501.11 497.24 493.61
