380.29 379.69 379.07 377.86 376.32 374.79 374.63 375.64 376.65 377.55 378.32 379.1 379.58 379.46 379.35 379.36 379.74 380.12 380.48 380.71 380.94 381.2 382.34 383.5 384.68 386.67 388.7 390.72 390.93 390.7 390.45 390.21 390 389.79
378.24 377.87 377.49 376.29 374.69 373.09 373.01 374.07 375.14 375.83 376.14 376.47 376.72 376.78 376.82 376.99 377.57 378.13 378.62 378.77 378.91 379.1 379.97 380.85 381.74 383.6 385.54 387.52 388.09 388.36 388.6 388.5 388.27 388.03
376.2 376.07 375.93 374.72 373.05 371.39 371.39 372.51 373.62 374.08 373.88 373.72 373.73 373.98 374.22 374.61 375.41 376.2 376.85 376.96 377.08 377.24 377.92 378.6 379.3 380.62 381.99 383.4 384.32 385.14 385.92 386.19 386.29 386.37
374.37 374.38 374.41 373.15 371.42 369.69 369.78 370.95 372.11 372.29 371.6 370.94 370.75 371.2 371.63 372.24 373.27 374.28 375.08 375.16 375.25 375.37 375.85 376.34 376.85 377.61 378.4 379.23 380.58 381.94 383.28 383.9 384.32 384.73
373.6 373.39 373.2 371.8 370.01 368.23 367.99 368.6 369.24 369.35 368.97 368.57 368.53 368.94 369.37 369.96 370.89 371.83 372.61 372.83 373.03 373.26 373.67 374.09 374.5 374.85 375.22 375.6 377.2 378.9 380.6 381.49 382.21 382.93
372.82 372.39 371.97 370.43 368.59 366.76 366.17 366.18 366.23 366.28 366.31 366.31 366.48 366.84 367.21 367.7 368.39 369.1 369.73 370.14 370.53 370.93 371.39 371.84 372.28 372.5 372.72 372.96 374.52 376.14 377.76 378.68 379.49 380.29
371.97 371.36 370.73 369.07 367.18 365.29 364.31 363.72 363.17 363.24 363.67 364.08 364.43 364.74 365.05 365.42 365.88 366.35 366.87 367.46 368.04 368.6 369.1 369.6 370.06 370.13 370.22 370.31 371.83 373.37 374.91 375.88 376.76 377.65
370.34 369.96 369.57 368.47 367.2 365.9 364.7 363.58 362.48 362.12 362.18 362.27 362.58 363.04 363.48 363.91 364.32 364.73 365.13 365.54 365.98 366.44 366.89 367.35 367.76 367.76 367.76 367.79 369.25 370.71 372.17 373.14 374.07 375.01
368.73 368.58 368.42 367.93 367.36 366.75 365.38 363.82 362.28 361.46 361.01 360.59 360.83 361.54 362.24 362.88 363.46 364.03 364.37 364.36 364.37 364.46 364.75 365.05 365.32 365.38 365.44 365.56 367.04 368.51 369.98 370.77 371.53 372.3
367.13 367.21 367.28 367.43 367.56 367.65 366.03 364.03 362.05 360.77 359.8 358.87 359.09 360.06 361.03 361.87 362.61 363.33 363.59 363.15 362.73 362.48 362.61 362.75 362.89 363.01 363.12 363.34 364.83 366.31 367.8 368.4 368.99 369.59
365.61 365.86 366.09 366.3 366.5 366.71 365.27 363.49 361.68 360.27 359.01 357.77 357.94 358.95 359.97 360.8 361.48 362.17 362.31 361.68 361.04 360.61 360.63 360.66 360.7 360.83 360.97 361.24 362.64 364.07 365.53 365.97 366.42 366.86
364.09 364.51 364.91 365.06 365.2 365.34 364.15 362.73 361.28 359.85 358.43 357.02 357.15 358.09 359.03 359.66 360.04 360.44 360.42 359.85 359.29 358.94 359.03 359.12 359.21 359.33 359.45 359.67 360.55 361.46 362.38 362.69 363.01 363.34
362.59 363.17 363.74 363.82 363.9 363.98 363.06 361.99 360.91 359.42 357.84 356.27 356.36 357.22 358.09 358.5 358.59 358.7 358.53 358.03 357.54 357.29 357.44 357.58 357.72 357.82 357.93 358.07 358.43 358.82 359.22 359.4 359.6 359.8
360.94 361.89 362.8 362.8 362.81 362.82 362.06 361.23 360.38 358.82 357.1 355.39 355.57 356.49 357.4 357.7 357.61 357.52 357.16 356.58 356.01 355.75 355.91 356.08 356.23 356.32 356.42 356.46 356.31 356.16 356.05 356.11 356.17 356.25
359.28 360.64 361.91 361.85 361.79 361.74 361.11 360.45 359.77 358.09 356.24 354.4 354.78 355.92 357.04 357.41 357.38 357.34 356.82 355.92 355.04 354.57 354.63 354.69 354.77 354.88 354.99 355.05 354.92 354.8 354.69 354.67 354.65 354.61
357.65 359.42 361.01 360.89 360.77 360.66 360.18 359.68 359.17 357.36 355.38 353.41 354.01 355.35 356.68 357.13 357.15 357.16 356.46 355.24 354.04 353.38 353.34 353.3 353.32 353.45 353.57 353.64 353.54 353.44 353.35 353.32 353.28 353.2
356.46 358.28 359.89 359.75 359.61 359.46 358.99 358.52 358.06 356.13 354.06 352 352.68 354.05 355.44 355.97 356.13 356.28 355.56 354.25 352.91 352.16 352.03 351.9 351.88 352.02 352.15 352.23 352.16 352.09 352.02 351.97 351.92 351.79
355.38 357.16 358.67 358.52 358.36 358.2 357.62 357.06 356.5 354.42 352.24 350.07 350.54 351.56 352.59 353.04 353.26 353.48 353.03 352.16 351.26 350.76 350.63 350.51 350.54 350.78 351.01 351.18 351.22 351.25 351.22 350.99 350.77 350.47
354.31 356.04 357.45 357.28 357.12 356.93 356.25 355.59 354.93 352.7 350.42 348.14 348.38 349.04 349.72 350.11 350.4 350.69 350.52 350.1 349.64 349.36 349.24 349.12 349.2 349.55 349.88 350.15 350.31 350.46 350.47 350.06 349.65 349.17
352.56 354.3 355.66 355.51 355.36 355.18 354.68 354.15 353.6 351.25 348.89 346.54 346.55 346.86 347.18 347.49 347.79 348.09 348.17 348.13 348.08 347.98 347.86 347.72 347.88 348.32 348.76 349.13 349.41 349.68 349.71 349.11 348.53 347.87
350.5 352.22 353.51 353.35 353.2 353.05 352.91 352.76 352.53 350.2 347.86 345.53 345.41 345.5 345.6 345.84 346.11 346.38 346.57 346.71 346.85 346.93 346.97 347 347.23 347.65 348.07 348.44 348.74 349.04 348.99 348.16 347.35 346.51
348.44 350.15 351.37 351.2 351.03 350.93 351.17 351.4 351.46 349.15 346.83 344.52 344.26 344.13 344.01 344.19 344.43 344.67 344.98 345.31 345.63 345.88 346.09 346.29 346.6 347.02 347.43 347.8 348.11 348.43 348.27 347.2 346.14 345.13
346.17 347.76 348.85 348.73 348.59 348.57 349.02 349.47 349.71 347.63 345.51 343.36 343.05 342.76 342.47 342.6 342.8 343 343.42 343.92 344.43 344.85 345.23 345.59 345.98 346.38 346.79 347.16 347.49 347.81 347.54 346.22 344.92 343.75
343.74 345.1 346.01 345.93 345.85 345.86 346.22 346.58 346.73 345.11 343.48 341.83 341.64 341.46 341.26 341.43 341.64 341.84 342.16 342.51 342.87 343.34 343.86 344.36 344.76 345.1 345.45 345.63 345.65 345.7 345.3 344.18 343.03 342.02
341.3 342.43 343.16 343.14 343.11 343.15 343.42 343.69 343.76 342.63 341.47 340.33 340.25 340.16 340.07 340.26 340.47 340.68 340.88 341.09 341.3 341.83 342.46 343.08 343.46 343.7 343.94 343.82 343.4 342.99 342.43 341.61 340.77 340.07
339.38 340.46 341.12 341.12 341.12 341.12 341.17 341.24 341.18 340.39 339.6 338.87 338.86 338.86 338.86 339.08 339.3 339.53 339.6 339.66 339.72 340.32 341.06 341.8 342.14 342.28 342.43 342 341.11 340.26 339.58 339.06 338.53 338.15
338.03 339.33 340.15 340.28 340.41 340.41 340.16 339.94 339.63 338.91 338.2 337.54 337.5 337.46 337.42 337.67 337.92 338.17 338.27 338.34 338.41 338.86 339.42 340 340.23 340.31 340.39 339.94 339.1 338.24 337.62 337.24 336.87 336.65
336.69 338.22 339.19 339.45 339.7 339.68 339.14 338.62 338.08 337.44 336.8 336.22 336.14 336.06 336 336.27 336.55 336.82 336.94 337.04 337.14 337.4 337.72 338.05 338.14 338.14 338.15 337.81 337.25 336.67 336.25 335.98 335.7 335.55
335.15 336.76 337.83 338.28 338.71 338.74 338.06 337.36 336.67 336.05 335.44 334.91 334.79 334.67 334.57 334.87 335.17 335.47 335.61 335.74 335.86 335.93 336 336.08 336.04 335.97 335.89 335.7 335.42 335.12 334.89 334.71 334.53 334.45
333.26 334.64 335.67 336.32 336.96 337.2 336.83 336.44 335.94 335.19 334.45 333.83 333.68 333.54 333.44 333.89 334.33 334.77 334.87 334.96 335.06 334.93 334.79 334.65 334.51 334.37 334.23 334.07 333.91 333.75 333.62 333.51 333.39 333.35
331.36 332.52 333.53 334.38 335.22 335.68 335.62 335.55 335.21 334.33 333.46 332.74 332.57 332.4 332.33 332.95 333.55 334.15 334.22 334.3 334.37 334.07 333.74 333.42 333.23 333.07 332.91 332.78 332.65 332.53 332.43 332.35 332.27 332.26
329.55 330.47 331.43 332.42 333.42 334.09 334.35 334.59 334.41 333.44 332.45 331.66 331.46 331.27 331.22 332.01 332.78 333.52 333.57 333.63 333.68 333.2 332.69 332.19 331.96 331.78 331.6 331.49 331.4 331.31 331.24 331.2 331.16 331.18
327.99 328.64 329.45 330.38 331.31 332.01 332.44 332.87 332.84 332.09 331.32 330.7 330.51 330.32 330.3 331.04 331.79 332.51 332.69 332.85 333.01 332.38 331.73 331.09 330.81 330.58 330.36 330.26 330.2 330.13 330.09 330.07 330.05 330.09
326.41 326.79 327.47 328.33 329.2 329.94 330.55 331.15 331.28 330.74 330.19 329.75 329.57 329.39 329.39 330.07 330.75 331.4 331.73 332.05 332.36 331.59 330.83 330.07 329.74 329.46 329.19 329.1 329.05 329.01 328.99 328.98 328.97 329.02
