9999 9999 9999 9999 9999 9999 9999 9999 9999 9999 9999 9999 9999 9999 9999 9999 9999 9999 9999 9999 9999 9999 9999 9999 9999 9999 9999 9999 9999 9999 9999 9999 9999 9999 9999 9999 9999 9999 9999 9999 9999 9999 9999 9999 9999 9999 9999 9999 9999 9999 9999 441.75 442.42 442.92 441.12 440.34 438.49 436.48 433.72 433.41 432.97 432.44 431.72 430.45 430.41 430.4 431.18 430.76 430.62 431.11 430.67 430.95 431.06 430.6 430.58 430.32 430.81 430.4 429.27 427.89 428.01 428.69 429.17 428.75 431.81 432.77 433.91 435.36 435.72 436.48 437.17 437.98 438.71 439.16 439.21 439.8 440.75 441.37 442.07 442.67 443.56 443.8 445.49 446.67 448.11 450.27 452.06 454.38 456.23 457.21 458.21 457.69 458.44 459.16 458.72 458.8 458.07 458.31 457.54 456.78 456.32 454.9 454.4 453.48 452.13 452.34 451.84 451.48 450.02 449.16 447.87 446.95 447.95 446.87 446.73 445.54 445.27 442.84 441.31 440.34 439.52 437.88 436.03 435.43 435.89 435.13 434.63 434.61 434.25 434.48 434.66 435.01 435.79 436.41 438.64 439.07 441.07 440.76 440.9 439.37 9999 9999 9999 9999 9999 9999 9999 9999 9999 9999 9999 9999 9999 9999 9999 440.87 443.57 446.56 447.98 448.95 449.63 450.19 450.95 450.41 451.1 450.8 450.19 450.15 451.09 451.33 451 451.75 451.67 451.55 452.08 452.46 452.54 453.11 452.5 452.86 452.7 451.47 451.38 450.34 449.94 448.94 448.36 448.76 447.57 447.53 448.18 446.25 445.66 445.45 446.66 446.76 446.5 446.62 447.49 447.9 447.55 447.48 448.21 449.06 449.51 449.74 450.54 451.22 451.83 452.28 452.93 453.21 453.16 453.51 455.27 455.48 457.08 456.97 457.07 458.19 458.17 459.18 459.43 460 460.74 461.45 461.7 462.41 463.22 464.22 466.27 467.97 470.6 473.73 474.49 477.63 478.39 478.9 480.17 482.31 484.16 485.42 486.97 487.94 490.55 492.91 494.99 496.99 499.39 502.14 504.53 506.74 507.84 510.2 511.11 511.82 512.98 513.78 515.75 515.85 517.31 518.48 517.49 518.8 518.52 517.8 518.24 518.3 519.12 519.31 519.73 522.12 523.76 524.89 527.97 530.83 528.02 530.33 531.96 533.75 534.56 536.92 537.7 539.54 539.21 542.6 547.46 554.21 559.82 564.11 569 568.31 570.44 573.12 576.15 576.42 575.93 575.41 573.41 573.59 575.62 575.54 576.33 575.79 574.81 573.76 571.18 568.21 568.67 567.33 566.15 564.69 563.76 560.15 554.39 549.81 544.28 539.57 534.02 528.14 515.4 510.77 506.88 502.08 496.54 491.83 487.4 482.76 476.81 473.66 469.83 466.33 463.7 461.12 457.95 455.15 451.45 449.38 447.32 444.14 443.46 441.72 438.39 437.38 434.1 432.44 431.84 429.65 428.12 427.94 428.18 427.74 427.84 427.87 427.69 428.1 427.69 427.98 428.3 428.39 429.03 428.88 429.35 429.44 429.53 429.99 429.93 430.08 429.85 429.93 429.78 429.98 430.22 429.46 429.85 430.07 429.8 429.34 429.79 428.56 428.03 427.67 427.79 427.85 427.94 428 427.68 428.63 429.06 429.04 428.63 428.73 428.98 428.59 429.43 430.09 430.45 430.56 430.82 431.31 432.05 431.62 431.66 431.36 430.04 430.37 9999 9999 9999 9999
9999 9999 9999 9999 9999 9999 9999 9999 9999 9999 9999 9999 9999 9999 9999 9999 9999 9999 9999 9999 9999 9999 9999 9999 9999 9999 9999 9999 9999 9999 9999 9999 9999 9999 9999 9999 9999 9999 9999 9999 9999 9999 9999 9999 9999 9999 9999 9999 9999 9999 9999 440.05 441.03 440.67 439.85 439.5 437.69 435.92 434.23 432.68 433.17 432.07 429.94 429.87 429.97 429.8 430.8 430.28 429.88 430.11 430.47 429.75 430.04 430.39 430.63 430.5 430.13 429.47 427.56 428.19 428.55 428.45 428.66 430.75 433.18 435.13 434.85 435.39 436.27 436.42 436.8 437.64 438.24 438.91 439.88 440.18 440.66 441.56 442.18 442.98 444.49 445.18 445.85 447.52 449.79 451.62 453.34 456.97 458.42 459.13 459.59 460.45 459.86 459.87 461.42 460.92 460.5 460.31 458.89 457.63 457.3 456.06 455.34 454.34 452.74 452.79 451.34 450.78 450.78 450.04 448.35 447.8 448.64 448.42 447.18 447.05 445.38 443.89 442.21 440.55 438.74 438.57 436.46 435.21 434.35 434.01 433.81 434.3 434.19 434.1 434.38 434.76 435.37 436.14 436.73 439.63 441.03 442.31 442.43 440.59 9999 9999 9999 9999 9999 9999 9999 9999 9999 9999 9999 9999 9999 9999 9999 9999 441.09 445.63 447.51 448.62 449.15 449.4 448.64 449.57 449.47 449.66 449.27 449.29 450.08 450.55 450.62 451.15 451.39 451.22 451.96 452.14 451.76 452.43 451.49 451.63 450.82 450.85 450.55 449.7 448.9 447.88 448.42 447.85 448.2 448.12 447.8 446.99 445.88 445.01 445.51 445.65 446.58 447.4 446.99 446.94 447.3 447.35 448.11 449.04 450.16 450.58 449.76 450.72 451.81 452.12 452.41 452.46 453.59 453.6 455.28 456.2 456.49 457.28 9999 9999 9999 458.7 459.98 459.65 459.69 459.94 462.3 462.93 463.81 465.22 467.16 468.92 472.3 474.76 475.86 477.77 479.05 481.05 480.96 483.09 483.85 486.34 487.48 488.84 490.45 492.34 493.66 495.66 498.42 500.57 503.68 504.3 505.39 506.99 508.35 509.74 511.33 511.65 513.33 512.58 513.1 514.61 514.78 515.94 516.01 515.95 514.91 515.57 516.15 516.93 517.63 518.71 520.25 520.44 519.65 523.44 524.72 527.28 528.59 530.91 531.31 530.09 531.04 532.85 535.65 537.54 542.22 547.74 548.35 553.97 557.71 560.47 563.76 567.59 568.18 566.19 568.63 570.07 568.66 571.04 571.06 572.32 572.35 569.81 569.77 568.42 567.24 564.22 563.66 561.89 559.54 557.37 556.15 551.38 546.86 543.07 537.84 527.8 522.25 517.52 512.65 505.9 502.97 496.5 491.36 485.01 480.59 477.5 474.77 470.19 466.4 464.31 460.41 457.91 454.77 452.95 450.47 447.58 445.39 442.42 440.66 438.7 437.94 435.27 433.19 430.96 429.77 428.62 427.96 427.63 427.54 428.1 427.73 427.58 427.94 428.06 427.78 428.23 428.24 428.77 428.75 428.84 429.81 429.46 429.81 429.93 429.84 430.34 430.33 430.15 429.62 430.13 429.87 429.75 430.5 430.08 429.81 430.26 429.31 428.85 427.65 428.04 427.91 427.73 427.98 428.38 427.91 428.05 428.96 428.62 428.98 428.76 428.85 428.67 430.32 430.9 431.29 431.67 432.72 432.72 432.24 432.17 431.55 430.9 429.92 430.53 9999 9999 9999 9999
9999 9999 9999 9999 9999 9999 9999 9999 9999 9999 9999 9999 9999 9999 9999 9999 9999 9999 9999 9999 9999 9999 9999 9999 9999 9999 9999 9999 9999 9999 9999 9999 9999 9999 9999 9999 9999 9999 9999 9999 9999 9999 9999 9999 9999 9999 9999 9999 9999 9999 9999 439.84 438.83 438.66 438.54 438.04 436.79 435.04 434.62 433.6 432.07 430.71 429.49 429.28 429.2 429.25 430.04 429.85 429.72 430.01 429.56 430.03 429.47 428.88 427.88 427.78 427.67 426.78 427.21 427.48 428.06 429.25 429.81 432.38 433.51 435.22 436.38 436.61 436.8 437.14 436.45 437.16 437.99 438.83 439.71 440.18 441.05 441.72 442.46 443.79 444.15 445.06 447.14 449.53 451.65 454.29 455.79 457.78 459.56 460.66 461.17 462.64 462.53 462.83 462.85 462.31 461.82 460.3 460.91 459.58 457.99 457.13 456.56 455.25 454.07 453.7 453.11 452.73 450.86 450.36 449.49 449.06 449.35 448.41 449 447.79 446.47 445.03 442.76 441.57 440.55 438.21 436.84 435.05 434.14 433.79 433.93 433.81 433.81 433.68 433.43 434.26 435.35 436.52 437.59 439.18 440.45 441.15 442.14 441.29 436.58 9999 9999 9999 9999 9999 9999 9999 9999 9999 9999 9999 9999 9999 9999 9999 437.63 445.07 446.94 446.81 447.66 448.07 448.09 449.2 448.76 448.82 448.7 449.87 449.65 450.46 451.03 451.08 450.91 451 450.76 451.3 451.02 451.78 450.97 451.37 450.21 449.51 448.8 448.49 448.31 447.66 448.19 447.88 447.61 447.42 447.32 447.69 446.3 444.93 445.55 446.37 446.66 446.21 446.8 447.26 447.09 448.36 448.49 448.33 449.39 450.55 450.58 451.48 451.51 452.25 453.42 453.6 454.48 454.91 455.36 455.99 456.58 455.94 9999 9999 9999 9999 459.51 459.87 9999 9999 459.16 462.35 463.56 464.37 466.45 467.05 470.49 473.79 476.69 477.95 479.74 480.31 482.46 482.99 482.19 480.22 483.75 487.95 489.89 492.09 493.25 494.83 496.91 499.44 500.54 501.97 503.39 505.45 505.87 507.06 505.83 507.12 509.03 509.91 510.92 511.67 513.11 511.61 512.1 512.96 513.04 513.09 514.86 514.85 514.75 514.47 515.5 516.08 518.76 520.22 521.42 524.39 523.93 526.37 525.91 525.08 525.53 527.43 530.46 531.95 533.54 537.36 540.94 546.3 550.72 554.34 553.4 556.08 557.56 559.82 561.82 564.5 564.25 566.04 564.53 564.96 565.3 565.44 565.07 563.62 560.36 556.8 557.35 555.46 554.93 550.59 548.11 544.76 534.84 529.73 524.81 519.88 515.85 511.07 507.19 500.9 494.55 489.3 484.4 480.99 478.09 474.36 471.02 466.76 464.44 460.6 457.82 455.66 452.59 451.19 446.73 443.86 443.19 441 438.63 438.16 436.15 432.94 430.7 431.2 428.66 427.91 427.82 427.93 427.63 428.15 427.37 9999 427.53 428.03 427.85 427.77 428.51 428.17 428.52 428.95 428.96 429.18 429.86 430.17 430 429.79 429.48 430.47 430.37 430.21 430.13 430.55 430.08 430.48 431.87 431.01 430.01 428.89 428.02 427.5 428.02 428.34 427.96 427.98 427.66 427.5 428.73 428.39 428.98 429.21 429.6 430.53 430.72 431.75 432.94 433.05 433.09 432.57 432.27 431.65 431.28 430.59 429.4 430.24 9999 9999 9999 9999
9999 9999 9999 9999 9999 9999 9999 9999 9999 9999 9999 9999 9999 9999 9999 9999 9999 9999 9999 9999 9999 9999 9999 9999 9999 9999 9999 9999 9999 9999 9999 9999 9999 9999 9999 9999 9999 9999 9999 9999 9999 9999 9999 9999 9999 9999 9999 9999 9999 9999 9999 439.39 439.25 438.64 436.29 435.67 434.66 434.34 433.49 432.86 432.46 430.75 429.41 428.81 428.91 428.9 429.98 430.01 429.8 429.01 429.06 428.53 427.57 427.61 426.53 426.44 426.61 426.73 427.14 427.5 428.64 430.13 431.69 433.68 433.78 435.69 436.39 436.2 436.88 437.03 437.03 437.71 437.89 439.03 440.19 440.83 441.05 442.57 442.9 443.59 444.74 446.34 448.74 450.3 453.3 455.42 458.01 459.45 462.05 462.95 463.56 464.28 463.88 464.58 463.88 463.96 463.24 462.74 461.11 460.97 459.61 457.71 456.96 456.2 455.26 454.57 453.43 452.51 452.05 451.34 450.65 450.97 450.05 449.34 449.29 448.71 446.98 446.22 444.57 441.35 440.16 438.53 436.69 435.11 433.57 433.92 433.22 432.98 433.54 433.6 433.33 433.62 434.08 435.98 438.02 439.39 440.93 441.33 441.87 440.62 9999 9999 9999 9999 9999 9999 9999 9999 9999 9999 9999 9999 9999 9999 9999 9999 436.47 443.34 446.18 446.93 447 448.41 447.94 448.02 448.17 448.35 448.55 449.15 449.39 450.06 450.51 450.6 450.35 450.67 450.91 450.62 450.76 450.83 450.46 449.69 449.92 448.5 447.87 447.4 447.5 447.34 446.89 446.9 446.98 447.49 446.77 446.4 445.76 445.78 445.4 446.05 445.93 446.53 446.89 447.53 447.43 447.38 448.35 449.92 450.02 450.87 451.22 452.29 452.59 453.86 453.49 454.15 454.53 454.9 455.71 456.27 456.26 455.9 9999 9999 9999 9999 459.33 9999 9999 9999 456.33 459.74 461.42 463.12 9999 461.54 465.69 471.8 475.57 476.73 478.65 480.14 480.49 478.21 476.89 476.75 479.87 485.84 489.3 490.75 492.88 494.63 496.71 497.83 500.29 501.37 501.83 501.55 502.59 503.11 503.56 504.39 505.38 507.02 506.02 507.47 508.33 509.39 509.44 510.16 510.15 509.51 510.84 511.8 512.2 513.07 512.56 513 513.87 514.29 516.27 517.07 516.46 518.9 517.94 519.71 518.42 519.42 521.17 523.39 525.8 529.85 534.4 532.97 538.17 541.67 544.88 546.6 550 554.42 558.05 556.03 556.88 555.11 555.37 557.21 557.96 558.51 555.57 554.98 553.72 552.86 553.98 551.9 548.48 542.73 538.96 533.24 529.03 525.34 519.66 515.38 507.14 504.23 499.24 494.8 490.76 488.38 482.61 478.08 472.89 468.46 466 463.8 461.59 460.09 455.8 453.44 450.97 447.03 445.33 443.34 441.37 439.72 435.18 434.58 433.81 432.31 430.13 429.9 428.46 427.75 427.96 427.28 427.84 428.39 427.74 9999 428.09 427.87 428.25 428.41 428.77 428.7 428.77 428.8 428.89 429.24 429.69 429.94 429.89 429.71 429.73 430.58 429.67 431.44 430.47 430.26 431.28 430.77 431.64 431.54 430.08 429.49 427.93 427.77 427.49 428.1 428.03 428.41 428.21 428.13 428.57 429.66 429.53 430.71 431.01 430.37 431.73 431.91 433.41 432.35 432.26 432.08 431.53 430.73 429.41 429.22 429.24 428.55 427.87 9999 9999 9999
9999 9999 9999 9999 9999 9999 9999 9999 9999 9999 9999 9999 9999 9999 9999 9999 9999 9999 9999 9999 9999 9999 9999 9999 9999 9999 9999 9999 9999 9999 9999 9999 9999 9999 9999 9999 9999 9999 9999 9999 9999 9999 9999 9999 9999 9999 9999 9999 9999 9999 9999 439.47 437.77 437.25 435.77 434.17 434.06 433.8 432.74 432.48 430.51 430.53 429.08 428.76 428.16 428.34 428.88 429.88 427.97 428.07 428.4 428.02 426.67 426.23 426.42 426.14 425.68 427.22 427.13 427.8 429.71 430.86 432.42 433.76 434.26 435.45 436.56 436.43 436.85 437.59 437.64 437.98 438.85 439.6 440.2 440.79 441.74 441.8 443.07 444.55 445.89 447.2 449.71 452.68 454.22 457.65 459.95 461.58 462.64 463.96 464.59 465.92 465.5 465.62 465.48 464.76 464.23 464.05 463.48 461.91 461.11 459.77 458.29 456.71 456.02 454.73 454.13 453.53 453.25 452.71 451.67 450.92 450.53 450.89 449.94 449.17 448.38 445.99 444.2 442.12 439.97 438.22 437.84 435.28 433.12 432.8 432.2 432.22 432.66 433.66 433.68 433.68 434.42 435.63 438.57 438.91 440.3 441.01 441.87 438.71 9999 9999 9999 9999 9999 9999 9999 9999 9999 9999 9999 9999 9999 9999 9999 9999 9999 442.35 444.88 446.74 447.2 447 447.27 447.59 447.78 447.7 448.15 449.42 449.12 449.88 450.1 449.92 450.23 449.59 450.71 450.49 450.32 449.79 449.45 449.25 448.18 448.27 447.63 447.1 446.82 446.95 446.65 446.95 447.01 447.26 446.68 446.33 444.08 444.79 445.85 445.57 445.34 445.9 446.49 446.77 447.32 448.43 448.58 449.62 450.21 451.71 452.31 452.06 453.19 452.92 453.87 453.35 454.55 454.74 455.41 456.36 456.73 457.71 9999 9999 9999 9999 9999 9999 9999 9999 456.98 460.77 462.05 462.11 459.33 461.24 464.74 467.65 470.83 469.49 474.32 476.01 477.04 475.59 473.09 473.76 479.13 485.2 489.65 491.09 492.63 493.95 495.82 497.43 496.63 497.73 498.31 498.7 499.57 501.11 500.94 500.81 500.79 501.5 501.95 504.83 505.11 507.01 506.52 506.69 506.65 507.56 508.72 509.64 509.06 509.33 508.34 508.66 507.7 508.3 509.78 509.38 509.05 508.36 511.07 512.29 512.86 514.76 514.95 515.63 515.41 520.14 524.6 526.42 529.02 531.49 533.31 538.06 538.59 540.64 544.02 546.82 549.87 549.07 548.1 544.64 546.76 548.27 549.5 547.23 547.59 547.81 542.41 541.14 538.71 537.86 533.28 528.39 522.91 516.09 512.38 506.23 501.71 498.25 493.08 490.11 486.44 480.83 478.35 472.69 469.26 466.38 463.69 460.52 458.36 456.41 454.45 450.67 448.55 445.47 443.86 439.81 438.78 436.7 435.85 433.76 431.03 430.42 427.97 427.89 427.7 427.9 428.22 427.97 428.15 427.42 427.63 9999 9999 428.15 428.19 428.26 428.57 428.15 429.07 428.7 429.26 429.33 429.71 429.78 430.2 430.13 430.32 430.7 431.1 431.18 431.04 431.41 430.93 431.57 431.98 431.07 429.5 428.9 427.62 427.58 428.23 427.81 428.27 427.78 428.15 427.5 428.52 429.83 430.66 430.8 430.7 431.05 431.51 431.33 430.97 431.51 431.37 431.41 430.31 429.13 429.27 428.92 429.1 428.81 427.86 9999 9999 9999
9999 9999 9999 9999 9999 9999 9999 9999 9999 9999 9999 9999 9999 9999 9999 9999 9999 9999 9999 9999 9999 9999 9999 9999 9999 9999 9999 9999 9999 9999 9999 9999 9999 9999 9999 9999 9999 9999 9999 9999 9999 9999 9999 9999 9999 9999 9999 9999 9999 9999 9999 438.23 436.87 435.79 435.19 433.43 432.51 432.72 431.68 431.97 430.72 429.58 429.01 428.18 427.89 427.54 428.07 428.72 427.59 427.49 428.16 427.07 425.91 426 426 425.95 425.76 426.17 427.85 429.44 430.15 431.74 432.98 433.56 435.4 435.82 435.36 436.6 436.95 437.61 438.07 438.59 438.64 439.21 439.41 440.42 441.67 443.16 444.31 445.61 447.01 449.79 451.89 453.93 456.25 458.87 460.4 461.96 463.7 465.95 466.31 466.88 467.33 467.37 467.23 466.47 465.75 466.02 464.88 464.11 462.23 461.25 458.91 458.43 457.97 457.12 456.12 454.46 453.51 453.14 452.2 451.52 451.18 452.38 451.76 449.91 449.55 447.43 444.78 443.26 439.86 437.88 436.49 435.41 433.86 432.78 432.03 432.59 432.75 433.21 433.75 433 436.11 435.26 438.89 439.89 440.5 440.63 440.81 438.78 9999 9999 9999 9999 9999 9999 9999 9999 9999 9999 9999 9999 9999 9999 9999 9999 9999 438.47 444.26 446.19 446.87 447.19 447.15 447.39 447.79 447.78 448.26 448.76 449.42 449.01 449.81 449.01 449.13 449.54 448.85 449.84 449.86 449.71 449.32 448.57 447.55 447.27 447.15 446.95 447.3 446.74 446.82 446.66 446.32 446.37 446.64 445.93 443.8 445.03 444.95 445.19 445.85 445.99 446.19 447.03 447.51 448.51 449.4 450.46 450.84 451.61 452.01 452.74 452.74 453.27 453.43 454.03 453.86 455.12 456.15 456.42 456.62 456.72 9999 9999 9999 9999 9999 455.93 460.35 463.3 464.26 467.07 467.95 469.29 466.97 465.54 465.83 464.61 466.02 467.43 470.8 472.85 473.82 469.25 470.18 472.25 477.32 483.82 488.12 489.73 491.74 493.96 494.24 494.9 495.66 495.25 495.41 495.96 496.02 496.38 497.35 497.77 498.95 499.16 500.15 499.6 500.64 502.69 503.05 504.37 504.85 505.33 506.03 505.46 504.9 505.26 505.2 504.76 503.21 503.77 501.64 502.77 503.25 504.94 507.15 507.51 508.42 507.64 507.28 507.23 509.79 513.74 517.34 520.97 518.55 521.01 522.56 526.4 529.54 532.96 535.21 538.52 537.88 539.57 539.19 538.95 540.06 541.39 541.29 539.5 538.7 537.35 536.75 535.64 533.22 530.32 523.76 518.13 513.73 511.95 507.03 500.89 496.94 492.39 485.32 483.38 479.77 476.01 474.1 471.34 468 463.34 462.52 458.46 456.65 454.38 452.37 450.01 447.38 444.04 441.5 439.18 437.55 435.75 434.27 432.2 430.48 429.01 428.03 427.78 427.62 427.41 427.99 428.12 427.98 427.92 427.73 426.72 428.22 428.75 429.45 428.64 428.5 428.16 429.18 429.19 429.24 430.25 430.25 430.36 431.48 430.46 431.3 430.74 430.37 431.73 431.5 431.64 431.83 431.22 431.41 430.23 428.75 427.68 427.58 427.77 427.48 427.29 427.42 428.03 427.9 427.88 428.02 430.4 431.3 431.41 431.06 430.98 430.16 430.79 430.8 430.39 430.63 429.67 429.58 428.95 428.79 429.55 429.01 429.69 427.78 9999 9999 9999
9999 9999 9999 9999 9999 9999 9999 9999 9999 9999 9999 9999 9999 9999 9999 9999 9999 9999 9999 9999 9999 9999 9999 9999 9999 9999 9999 9999 9999 9999 9999 9999 9999 9999 9999 9999 9999 9999 9999 9999 9999 9999 9999 9999 9999 9999 9999 9999 9999 9999 9999 9999 437.17 435.62 434.42 432.76 431.33 431.66 430.89 430.71 429.39 428.72 427.68 427.32 427.95 427.22 427.41 427.95 428.13 426.5 426.97 426.58 425.23 425.47 425.79 425.37 424.9 427.46 428.95 429.9 431.06 431.69 432.9 433.16 434.4 435.11 436.21 436.45 437.6 437.91 438.51 438.23 438.72 440.11 440.57 441.85 441.96 442.3 445.4 446.79 448.89 451.54 453.25 454.08 456.95 459.34 461.79 463.68 465.5 466.39 466.72 468.13 468.95 468.79 468.97 468.86 467.91 467.21 465.97 465.28 463.93 462.98 461.13 459.82 458.75 456.88 456.38 454.83 454.38 453.91 452.67 451.66 452.93 451.55 451.52 451.57 450.3 449.09 446.15 442.96 440.16 438.38 436.26 435.31 433.69 432.83 431.17 432.21 432.02 432.6 433.6 433.84 435.09 437.66 438.48 439.04 439.56 440.66 438.75 436.64 9999 9999 9999 9999 9999 9999 9999 9999 9999 9999 9999 9999 9999 9999 9999 9999 9999 9999 444.08 445.8 446.56 446.78 447.25 447.57 447.77 447.24 447.43 448.14 448.15 448.51 449.2 448.91 449.28 449.05 448.41 449.16 449.55 448.31 447.93 447.22 446.51 446.36 446.41 446.47 446.37 445.8 445.8 445.69 446.01 446.43 445.87 443.39 444.1 444.32 444.3 444.63 445.1 446.13 446.62 446.48 447.67 448.68 449.56 450.34 450.72 450.39 451.45 452.66 452.78 453.43 453.9 454.09 454.43 455.25 455.87 456.25 457.05 456.75 9999 9999 9999 9999 458.65 462.89 464.5 467 468.9 470.54 472.55 475.19 475.83 472.97 469.39 465.75 464.66 465.48 466.67 468.48 469.81 468.63 469.82 471.8 477.81 483.07 486.57 488.99 489.84 491.95 493.27 493.05 493.68 492.61 492.08 492.37 493.99 494.37 494.94 495.45 495.53 495.51 496.18 497.23 497.28 499.48 500.62 500 500.44 500.88 500.3 500.48 501.5 502.13 500.98 499.41 498.67 499.06 498.91 499.35 500.72 501.18 501.24 501.19 502.97 504.07 502.68 503.67 505.68 504.72 505.95 508.13 510.24 513.37 515.44 519.31 521.05 520.95 526.35 529.58 531.63 532.47 533.24 533.9 532.74 532.52 533 532.88 532.91 530.89 530.55 526.38 523.47 520.71 514.75 512.8 509.06 505.26 500.05 492.75 487.75 484.23 480.86 478.7 475 472.84 469.13 465.82 463.95 461.09 459.97 457.06 454.77 452 448.88 447.75 445.42 442.69 439.47 437.3 434.54 434.09 433.19 431.97 430.42 429.63 428.23 427.92 427.42 428.23 427.75 428.07 428.23 427.95 427.73 428.91 428.26 431.06 429.32 428.9 428.65 429.9 428.99 429.3 430.31 429.89 430.45 431.04 430.93 430.92 431.62 430.27 431.11 430.85 431.52 430.73 431.26 429.47 430.05 428.4 427.63 428.08 427.55 426.87 427.69 427.76 427.95 427.78 427.32 428.01 428.41 429.71 432.23 432.04 431.39 430.44 430.35 429.43 428.92 428.87 429.32 429.95 429.26 428.93 429.08 429.29 430.06 430.06 428.84 9999 9999 9999
9999 9999 9999 9999 9999 9999 9999 9999 9999 9999 9999 9999 9999 9999 9999 9999 9999 9999 9999 9999 9999 9999 9999 9999 9999 9999 9999 9999 9999 9999 9999 9999 9999 9999 9999 9999 9999 9999 9999 9999 9999 9999 9999 9999 9999 9999 9999 9999 9999 9999 9999 9999 434.98 435.6 434 431.22 431.2 431.08 429.62 429.01 428.17 427.77 426.77 426.6 425.76 426.13 426.96 426.84 426.66 425.51 426.83 426.23 424.95 425.25 424.71 424.92 425.5 428.29 429.49 430.16 431.5 432.45 433.16 433.84 435.29 435.46 435.8 436.76 437.32 437.85 438.54 439.09 439.81 440.35 440.37 442.44 443.4 444.42 446.06 448.87 450.01 451.87 453.97 456.16 458.98 460.96 462.24 464.74 466.5 466.86 468.88 469.83 469.07 469.91 470.83 469.77 469.44 468.29 467.29 466.29 465.23 463.51 461.91 461.47 460.18 458.03 457.34 455.22 454.75 454.06 453.25 451.82 452.52 451.64 452.65 450.87 450.25 448.65 445.98 443.81 440.46 438.14 436.38 434.76 433.56 431.69 431.33 432.15 432.34 433.11 434.55 434.18 436.41 437.96 438.72 438.59 438.8 437.55 436.96 435.95 9999 9999 9999 9999 9999 9999 9999 9999 9999 9999 9999 9999 9999 9999 9999 9999 9999 9999 440.81 445.3 446.25 446.83 446.71 447.22 446.78 447.26 447.5 447.43 447.72 448.51 448.2 448.65 448.89 448.9 448.78 448.04 448.29 447.91 447.7 446.3 445.81 445.8 445.79 445.68 445.63 445.39 445.12 445.48 445.46 446.34 445.67 444.37 443.34 443.83 444.2 444.56 444.99 445.64 445.64 446.22 447.55 448.48 449.05 449.7 450.12 450.92 451.79 451.63 451.82 452.88 453.4 453.93 454.73 454.74 455.45 456.17 456.16 456.76 455.61 9999 456.29 459.75 462.06 464.49 467.04 470.76 472.97 475.27 476.66 476.86 477.93 477.36 475.82 472.89 467.87 464.95 464.78 466.74 468.77 468.44 470.77 474.77 478.95 483.09 485.58 487.74 489.58 490.09 490.43 492.02 489.91 490.93 489.97 490.11 490.47 490.69 492.06 493.03 493.13 492.96 493.01 494.23 493.1 495.02 496.06 496.94 496.53 496.34 496.61 496.41 495.87 495.52 495.63 495.46 495.28 496.2 496.23 495.7 496.19 497.01 497.63 498.18 499.1 500.17 498.97 498.84 499.46 500.89 501.41 503.45 505.81 507.79 506.82 508.67 512.61 515.51 518.31 523.1 526.39 526.59 528.13 527.26 528.25 528.24 529.33 527.84 523.1 522.28 520.16 517.21 515.25 511.27 511.07 505.5 497.59 493.8 490.27 486.55 484.4 480.47 476.59 472.57 469.59 467.92 466.11 463.65 461.51 459.11 456.34 455.31 451.94 450.03 447.82 445.65 443.85 440.8 438.03 436.23 433.15 432.84 431.01 429.93 429.61 428.27 9999 9999 427.22 427.65 427.58 428.31 427.45 427.69 426.27 428.16 427.97 428.88 428.61 429.33 428.26 429.61 430 429.4 430.54 431.01 431.08 430.95 430.99 430.58 430.43 430.27 430.78 429.95 429.56 428.74 429.19 429.19 428 428.13 427.76 428.09 426.83 426.95 427.42 427.88 427.63 427.36 427.66 427.79 428.2 430.02 431.23 431.58 431.23 430.59 429.19 429.33 429.32 428.48 429.12 429.16 430.08 430.35 430.96 429.6 430.6 429.74 428.9 9999 9999 9999
9999 9999 9999 9999 9999 9999 9999 9999 9999 9999 9999 9999 9999 9999 9999 9999 9999 9999 9999 9999 9999 9999 9999 9999 9999 9999 9999 9999 9999 9999 9999 9999 9999 9999 9999 9999 9999 9999 9999 9999 9999 9999 9999 9999 9999 9999 9999 9999 9999 9999 9999 9999 436 433.86 431.98 430.6 429.96 429.72 428.87 429.46 428.35 426.82 426.15 425.87 424.81 425.04 426.42 426.46 425.71 425.1 425.23 425.98 424.77 425.02 424.88 425.04 424.42 429.14 430.45 431.42 431.66 432.06 432.71 433.7 434.3 436.17 436.24 437.19 437.27 438.57 438.82 438.54 440.23 440.94 441.98 443.68 444.97 445.7 447.57 449.52 452.03 455.18 455.95 457.42 460.1 461.38 463.05 464.98 466.91 467.77 468.69 470.68 470.92 471.32 470.86 470.2 470.67 469.46 468.05 467.15 465.84 464.84 463.42 461.72 460.21 458.22 457.37 455.63 455.14 454.45 453.78 453.22 452.16 453.26 452.22 451.97 450.35 449.15 445.68 443.66 441.24 438.31 435.23 434.1 432.78 430.97 431.49 431.26 432.33 434.13 435.43 435.71 436.73 438.52 439.49 439.3 438.28 436.6 436.28 436 9999 9999 436.63 437.44 9999 9999 9999 9999 9999 9999 9999 9999 9999 9999 9999 9999 9999 9999 438.56 444.7 446.06 445.63 446.93 446.62 446.87 447.3 446.93 447.66 447.88 447.91 447.52 448.02 447.86 448.01 447.63 447.42 447.46 447.24 446.01 445.69 445.2 445.5 446.08 445.43 445.25 445.59 445.67 445.16 444.78 445.82 445.27 444.13 443.53 442.5 443.51 443.99 444.53 445.15 445.35 446.71 447.69 448.24 448.61 449.54 449.94 451.54 450.93 451.55 451.63 452.03 453.05 453.17 454.21 455.05 455.17 455.09 456 457.49 458.99 458.11 460.7 461.9 464.48 467.03 469.31 472.8 476.13 478.01 479.33 479.87 481.16 481.01 479.96 477.53 472 468.15 467.27 470.55 471.38 471.02 471.63 475.96 479.65 482.95 485.71 485.73 487.27 488.25 489.36 489.01 489.54 489.36 487.31 486.94 488.76 488.45 490.12 490.56 490.24 488.95 489.57 489.86 489.4 491.05 492.07 492.77 493.71 491.57 491.8 491.61 492.08 492.97 491.66 492.37 491.7 492.06 492.17 492.94 494.17 494.67 494.47 493.66 495 495.36 495.11 495.74 496.27 497.07 497.83 497.52 499.26 501.17 502.95 503.5 506.2 509.58 512.42 516.27 519.82 523.14 523.76 523.82 523.43 520.23 519.87 519.39 518.52 514.92 512.6 509.89 507.93 502.19 498.07 494.81 492.42 488.06 484.58 481.47 476.44 473.39 471.43 468.78 467.07 464.94 463.05 458.98 456.88 456.4 454.41 452.72 451.1 448.51 447.14 444.29 441.11 438.68 436.54 434.14 432.36 431.13 430.23 429 428.64 9999 9999 9999 428.38 427.85 427.77 427.68 427.95 427.67 428.25 427.77 428.61 429.67 430.11 428.66 428.06 429.43 429.56 429.24 429.63 431.01 429.94 431.5 430.96 430.8 429.56 428.45 427.93 427.62 427.58 427.77 427.58 428.09 427.75 426.95 426.74 427.38 427.34 427.1 427.08 427.24 427.4 427.58 427.45 427.9 429.34 430.63 431.98 432.46 431.37 430.31 429.23 428.92 428.84 430.22 429.96 430.83 431.42 431.8 431.75 430.94 430.57 430.15 430.87 9999 9999 9999
9999 9999 9999 9999 9999 9999 9999 9999 9999 9999 9999 9999 9999 9999 9999 9999 9999 9999 9999 9999 9999 9999 9999 9999 9999 9999 9999 9999 9999 9999 9999 9999 9999 9999 9999 9999 9999 9999 9999 9999 9999 9999 9999 9999 9999 9999 9999 9999 9999 9999 9999 9999 434.04 434 431.4 430.28 428.42 429.76 427.35 427.77 427.22 426.07 425.61 425.79 425.05 425.18 425.11 425.05 424.43 424.37 424.19 423.97 424.73 424.19 424.21 424.17 426.24 429.09 431.17 432 433 433.19 433.87 434.23 434.56 435.16 435.85 436.89 436.96 438.08 439.26 439.89 440.76 441.71 443.11 443.87 446.38 448.4 450.02 451.15 453.67 454.71 456.38 458.86 460.85 462.06 463.72 465.03 467.13 467.59 469.14 470.58 471.36 472.3 471.59 471.4 470.89 469.66 469.31 468.01 466.91 466.09 463.22 462.23 461.27 459.54 456.69 456.58 456.17 455.31 453.78 453 452.37 452.16 451.94 451.03 450.36 448.76 445.04 443.56 440.65 437.65 435.31 433.75 431.99 430.61 430.84 431.22 431.62 433.54 435.01 436.94 437.73 438.34 439.35 439.88 438.6 436.01 435.5 435.51 435.26 435.33 437.89 439.46 436.04 9999 9999 9999 9999 9999 9999 9999 9999 9999 9999 9999 9999 9999 439.7 444.76 445.16 445.72 446.23 446.77 446.72 446.68 446.6 447.53 446.86 447.17 447.74 447.89 447.72 447.99 446.79 446.34 446.62 446.89 445.38 444.98 445.38 444.62 444.74 444.74 444.45 445.05 445.06 444.53 444.58 444.88 444.54 445.06 443.63 442.5 442.94 443.53 444.2 445.61 445.87 446.26 447.58 447.9 447.95 448.73 449.18 449.75 450.51 450.9 451.73 451.82 452.61 453.51 453.68 454.21 455.36 455.39 455.88 457.1 458.87 460.3 461.39 463.2 465.99 468.54 471.54 475.62 477.7 480.6 481.24 481.64 482.06 482.62 482.28 481.5 480.31 477.17 475.09 475.53 476.91 478.64 478.01 480.02 481.51 483.18 484.72 485.54 485.58 487.56 487.75 486.41 485.74 486.34 486.29 485.31 486.09 487.36 485.54 485.84 486 486.62 487.48 486.79 487.96 488.57 487.59 488.33 488.73 488.14 488.41 488.23 488.72 488.24 488.63 488.67 488.59 488.53 489.75 490.71 490.17 490.4 490.81 490.73 491.44 491.57 492.47 493.15 491.87 491.89 493.45 493.99 495.97 498.56 499.12 497.55 499.2 503.23 508.22 511.71 516.05 520.26 519.56 518.09 515.93 513.37 511.31 511.08 510.41 509.7 500.62 498.74 496.97 493.54 492.01 489.11 486.75 482.07 477.39 475.73 471.77 469.49 467.07 464.81 462.48 460.01 458.36 455.95 455.29 454.84 452.59 450.32 448.74 446.95 446.53 442.83 440.09 437.82 435.24 432.96 431.24 429.67 429.89 428.47 427.85 9999 9999 427.15 427.01 427.57 428.59 427.61 427.87 427.9 428.33 429.01 429.55 428.88 429.41 428.57 427.2 428.51 427.76 427.81 428.26 428.92 428.18 428.4 429.39 429.58 429.11 428.15 427.37 427.64 427.42 427.82 428.27 428.07 427.54 426.96 426.77 427.93 427.61 426.72 427.06 427.46 426.95 427.52 428.16 429.75 430.25 431.88 432.08 431.27 430.86 429.34 429.17 429.03 429.94 430.07 431.04 431.76 432.81 433.25 432.35 431.55 429.86 429.77 431.53 9999 9999 9999
9999 9999 9999 9999 9999 9999 9999 9999 9999 9999 9999 9999 9999 9999 9999 9999 9999 9999 9999 9999 9999 9999 9999 9999 9999 9999 9999 9999 9999 9999 9999 9999 9999 9999 9999 9999 9999 9999 9999 9999 9999 9999 9999 9999 9999 9999 9999 9999 9999 9999 9999 9999 434.2 432.17 430.67 428.83 428 427.29 426.63 426.54 425.95 425.29 424.54 424.43 423.12 424.44 424.18 424.18 423.48 423.39 422.94 422.96 423.73 424.05 423.71 424.61 428.4 430.19 431.31 432.26 433.52 433.25 433.65 434.11 434.45 434.91 435.04 436.24 436.85 437.61 439.04 439.85 441.36 442.45 445.04 446.66 448 449.26 450.84 451.57 454.26 455.73 457.6 459.03 461.41 463.02 463.53 465.7 466.72 467.83 469.57 470.96 472.08 471.74 471.42 471.36 471.5 469.56 469.15 468.75 466.4 465.3 463.95 463.25 461.53 459.92 458.35 456.93 455.22 455.16 453.84 452.93 451.97 452.05 452.27 451.49 449.26 447.56 445.28 442.88 440.11 436.71 434.94 432.41 430.56 429.62 428.34 429.16 429.46 432.87 435.44 437.13 438.28 438.57 439.11 439.17 437.95 436.35 435.37 435.47 435.33 436.14 436.52 437.42 437.95 437.31 436.29 435.17 9999 9999 9999 9999 9999 9999 9999 9999 9999 440.51 443.73 445.4 445.19 445.74 445.48 445.99 446.53 446.43 446.02 446.86 446.79 446.77 447.23 447.42 447.38 446.35 446.47 446.87 446.46 445.18 445.15 444.41 444.21 444 445.15 444.33 444.68 444.62 443.93 444.03 444.14 444.89 444.61 444.84 444.32 442.41 442.15 443.04 444.06 445.12 445.26 446.24 447.17 447.62 447.77 448.07 448.42 449.76 450.34 451.38 451.67 452.14 452.23 453.23 453.42 454.59 454.96 455.87 457.86 458.94 459.7 459.72 461.5 463.59 466.71 470.35 474.98 478.32 481.39 481.62 483.14 484.13 483.28 484.99 484.58 483.68 482.72 481.42 480.43 479.51 481.66 481.31 481.71 481.07 481.36 482.38 483.64 483.81 483.33 484.22 484.38 483.53 483.7 483.85 483.68 482.79 483.08 483.07 483.58 483.79 484.22 484.74 485.05 484.49 484.29 484.93 485.64 486.08 486.03 485.12 484.95 485.09 485.17 485.47 485.89 486.29 486.71 485.31 486.21 487.2 487.27 487.51 488.17 488.98 488.54 489.02 488.15 488.24 489.27 489.33 490.11 491.59 491.63 492.53 493.02 493.99 495.78 497.35 500.57 501.99 506.12 508.65 511.74 511.77 508.95 506.85 501.39 500.18 499.7 497.03 495.38 492.49 490.86 488.26 483.72 481.6 479.64 477.1 474.67 472.55 469.19 464.74 462.85 460.65 458.32 456.9 456.5 455.08 452.58 450.93 449.84 448.12 447.35 444.5 443.58 440.93 438.11 434.92 432.32 431.76 429.47 429.1 428.69 428.17 427.86 426.99 427.89 428.39 427.65 427.61 428.18 427.5 428.01 427.89 428.4 429.23 429.72 429.8 428.31 426.86 427.51 427.72 427.59 428.89 9999 9999 9999 9999 427.68 428.53 428.46 427.67 427.56 427.89 427.4 427.74 427.41 427.92 427.43 427.08 428.46 428.22 427.08 426.36 426.83 426.28 426.76 428.27 427.93 430.23 430.46 431.2 431.23 429.24 429.93 428.12 428.94 428.27 429.47 430.39 430.89 432.19 432.39 432.43 432.61 433.22 429.94 429.28 427.51 9999 9999 9999
9999 9999 9999 9999 9999 9999 9999 9999 9999 9999 9999 9999 9999 9999 9999 9999 9999 9999 9999 9999 9999 9999 9999 9999 9999 9999 9999 9999 9999 9999 9999 9999 9999 9999 9999 9999 9999 9999 9999 9999 9999 9999 9999 9999 9999 9999 9999 9999 9999 9999 9999 9999 431.18 430.33 428.77 427.32 426.93 426.42 426.05 425.51 425.96 424.77 423.91 423.12 422.43 423.87 423.14 421.94 421.81 422.19 422.46 422.85 423.42 423.41 424.12 423.54 428.57 430.66 431.25 432.55 432.98 433.66 434.44 434.18 435.45 435.68 436.06 436.64 437.89 438.52 440.25 440.42 442.36 444.29 445.71 447.4 449.27 449.92 452.03 453.26 455.33 456.5 458.5 459.49 461.08 463.31 464.47 466.05 467.18 468.46 469.86 470.43 471.2 471.08 471.14 471.13 470.41 469.94 469.11 468.36 467.18 465.95 464.75 463.1 462.33 460.17 458.69 457.43 455.15 453.84 453.81 452.82 451.85 452.17 451.94 452.07 450.74 446.79 445.96 442.11 439.24 436.63 433.63 431.27 430.03 426.83 426.87 427.42 428.74 431.26 434.64 437.36 439.02 438.77 439.05 438.65 438.03 437.04 435.46 435.63 435.99 436.39 437.57 437.99 437.5 438.09 440.01 440.94 439.89 436.92 435.73 435.09 9999 9999 9999 9999 438.61 443.71 443.94 443.82 444.96 445.15 445.07 445.6 445.01 446.36 446.66 445.87 447.11 446.52 447.3 447.48 447.11 447.48 446.1 445.46 444.83 444.58 443.99 443.83 443.76 443.97 443.69 443.81 443.92 444.2 443.23 443.75 443.9 444.7 444.84 444 443.51 441.75 442.35 443.61 444.01 444.5 446.51 446.53 447.27 447.02 447.45 448.51 449.26 449.72 450.57 451.44 452.12 451.72 452.91 453.48 454.57 454.95 456.17 457.02 458.18 459.2 460.08 460.26 462.83 464.32 469.16 472.97 476.86 480.34 481.73 483.4 484.23 485.65 485.59 486.23 486.47 486.22 484.78 484.62 483.23 481.89 481.84 480.78 480.77 480.79 481.99 480.92 481.45 482.14 482.88 482.58 482.2 482.5 480.85 480.97 481.98 480.95 481.34 480.61 480.89 479.72 481.13 481.54 481.55 481.81 482.57 482.63 482.8 481.52 482.7 481.88 481.34 482.36 482.74 483.11 482.1 482.95 482.68 484.32 485.11 485.36 485.13 484.92 484.84 485.44 485.8 485.96 486.73 486.48 486.85 485.88 486.58 487.66 489.49 490.67 490.52 491 490.03 491.32 493.47 495.07 500.03 502.99 504.17 500.47 499.28 496.67 495.86 494.88 492.62 491.54 489.57 485.69 483.36 481.02 479.43 478.41 476.57 472.98 468.89 466.57 465.34 462.13 460.16 456.11 456.22 453.13 452.27 450.49 449.42 449.01 448.09 446.84 445.13 442.77 442.26 438.82 436.3 433.22 431.54 430.44 429.24 428.85 427.77 427.53 427.8 428.44 428.92 427.93 428.58 429.37 427.79 427.81 427.98 428.51 427.86 429.26 428.6 427.89 426.85 426.69 426.93 427.94 9999 9999 9999 9999 9999 9999 427.5 426.69 428.47 427.5 427.46 427.03 427.39 427.81 427.13 426.87 426.67 428.31 428.41 427.96 426.64 426.75 426.03 427.58 426.34 427.56 429.39 430.26 430.71 431.3 427.81 429.84 428.53 429.05 430.65 428.6 428.88 429.68 430.64 431.72 431.86 432.08 431.14 429.17 428.72 427.21 424.57 9999 9999 9999
9999 9999 9999 9999 9999 9999 9999 9999 9999 9999 9999 9999 9999 9999 9999 9999 9999 9999 9999 9999 9999 9999 9999 9999 9999 9999 9999 9999 9999 9999 9999 9999 9999 9999 9999 9999 9999 9999 9999 9999 9999 9999 9999 9999 9999 9999 9999 9999 9999 9999 9999 9999 429.51 428.35 427.44 427.34 426.7 425.18 424.75 425.53 424.32 424.14 423.73 422.81 422.01 421.27 421.69 421.02 421.62 421.94 422.49 422.2 422.16 422.29 422.69 424.02 429.45 430.69 431.4 431.81 433.27 433.91 433.67 434.38 434.87 435.79 436.17 436.56 438.15 439.38 440.07 441.19 443.28 445.5 448.23 449.56 450.77 451.64 453.4 454.96 455.23 457.19 458.57 459.48 460.91 462.03 464.69 465.45 467.31 467.78 469.04 470.38 469.89 470.41 471.5 470.25 469.96 469.97 469.5 467.94 467.18 466.02 464.23 463.16 461.86 459.6 458.63 457.65 455.62 454.5 453.93 452.88 452.19 451.79 452.03 451.06 449.75 447.17 444.82 440.9 438.07 435.3 432.41 429.37 428.01 425.99 425.79 426.6 427.33 429.09 433.36 437.27 438.78 438.76 438.61 438.55 438.8 436.93 435.3 435.46 437.23 436.72 437.36 438.03 437.83 439.15 439.49 440.63 440.21 440.74 441.12 440.54 437.57 436.77 438.45 440.42 443.12 443.4 444.46 444.61 444.44 444.54 444.62 444.93 445.13 445.54 445.19 446.06 446.23 446.19 446.78 446.49 446.85 445.93 445.33 444.98 444.54 443.97 443.27 443.72 443.29 443.87 443.23 443.73 443.7 443.64 443.61 443.67 443.64 443.46 443.38 442.36 441.72 441.6 441.82 443.25 444.94 445.02 445.49 446.38 446.79 447.21 447.71 448.65 449.53 450.45 451.13 451.04 451.42 452.35 453.09 453.28 454.9 456.02 455.99 457.13 458.44 458.78 460.31 462.27 463.24 466.59 469.85 474.04 478.66 482.2 484.49 485 486.07 485.89 487.1 486.97 487.65 487.6 487.01 485.4 484.37 482.8 482.8 481.91 481.36 481.17 480.97 481.07 481.17 480.36 481.19 480.64 481.04 481.14 480.04 479.53 480 479.66 478.84 478.19 477.7 477.08 477.75 478.82 479.2 479.64 479.42 479.27 479.19 478.87 479.03 478.73 479.57 479.05 479.9 480.24 480.71 480.38 482.58 482.09 482.63 482.49 482.97 482.09 483.2 483.71 483.59 484.04 483.12 483.39 484.22 484.31 485.52 486.26 488.11 486.46 485.83 486.64 486.26 487.2 489.32 490.58 488.9 488.56 491.78 492.55 492.84 492.07 489.37 489.34 484.92 484.09 482.56 481.2 479.14 477.63 477.12 473.02 471.62 468.72 466.08 464.35 462.34 459.6 457.04 453.84 451.75 450.98 449.58 448.77 447.03 446.09 445.86 445.01 443.97 441.05 439.21 437.37 434.86 432.19 430.77 429.18 428.53 428.7 427.74 428.8 433.55 434.54 434.32 429.54 428.96 429.07 427.5 427.97 427.74 427.9 428 428.32 429.65 430.37 429.06 426.81 9999 9999 9999 9999 9999 9999 9999 9999 9999 426.5 427.57 427.62 427.46 427.72 427.21 427.52 427.24 426.41 426.46 426.56 426.64 427.6 427.59 428.06 9999 9999 9999 9999 9999 431.72 431.9 427.07 9999 425.49 424.96 430.69 428.22 427.87 427.82 429.15 430.22 429.63 429.88 431.31 429.49 428.88 425.68 427 426.39 9999 9999 9999
9999 9999 9999 9999 9999 9999 9999 9999 9999 9999 9999 9999 9999 9999 9999 9999 9999 9999 9999 9999 9999 9999 9999 9999 9999 9999 9999 9999 9999 9999 9999 9999 9999 9999 9999 9999 9999 9999 9999 9999 9999 9999 9999 9999 9999 9999 9999 9999 9999 9999 9999 9999 428.74 427.58 426.11 425.79 425.35 424.77 425.12 423.59 423.59 422.19 421.31 420.97 420.53 420.28 420.83 421.31 420.6 421.28 421.65 421.65 422.23 424.27 427.27 428.36 429.04 430.43 430.93 431.71 432.71 432.14 433.49 434.67 435.34 436.51 437.52 437.57 437.89 440.15 441.36 444.09 446.44 447.7 449.44 449.85 452.15 452.86 454.25 455.47 455.58 457.96 459.05 459.92 461.05 462.95 463.8 465.32 466.59 467.53 469.51 469.18 470.53 470.8 470.62 470.69 469.71 470.28 469.1 468.73 467.45 465.56 464.33 462.99 461.11 459.29 458.07 457.4 455.94 454.85 454.04 452.72 451.86 452.05 451.82 451.28 449.44 447.22 444.28 442.09 437.67 435.11 431.8 428.56 426.94 424.23 424.67 425.02 426.65 429.35 432.81 436.97 438.14 438.65 438.41 437.96 437.56 435.96 434.95 435.54 437.18 437.9 439.41 439.61 439.95 440.34 440.26 439.59 440.42 440.46 440.03 441.29 441.74 441.37 442.32 443.74 443.17 443.67 443.71 444.18 443.85 444.45 444.5 444.73 445.53 445.33 445.5 445.16 446.09 445.98 445.67 446.06 445.73 445.44 444.34 443.51 443 442.81 442.68 442.89 443.62 442.92 442.97 443.14 442.58 442.81 443.36 443.4 442.96 443.46 444.05 441.73 441.56 442.47 442.99 443.9 444.25 444.9 445.67 445.99 447.22 447.22 448.47 449.26 449.7 450.3 451.4 451.68 451.72 453.15 453.6 454.55 454.91 455.52 457.47 458.48 459.22 459.72 461.11 462.55 464.1 467.25 471.47 475.28 478.3 482.17 484.58 485.4 487.43 488.33 488.4 488.85 489.23 488.77 488.34 486.55 485.9 485.33 484.29 483.07 482.01 481.77 480.6 479.89 479.74 480.54 480.06 479.95 480.02 479.81 480.17 478.17 477.01 477.61 476.49 476.17 475.89 475.99 476.12 475.29 475.98 476.9 477.73 477.95 477 477 475.87 476.88 477.21 478.13 479.14 478.69 479.4 478.28 479.67 480.1 480.93 480.87 481.45 481.24 481.74 480.59 481.37 481.7 482.25 482.32 482.6 482.2 482.83 482.88 484.03 484.05 484.65 483.7 483.42 481.82 482.78 482.69 483.6 483.44 484.03 485.17 487.43 483.81 482.84 482.49 480.88 479.59 478.82 478.06 474.92 472.68 472.04 470.49 468.41 465.72 464.34 460.4 458.5 455.88 454.45 452.57 449.87 448.36 445.77 445.59 445.05 444.66 444.07 443.38 441.39 439.58 438.39 435.41 432.74 431.59 428.89 428.78 428.87 427.13 427.38 428.36 432.31 432.53 433.59 429.87 430.43 428.96 427.72 427.71 427.03 427.39 429.31 431.72 430.27 427.55 9999 9999 9999 9999 9999 9999 9999 9999 9999 9999 9999 9999 9999 427.34 427.32 427.06 427.62 427.42 426.28 9999 9999 9999 426.6 426.89 428.04 428.28 9999 427.16 427.26 426.58 425.91 425.86 9999 9999 427.58 431.51 429.65 431.26 431.88 430.47 428.98 427.93 428.72 431.08 430.97 428 431.82 430.48 430.59 429.61 427.8 9999 9999 9999
9999 9999 9999 9999 9999 9999 9999 9999 9999 9999 9999 9999 9999 9999 9999 9999 9999 9999 9999 9999 9999 9999 9999 9999 9999 9999 9999 9999 9999 9999 9999 9999 9999 9999 9999 9999 9999 9999 9999 9999 9999 9999 9999 9999 9999 9999 9999 9999 9999 9999 9999 9999 428.66 426.38 425.87 424.49 424.96 424.09 423.46 423.31 422.01 420.69 420.56 420.76 420.01 420.43 420.35 420.62 420.92 421.32 421.5 421.69 422.33 426.32 427.63 428.44 429.58 430.74 430.41 431.7 431.75 432.53 433.83 434.07 435.23 436.4 436.63 438.55 440.41 440.93 443.63 445.15 446.02 449.17 450.35 451.48 453.31 455.22 455.44 456.41 457.1 457.84 459.69 461.64 462.29 464.03 465.13 465.45 467.45 467.87 468.43 467.94 468.78 469.02 468.87 469.62 469.29 469.14 468.51 466.82 466.79 465.03 464.33 461.99 460.44 459.94 457.63 456.75 455.19 454.78 453.14 452.69 451.5 451.9 451.49 450.23 448.98 446.58 444.37 441.39 438.89 432.98 428.47 426.14 425.21 423.34 423.87 423.73 424.71 425.85 431.21 435.36 437.69 438.34 439.14 437.42 435.06 434.96 434.55 435.95 436.4 438.44 439.67 439.74 439.94 439.97 440.59 440.29 440.07 440.23 440.41 440.44 441.83 442.83 442.93 442.94 443.08 442.72 442.93 443.75 443.79 444.31 444.4 444.54 444.8 445.12 445.76 445.78 445.87 445.79 445.59 444.93 444.33 444.69 443.03 442.69 442.92 443.03 442.84 442.7 442.63 442.84 442.98 442.45 442.91 442.9 443.13 442.55 443.02 442.97 442.82 442.63 440.9 441.22 442.38 442.96 443.64 445.1 445.39 446.62 447.18 447.45 448.5 448.89 449.11 450.34 450.91 451.84 452.05 453.13 453.65 454.25 454.62 456.13 456.65 457.4 459.53 460.39 461.68 464.01 464.8 468.51 471.78 476.5 479.75 481.24 482.8 485.69 486.97 488.29 489.74 490.54 490.37 489.01 488.03 487.85 486.6 485.95 485.57 484.33 482.33 482.05 481.54 480.22 479.55 478.54 478.92 478.35 477.27 478.13 478.45 477.43 476.1 475.16 474.37 475.15 475.2 474.87 473.96 473.87 474.91 475.38 476.07 475.41 475.25 474.97 474.42 475.14 475.11 477.35 476.41 476.39 475.03 476.63 477.57 478.3 479.31 479.31 478.58 479.29 478.92 478.83 479.11 479.84 480.11 479.55 480.38 480.41 481.09 481 481.56 482.13 481.22 480.96 482.05 479.91 479.69 480.49 480.51 481.2 479.7 480.46 480.26 479.76 479.55 479.32 477.04 475.21 474.98 473.14 472.09 470.28 468.94 468.55 464.87 461.91 460.71 458.46 456.58 454.16 452.44 449.73 448.36 446.28 444.82 443.74 442.72 443.22 442.72 440.96 439.6 437.4 436.64 435.27 433.26 431.2 428.38 428.27 427.7 427.57 427.52 429.67 432.95 431.81 431.42 429.44 432.25 430.25 427.75 428.61 429.65 431.83 433.36 431.64 429.85 9999 9999 9999 9999 9999 9999 9999 9999 9999 9999 9999 9999 9999 9999 427.13 427.71 427.5 427.38 427 426.83 9999 9999 9999 9999 426.83 427.82 9999 9999 9999 9999 430.57 431.11 432.13 431.04 424.29 9999 431.52 432.21 428.87 428.12 430.97 429.95 428.21 428.34 429.46 433.8 431.51 426.2 430.66 434.56 431.2 428.4 9999 9999 9999
9999 9999 9999 9999 9999 9999 9999 9999 9999 9999 9999 9999 9999 9999 9999 9999 9999 9999 9999 9999 9999 9999 9999 9999 9999 9999 9999 9999 9999 9999 9999 9999 9999 9999 9999 9999 9999 9999 9999 9999 9999 9999 9999 9999 9999 9999 9999 9999 9999 9999 9999 9999 426.84 425.72 423.65 423.64 423.83 422.79 421.9 421.54 421.06 419.96 419.18 419.41 419.88 420.84 420.91 421.09 421.24 422.17 423.06 424.66 425.17 427.68 428.02 428.83 429.71 429.95 430.8 431.17 432.34 432.21 433.27 435.06 435.64 436.57 437.27 439.82 440.5 442.19 444.85 445.27 448.49 450.55 452.25 453.64 454.07 456.12 456.81 457.96 459.9 461.05 461.89 462.64 463.05 464.29 465.65 467.04 467.46 467.8 468.09 468.26 467.57 468.99 467.46 468.54 468.46 468.76 467.35 467.41 466.09 464.51 463.79 461.77 460.8 459.19 457.36 456.11 454.25 453.97 452.86 452.33 451.16 451.59 450.79 450.54 448.7 446.1 443.7 440.03 436.23 432.53 429.69 424.3 423.29 421.93 422.73 425.2 421.59 421.65 426.04 433.99 435.59 436.38 437.4 435.57 432.85 433.51 432.72 434.28 435.5 437.62 439.27 439.75 439.15 440.15 439.88 440.69 440.6 441.14 440.95 440.49 441.3 441.54 442.26 441.58 441.98 442.44 442.38 442.82 443.42 443.39 443.9 443.99 445.33 445.74 445.34 446.05 445.77 445.98 445.42 444 444.22 443.46 443.02 442.17 442.28 442.24 441.62 442.28 442.23 441.91 442.83 442.61 442.63 442.49 442.51 442.77 442.16 443.19 443.12 443.44 441.68 441.1 440.67 442.25 443.78 444.68 445.93 446.62 447.44 448 448.4 449.34 449.72 450.14 451.17 451.8 451.8 452.7 453.49 454.61 455.21 456.15 457.37 457.72 459.3 460.37 461.23 462.77 466.2 469.65 472.78 476.58 478.18 9999 9999 481.26 483.57 487.05 487.75 490.66 490.07 489.45 488.67 488.34 486.14 486.83 485.27 485.03 484.18 482.31 482.16 480.05 479.19 478.9 478.51 477.12 476.61 474.97 475.83 474.7 475.02 472.93 472.39 473.22 473.17 472.23 473.27 472.53 472.65 472.1 474.03 474.11 473.46 473.92 473.01 471.73 474.05 474.24 474.85 474.77 473.82 475.18 476.32 477.31 477.52 477.2 477.97 477.22 477.62 478.32 477.7 478.78 478.17 479.25 479.12 480.27 479.82 479.17 479.87 478.68 478.55 478.16 480 477.76 477.29 476.76 476.56 475.35 476.36 476.89 476.12 477.44 475.73 474.37 473.48 472.66 471.88 470.67 469.71 466.34 465.23 464.26 462.91 461.77 458.72 456.5 453.25 451.3 450.01 446.71 446.71 444.87 444.16 443.42 441.57 440.84 440.72 439.71 439.13 437.72 436.61 434.7 432.05 430.19 428.04 428.03 427.47 427.25 427.56 429.12 429.96 430.36 430.9 430.7 429.36 427.7 427.73 430.9 430.74 433.2 434.16 430.13 9999 9999 9999 9999 9999 9999 9999 9999 9999 9999 9999 9999 9999 9999 9999 426.39 428.47 426.8 426.85 427.06 424.97 9999 9999 9999 9999 9999 9999 9999 9999 9999 9999 9999 428.14 430.77 431.37 430.38 424.68 428.26 431.28 431.82 428.2 430.43 430.49 432.27 432.52 432.19 432.96 428.39 432.41 433.96 433.3 429.56 430.97 9999 9999 9999
9999 9999 9999 9999 9999 9999 9999 9999 9999 9999 9999 9999 9999 9999 9999 9999 9999 9999 9999 9999 9999 9999 9999 9999 9999 9999 9999 9999 9999 9999 9999 9999 9999 9999 9999 9999 9999 9999 9999 9999 9999 9999 9999 9999 9999 9999 9999 9999 9999 9999 9999 9999 425.5 424.79 423.02 422.36 422.24 421.86 421.25 419.87 418.69 418.74 419.49 419.15 419.9 420.61 422.08 423.03 423.68 424.68 425.45 425.28 426.17 427.52 428.11 429.44 429.62 429.83 430.38 431.75 431.58 432.15 433.64 434.78 434.6 436.85 437.6 439.49 441.52 444.11 445.38 447.44 449.43 450.97 453.02 454.28 456.46 458.34 458.67 459.56 460.32 461.21 462.19 463.56 465.32 464.95 465.94 465.93 467.03 466.96 467.16 466.56 467.88 467.82 468.04 467.98 467.49 468.32 467.12 467.12 465.14 463.61 462.74 461.16 459.46 458.69 456.72 455.76 454.74 453.4 453.03 451.64 451.45 451.79 450.54 450.18 448.37 446.06 442.96 439.14 435.18 431.36 426.94 422.92 421.18 419.88 421.28 422.15 420.44 419.81 420.78 426.86 434.65 435.47 436.45 432.92 430.32 433.25 430.31 432.11 435.67 437.86 438.84 439.39 439.44 439.6 439.76 440.18 439.96 440.69 440.76 440.67 440.39 441.42 441.42 441.36 442.13 443.36 442.77 443.07 443.42 443.64 443.8 445.3 445.58 445.07 445.23 445.88 444.85 444.99 444.3 444.04 443.02 442.47 442.38 441.57 441.67 441.9 441.62 441.53 441.79 441.54 441.84 442.18 442.05 442.13 441.91 442.42 441.73 443.12 443.46 444.22 443.18 442.24 440.47 440.21 442.52 444.12 446.35 446.73 447.03 447.8 447.88 448.73 449.18 449.86 450.02 450.92 451.56 452.27 453.06 453.46 455.51 457.05 457.13 458.86 459.67 461.15 463.33 464.57 468.18 469.74 474.15 476.61 477.07 9999 9999 9999 480.18 486.99 488.87 490.43 490.75 489.85 488.37 488.02 486.86 485.91 485.53 484.3 484.64 483.02 482.25 480.74 479.31 478.56 477.88 476.53 475.94 474.77 474.06 473.12 473.24 471.68 471.45 471.74 470.86 468.98 468.85 468.63 470.65 470.61 472.09 472.83 470.36 470.3 470.22 470.88 472.51 473.05 472.93 472.06 471.58 472.83 474.45 475.3 475.84 476.17 475.83 475.41 475.19 475.34 475.9 476.44 476.76 477.82 477.27 477.9 478.08 477.64 477.21 477.51 476.06 475.31 475.21 474.28 473.55 474.36 474.32 474.05 473.56 473.11 472.08 473.14 472.42 471.73 472.25 470.71 467.83 468.07 465.22 463.93 462.98 461.66 460.32 457.66 455 454.01 451.69 449.64 448.13 445.96 444.95 442.92 441.44 441.03 440.42 440.12 439.41 439.93 437.13 435.76 435.02 434.77 433.65 428.68 427.92 427.21 427.09 427.95 427.77 427.48 427.72 429.53 428.71 428.14 427.63 427.43 427.61 429.5 430.35 432.92 433.56 426.45 9999 9999 9999 9999 9999 9999 9999 9999 9999 9999 9999 9999 9999 9999 9999 9999 426.82 427.75 427.92 427.34 426.51 9999 9999 9999 9999 9999 428.63 9999 9999 9999 9999 9999 428.2 431.42 430.59 433.73 431.44 431.53 427.26 429.63 429.7 430.87 433.74 430.4 431.73 431.53 431.89 430.08 434.47 431.09 429.72 9999 429 9999 9999 9999
9999 9999 9999 9999 9999 9999 9999 9999 9999 9999 9999 9999 9999 9999 9999 9999 9999 9999 9999 9999 9999 9999 9999 9999 9999 9999 9999 9999 9999 9999 9999 9999 9999 9999 9999 9999 9999 9999 9999 9999 9999 9999 9999 9999 9999 9999 9999 9999 9999 9999 9999 9999 424.91 423.8 421.78 420.7 420.14 419.67 419.18 418.44 418.15 419.15 418.74 419.49 419.61 421.42 422.75 423.51 424.19 424.6 425.42 426.37 426.33 427.09 428.56 429.38 429.63 429.32 429.93 431.06 430.94 433.02 433.86 434.59 435.29 436.6 437.94 440.13 441.47 444.9 446.34 447.94 449.62 451.36 453.38 454.98 456.63 458.4 459.76 461.2 461.29 463.17 463.85 464.78 465.47 465.94 465.89 466.57 466.9 466.51 466.82 466.43 466.45 466.14 466.91 467.07 468.06 465.67 465.2 465.65 464.81 462.85 460.9 460.48 458.05 458.21 455.7 455.31 455.01 452.55 452.22 451.69 450.86 449.75 450.1 448.35 447.59 443.68 440.94 435.68 431.61 428.54 424.35 420.96 419.88 419.28 418.15 415.96 9999 9999 416.36 422.65 428.54 432.88 429.43 426.17 427.3 428.79 431.55 432.86 436.93 438.27 437.87 438.84 439.36 438.72 440.26 439.69 440.15 440.07 440.43 440.61 440.97 441.32 441.77 441.92 442.43 441.73 442.55 442.43 442.88 443.7 444.35 444.86 444.4 444.84 444.51 444.6 444.3 444.73 445.12 443.92 442.44 442.02 441.19 441.65 441.53 441.43 440.91 441.49 441.03 441.52 441.62 442.2 441.95 442.21 442.34 442.1 442.44 443.09 443.14 443.42 443.29 443.1 439.71 440.06 440.97 444.12 445.53 446.68 447.4 447.27 448.17 448.53 448.98 449.74 449.6 450.88 451.82 452.64 453.34 454.17 455.28 456.39 457.51 458.61 459.86 461.87 462.96 465.66 467.48 469.86 474.95 479.31 481.19 476.5 9999 9999 478.52 484.9 490.11 491.28 491.53 490.28 489.24 487.24 486.42 484.71 484.54 483.01 482.14 481.48 480.68 479.92 479.06 479.26 478.22 476.34 475.28 473.73 473.13 471.44 470.87 470.99 469.61 468.59 466.33 465.86 464.45 465.2 466.39 465.64 466.66 467.17 468.12 469.33 468.56 469.75 469.41 470.08 469.64 470.33 470.34 471 473.06 473.26 473.44 473.49 472.84 472.67 474.75 474.41 474.63 475.24 475.63 477.31 477.02 476.6 476.9 477.07 475.66 474.98 473.98 473.25 472.16 471.71 471.18 471.6 470.98 470.95 471.34 470.83 470.39 471 470.28 468.72 467.93 466.53 465.84 464.05 463.72 462.1 459.79 458.32 456.69 455.32 454.54 452.46 450.79 449.2 445.93 444.06 442.89 442.03 440.25 439.41 438.71 438.93 438.89 437.87 436.3 435.4 434.83 437.75 438.14 431.63 428.32 427.03 427.6 427.78 427.25 427.81 427.48 428.58 429.24 428.09 428.97 427.13 427.77 429.19 432.33 433.5 430.41 9999 9999 9999 9999 9999 9999 9999 9999 9999 9999 9999 9999 9999 9999 9999 9999 9999 426.29 426.84 428.31 427.88 9999 9999 9999 9999 427.09 432.66 431.73 9999 9999 9999 9999 428.08 428.81 428.83 432.5 433.98 431.16 432.36 432.43 428.95 431.58 431.45 430.86 431.87 433 434.01 429.76 431.49 434.33 430.78 9999 9999 428.71 9999 9999 9999
9999 9999 9999 9999 9999 9999 9999 9999 9999 9999 9999 9999 9999 9999 9999 9999 9999 9999 9999 9999 9999 9999 9999 9999 9999 9999 9999 9999 9999 9999 9999 9999 9999 9999 9999 9999 9999 9999 9999 9999 9999 9999 9999 9999 9999 9999 9999 9999 9999 9999 9999 9999 423.26 421.81 420.29 419.4 418.6 418.1 417.89 418.43 418.33 419.09 419.61 419.74 420.92 422.92 423.28 424.15 424.31 425.04 425.87 426.08 426.71 426.82 427.96 428.61 429.06 429.39 430.34 430.85 431.48 432.65 433.6 434.07 435.34 436.98 438.18 440.54 442.48 443.76 446.22 449.69 450.39 452.13 454.27 455.69 457.26 458.45 459.81 461.6 462.51 463.55 464.12 464.78 465.97 465.52 466.27 465.6 466.16 466.18 465.94 466.38 465.73 465.67 465.23 465.16 465.03 465.29 465.22 464.26 463.32 461.73 459.92 458.61 457.95 456.66 455.02 455.39 453.38 452.2 451.71 450.68 449.14 448.93 448.35 447.83 447.53 444.75 439.8 434.39 430.23 425.75 422.57 419.42 417.22 417.13 9999 9999 9999 9999 9999 9999 419.77 420.66 422.18 424.63 425.41 431.3 435.61 436.62 437.12 437.84 438.34 438.06 439.12 439.46 439.59 439.1 439.63 439.62 439.87 440.3 440.86 441.15 441.24 441.3 441.44 442.14 442.26 442.29 443.45 443.95 444.48 444.46 445.42 444.66 444.81 444.26 444.1 442.96 442.37 442.87 442.98 441.3 440.85 440.9 440.11 440.36 440.41 440.54 441.82 441.21 441.39 441.47 441.71 440.93 441.63 442.65 443.09 443 443 443.21 442.75 441.13 439.5 439.75 442.33 444.32 445.01 446.31 446.57 447.37 447.63 448.11 449.06 449.55 449.43 450.25 452.08 453.04 454.12 454.46 455.51 456.68 458.06 458.6 460.81 461.65 464.46 465.95 469.79 473.46 478.07 481.8 484.61 476.79 9999 9999 9999 487.16 488.52 490.13 491.36 489.85 488.06 486.32 484.31 483.63 483.46 482.91 482.22 481.57 481.99 480.83 479.57 478.76 478.3 476.91 475.59 473.19 472.03 470.23 470.03 468.02 466.73 465.14 463.88 463.45 461.99 460.99 462.26 462.56 463.49 464.17 465.22 465.24 465.59 465.8 467.82 467.85 467.51 468.38 468.93 468.28 470.05 470.71 470.13 470.58 470.92 471.42 470.86 472.37 473.24 474.11 474.8 474.91 475.36 474.43 475.05 474.77 473.64 473.18 472.22 470.53 470.62 469.49 468.9 469.34 469.18 469.04 469.81 469.67 468.51 468.93 468.24 466.55 465.32 465.31 463.47 462.15 461.01 458.89 457.75 456.22 454.85 454.13 452.25 450.44 448.68 447.06 444.87 443.28 441.28 440.32 439.55 437.87 437.54 436.72 436.53 436.13 435.12 435.07 438.76 441.59 437.78 432.7 430.12 427.44 427.15 426.94 427.69 427.81 427.78 429.63 428.54 429.58 428.44 429.17 427.97 428.66 431.73 433.36 429.17 9999 9999 9999 9999 9999 9999 9999 9999 9999 9999 9999 9999 9999 9999 9999 9999 9999 9999 426.61 428.43 426.99 9999 9999 431.16 426.6 429.91 433.99 430.53 425.48 9999 9999 9999 427.35 428.38 430.46 433.03 433.27 433.96 433.29 432.18 433.29 428.51 433.07 432.9 432.5 436.38 435.5 428.45 428.86 433.52 425.32 9999 9999 429.67 9999 9999 9999
9999 9999 9999 9999 9999 9999 9999 9999 9999 9999 9999 9999 9999 9999 9999 9999 9999 9999 9999 9999 9999 9999 9999 9999 9999 9999 9999 9999 9999 9999 9999 9999 9999 9999 9999 9999 9999 9999 9999 9999 9999 9999 9999 9999 9999 9999 9999 9999 9999 9999 9999 9999 421.96 421.54 419.43 418.12 418.78 417.52 418.03 418.08 418.41 419.81 420.05 421 422.49 422.73 423.34 423.65 424.64 425.47 425.72 426.15 426.93 426.93 428.19 428.68 429.48 429.12 430.05 430.46 431.91 433.43 432.84 433.83 435.36 437.05 438.6 440.76 441.78 444.17 445.87 447.67 450.65 452.6 454.42 456.32 457.52 459.28 460.91 461.06 462.97 463.94 464.16 465.56 465.95 465.84 466.14 465.9 465.11 465.91 465.48 465.18 464.13 464.13 464.73 463.89 464.47 464.47 463.03 463.06 461.24 460.09 458.96 459.38 456.57 455.5 453.6 453.71 453.34 452.22 451.04 450.19 449.66 448.33 447.15 445.27 446.01 443.28 436.37 431.02 428.28 421.72 418.09 417.1 415.48 9999 9999 9999 9999 9999 9999 9999 416.35 418.24 420.39 425.6 431.86 435.41 436.94 436.32 437.19 438.12 438.18 438.38 438.54 438.84 438.96 439.33 439.41 439.89 439.58 439.95 440.54 440.73 441.24 441.48 441.53 441.99 442.91 443.01 443.38 443.76 443.83 443.97 443.76 444.26 445.34 444 443.49 443.7 443.22 442.23 441.68 440.96 440.4 440.16 439.59 440.35 440.79 440.38 441.2 440.99 440.77 441.85 441.58 441.84 442.01 442.63 442.83 442.92 443.24 442.31 441.6 441.52 439.26 439.4 443.8 444.86 445.31 446.13 446.3 447.15 447.59 447.94 448.44 449.07 449.92 450.78 451.44 452.89 453.75 455.22 455.69 456.84 458.76 458.67 460.7 461.61 465.77 468.67 471.62 477.25 480.84 484.57 486.08 476.92 9999 9999 9999 9999 485.29 490.57 490.87 489.46 487.3 485.32 483.73 483.3 483.75 482.55 482.29 483.84 482.68 482.36 480.99 479.93 478.73 477.88 475.88 473.95 472.08 469.16 467.38 465.45 464.78 461.76 461.9 460.19 459.44 459.45 459.71 459.56 459.42 461.05 462.29 462.89 463.82 463.36 463.71 465.81 465.18 466.29 465.39 466.39 467.21 467.82 467.92 468.11 468.69 469.25 470.3 470.3 471.77 472.67 473.03 473.53 472.74 473.92 473.41 473.1 471.99 471.68 469.66 469.38 468.93 468.42 467.95 468.07 467.08 466.54 467.77 467.07 467.02 467.02 466.77 465.4 462.73 462.08 460.96 459.29 458.85 457.21 455.97 454.98 453.36 451 450.18 448.83 448.14 445.31 443.81 442.4 440.52 438.99 438.2 437.29 437.21 437.18 436.32 436.24 435.91 438.95 443.17 442.63 440.03 436.82 430.24 428.08 427.04 426.98 427.48 430.02 427.77 429.53 428.1 428.66 429.05 430.94 428.11 429.14 429.74 432.17 9999 9999 9999 9999 9999 9999 9999 9999 9999 9999 9999 9999 9999 9999 9999 9999 9999 9999 9999 9999 9999 9999 9999 9999 428.41 429.45 428.92 433.79 429.65 426.07 9999 9999 9999 9999 9999 428.95 432.77 433.54 432.72 433.93 431.98 432.61 432.32 9999 431.51 432.29 434.78 432.12 430.58 430.42 9999 9999 9999 9999 429.75 9999 9999 9999
9999 9999 9999 9999 9999 9999 9999 9999 9999 9999 9999 9999 9999 9999 9999 9999 9999 9999 9999 9999 9999 9999 9999 9999 9999 9999 9999 9999 9999 9999 9999 9999 9999 9999 9999 9999 9999 9999 9999 9999 9999 9999 9999 9999 9999 9999 9999 9999 9999 9999 9999 9999 421.94 419 417.6 416.47 416.94 417.17 417.23 417.46 418.1 420.55 421.41 422.04 422.43 422.9 423.32 424 424.09 424.78 425.77 425.79 426.15 427.13 428.01 428.5 429.04 429.14 430.41 430.19 431.49 432.04 432.71 433.6 434.69 436.53 438.67 441.15 441.87 444.2 446.24 448.07 450.62 452.43 454.57 456.04 457.67 458.39 459.74 461.04 462.45 463.39 464.34 465.33 464.41 464.99 465 464.51 463.77 464.28 463.48 463.93 464.05 463.32 463.47 463.14 462.69 462.82 462.57 462.27 460.54 459.37 458.07 457.08 456.26 454.45 453.62 453.29 451.91 451.02 450.21 449.97 448.39 447.4 446.51 445.06 441.73 437.45 433.83 427.32 424.78 418.62 416.65 9999 9999 9999 9999 9999 9999 9999 9999 9999 9999 416.39 418.21 422.78 430.13 433.77 436.11 436.92 436.98 437.75 437.2 437.88 437.74 438.24 438.97 439.03 439.4 439.57 440.13 440.01 440.09 439.99 441.69 440.97 441.4 441.68 442.66 443.01 442.64 443.28 443.32 443.56 444.1 444.32 444.61 444.81 443.08 443.01 442.02 440.92 441.14 439.92 439.97 439.95 439.77 439.6 439.76 439.64 440.41 441.33 440.72 441.09 440.98 441.32 441.9 442.19 442.7 442.21 441.76 441.22 439.25 437.46 437.82 438.65 443.32 445.3 445.5 445.76 446.15 446.71 447.33 447.9 448.37 448.62 450.03 450.57 451.63 452.46 453.71 455.04 455.98 456.47 457.48 459.64 461.96 463.07 466.01 471 475.06 480.01 484.95 487.61 485.73 477.93 9999 9999 9999 9999 483.03 487.36 489.69 489.51 487.46 484.09 483.68 482.58 483.15 484.29 485.12 485.87 485.63 484.13 482.71 481.18 479.4 477.23 475.73 474.51 471.64 469.29 468.31 464.61 461.6 460.62 459.05 459.01 458.32 456.55 456.68 457.86 459.06 458.97 460.07 461.07 462.46 460.33 461.92 461.99 462.46 462.74 463.27 464.1 464.05 464.56 465.97 465.93 466.1 467.67 468.53 468.84 468.96 470.28 470.39 470.76 471.44 471.85 471.37 470.68 470.1 469.03 468.78 467.73 467.49 466.64 466.22 465.76 465.09 465.57 465.57 465.15 465.08 463.93 463.75 463.29 462.12 460.3 459.14 457.51 455.84 455.29 454.81 452.88 451.24 449.57 448.87 447.99 446.36 443.77 442.05 441.01 439.19 437.94 438.01 437.86 436.8 436.79 436.41 436.4 438.02 442.05 444.2 442.9 438.69 436.89 430.06 429.64 427.13 427.27 426.95 427.35 426.93 426.4 426.53 426.74 428.27 429.55 423.61 9999 429.34 430.55 9999 9999 9999 9999 9999 9999 9999 9999 9999 9999 9999 9999 9999 9999 9999 9999 9999 9999 9999 9999 9999 9999 9999 9999 427.77 429.42 430.71 434.05 430.8 426.56 9999 9999 9999 9999 9999 431.14 432.82 429.56 431.91 435.24 434.47 434.65 432.46 432.22 426.71 431.95 433.86 433.88 9999 430.08 9999 9999 9999 9999 431.05 429.76 9999 9999
9999 9999 9999 9999 9999 9999 9999 9999 9999 9999 9999 9999 9999 9999 9999 9999 9999 9999 9999 9999 9999 9999 9999 9999 9999 9999 9999 9999 9999 9999 9999 9999 9999 9999 9999 9999 9999 9999 9999 9999 9999 9999 9999 9999 9999 9999 9999 9999 9999 9999 9999 9999 420.35 417.13 416.04 416.45 416.6 417.03 417.99 419.46 420.16 420.99 421.92 421.62 422.44 423.01 423.98 423.98 423.81 424.87 425.01 425.37 426.03 426.9 427.04 427.88 428.73 428.74 428.76 430.72 431.63 431.92 432.67 433.08 434.18 435.46 438.49 439.86 441.29 444.1 445.63 448.53 449.29 452.35 453.02 455.67 457.07 457.49 458.74 459.94 461.68 462.96 464.58 464.56 463.53 464.07 464.31 464.37 463.98 463.59 462.44 461.59 461.21 461.97 462.33 461.2 461.85 461.87 461.37 459.18 458.35 456.88 457.42 455.74 454.53 454.01 453.42 451.42 451.8 450.21 449.88 449.72 448.67 447.2 444.51 441.46 438.87 435.63 430.85 423.7 421.5 419.05 9999 9999 9999 9999 9999 9999 9999 9999 9999 9999 9999 9999 9999 420.38 426.36 431.29 434.03 436.06 436.76 437.38 437.24 437.62 438.69 438.25 438.17 438.15 439.24 439.61 439.5 439.95 439.37 440.4 440.21 441.31 441.34 442.33 442.94 442.57 443.13 444.06 443.19 443.62 444.45 444.38 444.56 443.45 443.18 442.51 441.07 440.58 439.67 439.85 439.15 439.23 439.75 439.59 439.82 439.32 439.84 440.61 440.4 440.48 440.73 441.28 441.31 441.8 441.92 442.04 441.3 437.86 437.2 437.71 439.41 442.48 444.41 444.55 445.45 446.05 445.96 447.07 447.09 447.93 448.77 449.02 449.91 451.04 451.55 452.39 454.01 454.6 456.04 457 457.74 460.21 461.9 464.43 467.52 472.96 479.57 484.1 487.67 489.01 487.64 479.84 474.32 9999 9999 479.1 485.97 487.37 489.83 489.23 486.15 484.62 483.03 482.96 485.37 486.96 488.01 488.46 486.97 485.43 483.18 482.01 479.26 477.49 475.36 473.49 472.27 470.81 468.58 464.62 461.06 458.94 456.68 456.35 455.29 455.35 455.02 456.09 456.29 457.86 456.57 457.42 457.46 458.42 458.61 459.92 459.62 459.57 459.45 461.61 462.28 462.52 463.21 464.1 463.99 464.4 465.5 466.88 468.28 468.74 470.07 469.34 469.07 469.7 469.6 468.5 467.82 467.61 467.42 465.69 465.69 465.26 464.61 464.61 464.53 464.38 464.25 462.98 462.9 462.07 461.63 461.81 459.9 457.72 456.71 455.72 453.92 454.3 452.35 451.79 449.68 448.14 446.49 445.89 445.62 443.29 442.13 440.28 438.88 438.71 438.1 438.51 437.62 436.87 437.09 441.51 442.39 443.94 443.66 442.05 437.28 434.87 431.04 428.86 427.36 426.65 426.77 427.2 427.01 426.38 426.7 427.32 428.83 429.88 9999 9999 429.25 429.15 9999 9999 9999 9999 9999 9999 9999 9999 9999 9999 9999 9999 9999 9999 9999 9999 9999 9999 9999 9999 9999 9999 9999 9999 9999 428.93 430.33 432.9 429.06 430.04 9999 9999 9999 9999 9999 9999 9999 9999 9999 430.14 9999 9999 434.14 435.68 433.59 428.01 426.19 425.49 429.34 432.32 9999 9999 9999 9999 430.41 430.43 9999 9999
9999 9999 9999 9999 9999 9999 9999 9999 9999 9999 9999 9999 9999 9999 9999 9999 9999 9999 9999 9999 9999 9999 9999 9999 9999 9999 9999 9999 9999 9999 9999 9999 9999 9999 9999 9999 9999 9999 9999 9999 9999 9999 9999 9999 9999 9999 9999 9999 9999 9999 9999 9999 419.69 416 416.05 417.26 417.59 418.16 419.42 419.63 420.39 420.6 421.4 422.17 422.29 423.48 423.93 423.85 424.37 424.71 424.75 425.46 425.98 426.34 427.09 427.76 428.5 428.84 429.07 430.96 431.34 431.66 432.18 433.67 434.64 435.89 437.87 439.69 442 443.87 445.59 447.3 448.8 450.91 452.41 454.19 455.24 456.93 457.73 459.18 460.14 461.53 462.43 463.38 463.81 463.75 463.56 462.82 462.05 462.04 461.34 461.48 460.65 460.04 460.46 459.93 460.24 459.46 457.89 457.69 457.07 456.7 455.22 453.98 453.3 452.28 452.93 451.55 450.23 450.26 449.25 447.67 446.92 445.14 442.23 439.92 436.79 433.37 428.29 421.91 417.92 9999 9999 9999 9999 9999 9999 9999 9999 9999 9999 9999 9999 9999 9999 417.54 422.82 429.33 433.81 434.66 436.11 437.1 437.18 436.99 437.45 438.47 438.35 438.94 439.45 438.93 439.03 439.85 439.41 440.57 440.54 440.8 442.08 441.43 441.96 443.57 443.14 443.48 443.19 444.12 443.93 443.45 443.48 443.5 442.28 442.05 441.32 438.77 439.73 439.37 438.72 439.74 438.78 439.13 439.06 438.65 439.31 440.05 439.37 440.44 440.92 440.4 441.29 442.02 442.07 441.28 441.21 437.5 436.44 436.51 440.29 443.28 443.96 444.89 445 444.85 445.84 446.46 446.56 447.11 447.9 449.74 450.34 451.32 451.98 452.23 453.56 454.17 455.27 456.86 458.62 460.82 463.47 465.6 470.09 474.52 480.45 486.84 490.21 490.67 491.94 485.55 481.34 476.67 9999 481.63 485.68 488.49 491.03 489.5 486.98 484.58 483.15 483.26 486.89 488.64 488.13 486.62 486.63 485.2 484.34 482.53 479.59 478.19 475.62 473.19 470.74 470.19 468.35 465.87 461.01 458.11 455.91 454.78 454.42 454.33 454.17 453.83 454.05 455.3 455.1 455.69 456.17 456.41 456.72 457.06 456.97 457.43 458.25 458.57 460.31 459.72 460.59 461.02 462.24 463.09 464.74 465.62 465.93 466.84 467.38 467.57 468.52 466.46 466.7 466.7 466.07 465.84 465.6 465.65 464.17 463.98 463.63 463.38 463.27 463.51 462.7 462.51 461.53 460.77 459.79 458.64 458.65 458.24 456.78 453.87 453.25 452.59 451.01 449.87 447.73 446.79 445.4 444.48 443.95 442.6 441.27 441.15 439.86 439.88 439.24 439.5 440.02 441.29 442.6 444.07 443.56 443.08 442.71 437.61 437.14 432.98 430.17 429.04 427.39 426.79 426.9 426.46 426.26 426.46 426.54 428.83 430.82 429.55 9999 9999 434.19 9999 9999 9999 9999 9999 9999 9999 9999 9999 9999 9999 9999 9999 9999 9999 9999 9999 9999 9999 9999 9999 9999 9999 9999 9999 9999 9999 429.13 429.74 427.96 428.85 428.41 425.01 9999 9999 9999 9999 9999 9999 9999 9999 9999 432.64 435.35 434.15 432.49 432.82 432.29 432.8 434.39 428.86 9999 9999 9999 9999 428.6 429.02 9999 9999
9999 9999 9999 9999 9999 9999 9999 9999 9999 9999 9999 9999 9999 9999 9999 9999 9999 9999 9999 9999 9999 9999 9999 9999 9999 9999 9999 9999 9999 9999 9999 9999 9999 9999 9999 9999 9999 9999 9999 9999 9999 9999 9999 9999 9999 9999 9999 9999 9999 9999 9999 9999 417.27 416.07 415.4 416.32 416.71 418.13 419.62 419.52 420.58 420.8 421.73 421.25 422.63 422.89 423.49 423.16 423.44 423.86 424.83 425.25 425.69 426.53 426.48 427.42 428.46 428.85 429.4 429.53 430.97 432.03 432.48 433.77 434.41 436.4 438.05 438.95 441.35 443.15 444.31 445.55 447.97 449.65 451.23 452.35 453.98 454.1 456.17 457.12 459.01 460.01 461.47 462.21 462.78 463.51 462.37 462.93 461.84 461.07 460.56 460.17 459.93 459.42 458.22 457.66 458.69 457.83 456.81 457.28 455.82 453.85 453.37 453.08 452.84 451.89 450.72 451.23 449.96 449.57 449.01 448.24 446.47 443.8 440.75 435.72 432.64 428.11 423.32 419.95 9999 9999 9999 9999 9999 9999 9999 9999 9999 9999 9999 9999 9999 9999 9999 417.86 423.67 429.33 433.85 435.5 436.75 436.39 437 437.84 437.85 438.76 438.7 439.32 439.33 438.77 438.57 439.04 439.87 439.66 439.71 441.31 441.22 441.58 442.46 442.5 442.16 442.51 442.7 442.94 443.1 442.59 442.6 442.38 441.39 440.69 439.9 439.59 438.61 438.68 438.9 438.59 438.68 438.7 438.83 438.88 439.58 439.74 440.46 439.71 439.78 441.14 440.64 440.83 441.07 441.07 440.15 436.71 435.54 438.45 442.39 442.88 443.91 444.56 445.17 445.36 445.66 446.32 446.44 447.54 448.97 449.08 450.36 451.3 451.51 452.44 453.73 454.64 455.38 456.56 458.94 460.62 464.33 467.58 472.29 477.62 484.4 488.46 490.53 493.13 492.94 488.27 485.24 477.89 9999 483.08 487.46 489.89 492.66 490.9 487.64 487.77 484.86 484.34 487.27 488.5 487.8 487.29 485.55 483.35 481.98 481.83 480.29 477.18 475.53 473.25 472.3 470.76 468.72 466.56 463.41 458.52 455.65 453.66 452.26 452.59 453.03 451.78 452.53 453.42 453.88 453.57 453.04 453.28 455.2 455.65 454.98 455.91 455.83 457.13 458.15 458.52 458.78 459.37 460.4 460.78 462.41 463.74 465.09 466.5 465.75 467.01 466.63 464.16 463.81 464.79 464.11 464.69 465.04 464.57 463.53 462.99 461.76 463.24 462.17 462.26 461.66 460.96 460.24 460.22 459.32 458.63 457.03 455.94 454.71 452.24 451.62 450.62 449.84 448.37 446.44 446.42 444.79 443.5 442.77 443.48 442.77 441.86 440.71 441.89 442.04 441.5 443.22 443.04 442.38 443.02 442.18 440.75 441.19 437.08 435.19 432.87 431.12 427.83 427.31 426.8 426.7 426.69 426.81 426.79 426.69 428.47 429.93 424.35 9999 9999 430.16 9999 9999 9999 9999 9999 9999 9999 9999 9999 9999 9999 9999 9999 9999 9999 9999 9999 9999 9999 9999 9999 9999 9999 9999 9999 9999 9999 428.2 430.44 430.02 429.54 430.22 430.76 424.07 9999 9999 9999 9999 9999 9999 9999 9999 434.73 434.85 435.33 435.53 431.92 432.22 433.61 436.36 431.3 9999 9999 9999 9999 427.7 428.71 9999 9999
9999 9999 9999 9999 9999 9999 9999 9999 9999 9999 9999 9999 9999 9999 9999 9999 9999 9999 9999 9999 9999 9999 9999 9999 9999 9999 9999 9999 9999 9999 9999 9999 9999 9999 9999 9999 9999 9999 9999 9999 9999 9999 9999 9999 9999 9999 9999 9999 9999 9999 9999 9999 9999 415.29 415.24 416.02 416.14 418.68 419.45 420.27 420.4 420.51 421.25 421.91 422.4 422.37 423.06 423.51 423.88 424.36 425.21 425.11 425.27 426.29 426.84 427.16 428.05 428.72 429.25 429.97 430.38 432.48 431.93 433.69 435.21 435.82 437.14 439.41 440.71 441.99 443.29 445.06 446.83 448.74 448.9 450.83 451.73 453.12 454.95 456.25 458.02 458.83 460.41 461.31 461.8 462.05 462.52 461.63 460.64 459.52 459.29 458.49 458.02 457.67 456.89 456.56 456.27 455.38 454.43 454.1 453.83 453.04 452.06 452 451.46 450.65 450.57 450.4 450.21 448.71 448.6 446.9 444.19 439.66 436.72 433.22 429.38 425.88 422.56 416.57 9999 9999 9999 9999 9999 9999 9999 9999 9999 9999 9999 9999 9999 9999 9999 418.14 425.23 431.49 435.16 436.19 436.42 436.71 436.99 436.99 437.7 437.71 438.58 438.91 438.81 438.5 439.1 439.46 439.52 440.14 440.36 441.4 441.41 441.15 441.48 442.23 442.79 443.08 443.26 443.01 443.03 441.9 442.39 440.63 439.81 439.26 439.18 438.45 438.47 438.56 437.99 438.57 438.71 438.23 438.87 439.11 439.15 439.21 439.47 439.67 440.57 440.98 440.61 440.59 440.68 439.97 439.68 436.77 435.8 441.06 442.09 443.47 443.97 444.6 444.45 445.1 445.47 446.15 446.62 446.98 447.72 449.07 449.51 450.25 451.03 452.19 453.57 454.41 456.41 457.43 459.12 461.33 465.41 469.89 474.07 480.33 486.5 490.81 492.87 493.8 493.51 489.9 482.8 477.65 478.27 484.13 488.72 491.06 493.31 492.41 490.87 488.94 487.62 486.24 486.84 488.23 487.21 485.62 483.52 482.14 481.9 480.76 480.54 478.34 476.03 472.66 471.64 470.5 468.32 466.69 463.75 459.73 457.66 454.14 452.39 451.81 452.14 451.31 451.01 450.28 451.58 451.83 451.68 451.38 452.87 453.39 452.15 453.24 454 455.67 456.39 456.46 456.25 457.58 458.32 459.18 460.79 462.34 464.73 464.76 464.26 464.26 463.62 463.47 463.32 462.96 462.8 462.46 462.77 462.88 463.06 461.65 461.22 461.35 461.29 460.84 460.34 459.6 458.99 458.26 458.08 456.87 454.21 453.4 452.2 451.37 450.76 449.34 448.32 446.22 444.6 444.48 443.9 442.89 443.01 443.12 443.75 443.82 443.27 443.3 443.96 443.78 444.18 443.39 444.08 441.99 439.69 439.49 439.38 434.36 432.81 430.42 428.74 427.46 426.6 426.69 426.54 426.96 426.92 426.78 426.86 428.29 427.97 9999 9999 9999 9999 9999 9999 9999 9999 9999 9999 9999 9999 9999 9999 9999 9999 9999 9999 9999 9999 9999 9999 9999 9999 9999 9999 9999 9999 9999 9999 9999 9999 431.37 433.14 432.42 434.35 432.86 431.55 426.38 9999 9999 9999 9999 9999 9999 9999 9999 430.74 433.21 434.01 432.39 428.34 429.79 430.16 430.09 428.65 427.28 427.15 428.83 428.01 429.82 9999 9999
9999 9999 9999 9999 9999 9999 9999 9999 9999 9999 9999 9999 9999 9999 9999 9999 9999 9999 9999 9999 9999 9999 9999 9999 9999 9999 9999 9999 9999 9999 9999 9999 9999 9999 9999 9999 9999 9999 9999 9999 9999 9999 9999 9999 9999 9999 9999 9999 9999 9999 9999 9999 9999 415.58 415.21 415.18 416.69 418.52 419.69 420.34 420.64 420.7 421.63 421.73 421.95 422.68 423.01 423.6 423.91 424.35 425.12 424.25 425.45 425.64 426.07 427.32 428.13 429.11 429.21 429.74 430.15 431.36 432.05 433.05 434.29 436.44 437.44 439.34 439.7 441.32 443.32 443.76 445.77 447.15 448.73 450.02 450.92 452.06 453.09 454.06 456.11 457.31 458.58 460.58 460.84 461.12 460.64 460.38 459.9 458.19 458.06 457.19 456.39 455.8 455.32 454.06 453.83 453.2 452.91 452.44 452.19 452.42 450.88 450.44 450.26 449.9 449.48 449.78 449.04 448.04 446.12 444.3 441.12 436.95 434.39 430.75 425.92 420.53 417.53 9999 9999 9999 9999 9999 9999 9999 9999 9999 9999 9999 9999 9999 9999 9999 9999 416.23 427.42 432.01 434.71 435.67 436.19 436.63 436.84 436.72 437.56 438.06 437.76 438.07 437.84 438.8 439.6 440.31 439.7 440.34 440.21 440.3 440.97 441.37 441.62 442.04 441.66 441.79 442.42 442.86 442.24 442.12 440.93 440.7 439.86 438.43 437.65 437.73 438.02 437.74 437.82 438.14 438.44 437.95 438.04 438.38 439 438.95 439.19 439.16 439.8 440.05 440.75 440.74 440.02 440.67 438.41 435.74 434.79 437.8 442.43 443.1 443.59 444.13 443.98 444.66 445.11 446.3 446.25 447.25 447.92 448.47 449.09 449.81 450.98 452.09 453.14 454.26 455.29 457.21 459.5 462.44 465.79 471.28 476.14 482.74 487.89 491.6 494.3 495.4 496.39 491.96 485.77 479.83 480.67 488.11 490.81 492.37 493.54 494.21 492.54 491.15 490.85 487.45 487.23 486.55 486.21 484.1 482.75 481.73 480.27 479.48 478.72 477.66 476.05 473.23 470.9 469.1 467.83 466.82 465.85 461 458.33 454.84 452.2 451.54 450.9 450.02 449.32 450.11 449.82 449.23 449.42 450.39 450.09 451.6 451.62 451.5 452.01 452.54 454.37 454.36 454.48 456.04 456.22 458.08 459.03 460.81 462.47 462.92 463.03 463.92 463.21 462.69 462.11 461 460.64 462 462.54 462.95 461.95 461.28 461.76 460.31 459.82 458.89 459.25 458.37 458.61 457.3 456.35 456.48 454.69 452.52 451.85 450.37 449.44 447.24 447.22 446.9 444.27 443.36 442.76 443.7 444 444.01 443.2 443.43 444.32 444.33 445.92 444.48 443.52 442.75 442.81 439.75 438.52 436.1 432.53 431.97 429.93 429.29 428.84 427.27 426.33 426.66 427.84 428.99 429.93 427.23 426.79 429.64 427.97 9999 9999 9999 9999 9999 9999 9999 9999 9999 9999 9999 9999 9999 9999 9999 9999 9999 9999 9999 9999 9999 9999 9999 9999 9999 9999 9999 9999 9999 9999 9999 9999 428.9 432.36 432.77 434.86 437.07 433.72 429.32 425.65 9999 9999 9999 9999 9999 9999 430.29 433.44 429.96 429.44 431.28 428.69 429.7 433.01 434.78 435.63 434.62 434.06 432.93 432.01 431.27 9999 9999
9999 9999 9999 9999 9999 9999 9999 9999 9999 9999 9999 9999 9999 9999 9999 9999 9999 9999 9999 9999 9999 9999 9999 9999 9999 9999 9999 9999 9999 9999 9999 9999 9999 9999 9999 9999 9999 9999 9999 9999 9999 9999 9999 9999 9999 9999 9999 9999 9999 9999 9999 9999 9999 414.53 414.86 415.25 417.88 418.01 419.48 419.84 420.64 420.48 420.97 421.46 422.07 422.21 422.45 423.81 423.41 424 424.54 424.08 424.85 425.35 426.2 427.01 427.96 428.66 429.62 429.59 429.97 431.35 432.05 433.12 434.2 435.14 436.63 438.54 440.18 441.66 443.13 444.1 445.31 446.79 447.22 448.09 450.25 451.17 452.21 453.81 454.99 456.88 458.09 459.16 459.58 459.5 460.06 460.18 459.1 458.43 458.44 456.7 455.77 454.21 453.56 454.08 453.26 452.05 451.21 450.59 450.72 449.92 449.24 449.27 449.16 449.62 448.55 448.74 447.82 446.26 443.82 441.52 439.22 434.57 429.37 425.58 421.41 418.9 9999 9999 9999 9999 9999 9999 9999 9999 9999 9999 9999 9999 9999 9999 9999 9999 9999 9999 423.39 428.6 433.39 435.82 435.86 435.91 436.26 437.3 437.03 436.43 437.98 438.34 438.09 439.17 439.26 438.76 439.47 440.07 440.1 440.86 440.75 440.94 441.93 442.03 442.01 442.09 441.77 441.97 441.67 441.6 440.08 439.23 437.76 437.57 437.84 437.92 437.53 438.31 437.37 437.67 437.77 438.16 438.14 438.38 438.53 439.12 438.46 438.63 439.36 440.38 439.6 440.25 438.59 434.92 433.98 433.8 434.4 434.41 440.09 442.75 443.41 443.5 444.6 444.62 444.79 445.63 446.56 447.42 447.62 448.76 449.65 450.44 451.32 452.23 453.05 453.92 455.52 457.8 459.95 463.59 466.9 471.13 475.12 484.35 490.13 493.4 495.23 496.76 496.3 493.49 491.86 485.59 486.23 490.38 493.45 493.76 494.44 494.3 493.67 492.05 489.32 487.87 485.98 485.63 483.99 480.59 481.07 479.26 478.31 478.21 477.74 477.65 475 472.95 470.18 468.29 466.86 466.55 466.74 462.87 459.99 455.42 453.6 452.28 449.64 449.13 448.52 447.23 447.75 448.22 448 448.06 449.77 449.97 449.45 449.41 449.65 450.49 452.12 453.16 453.37 454.23 454.9 456.42 458.95 460.01 461.15 462.47 462.37 462.5 462.55 462.3 460.84 460.84 461.3 460.69 461.94 462.52 461.88 460.68 459.98 458.77 458.59 458.52 456.37 455.77 455.67 455.92 454.89 454.7 454.39 453.38 450.49 448.97 447.82 445.98 445.55 445.82 443.61 442.31 443 443.66 443.18 443.04 442.3 441.36 443.61 444.89 445.2 443.71 442.76 441.2 439.92 436.34 433.26 433.15 432.63 431.09 429.02 428.79 426.96 426.34 426.59 428.49 428.7 428.33 430.09 430.78 428.42 429 426.09 9999 9999 9999 9999 9999 9999 9999 9999 9999 9999 9999 9999 9999 9999 9999 9999 9999 9999 9999 9999 9999 9999 9999 9999 9999 9999 9999 9999 9999 9999 9999 9999 9999 430.59 431.39 434.46 436.21 435.25 431.72 428.89 9999 9999 9999 9999 9999 9999 428.24 431.86 431.64 433.27 434.1 435.62 434.9 435.33 434.06 434.6 434.21 433.7 433.25 432.82 432.39 9999 9999
9999 9999 9999 9999 9999 9999 9999 9999 9999 9999 9999 9999 9999 9999 9999 9999 9999 9999 9999 9999 9999 9999 9999 9999 9999 9999 9999 9999 9999 9999 9999 9999 9999 9999 9999 9999 9999 9999 9999 9999 9999 9999 9999 9999 9999 9999 9999 9999 9999 9999 9999 9999 9999 415.28 415.11 416.96 417.17 418.49 418.53 419.76 419.34 420.48 420.99 421.29 421.84 422.05 422.77 423.13 423.09 424.38 424.32 425.02 425.37 425.63 426.37 426.84 427.44 428.75 430.33 430.2 430.11 431.81 432.05 432.58 434.1 435.36 436.32 438.08 439.19 441.38 442.39 442.8 444.57 445.23 446.79 448.27 449.13 450.69 452.25 452.74 453.83 455.76 457.22 458.86 458.86 460.34 460.08 460.3 458.63 457.98 457.12 455.86 455.34 453.96 453.11 451.87 451.7 450.48 449.66 449.72 448.38 448.67 447.91 447.67 448.12 448.01 447.77 447.33 447.12 444.88 441.77 438.39 434.5 432.76 428.02 422.56 418.65 9999 9999 9999 9999 9999 9999 9999 9999 9999 9999 9999 9999 9999 9999 9999 9999 9999 9999 418.36 424.38 429.68 433.21 435.76 435.93 436.43 436.36 436.64 436.95 437.1 436.93 438.18 439.15 439.14 439.27 439.07 439.38 440.01 440.19 440.54 440.72 441.15 441.18 441.01 441.45 442.04 441.2 441.63 440.45 440.28 439.72 438.6 437.93 437.61 436.58 437.11 437.28 437.05 436.83 437.71 437.06 437.85 438.12 438.04 438.48 438.32 438.81 439.29 439.51 439.77 439.22 437.71 432.18 433 433.62 433.27 433.78 437.15 441.72 443.39 443.51 444.06 443.72 444.24 444.94 445.17 446.45 446.68 447.8 448.78 449.66 450.31 451.42 451.9 453.09 454.09 455.71 457.32 460.09 463.83 467.33 473.04 478.78 484.8 492.45 494.35 497.06 497.19 495.8 495.48 491.6 489.26 489.7 492.6 493.82 494.85 494.63 493.69 492.48 491.19 488.43 486.35 483.62 481.25 478.73 478.56 478.73 477.38 477.16 476.14 475.87 475.3 473.88 472.87 469.33 467.33 465.63 465.19 464.32 462.38 459.92 457.06 454.4 452.68 452 448.11 447.6 447.2 446.86 446.38 446.81 447.21 447.78 447.45 448.37 447.87 448.29 448.8 448.97 449.62 451.32 451.49 454.14 455.73 459.31 459.08 460.15 461.42 461.13 460.89 460.93 461.82 460.27 458.44 459.16 458.98 459.07 461.07 460.89 459.7 458.09 457.9 458.05 456.11 455.52 454.79 454.88 454.01 453.9 454.25 453.08 451.77 451 448.79 447.1 446.46 444.23 443.72 443.09 442.01 442.3 442.95 442.1 440.31 441.08 440.06 442.26 443.46 442.63 443.65 437.58 435.45 433.59 431.94 430.85 430.52 430.56 428.41 428.3 426.97 426.39 426.61 428.71 428.87 429.35 432.31 431.7 432.45 427.68 426.18 424.53 9999 9999 9999 9999 9999 9999 9999 9999 9999 9999 9999 9999 9999 9999 9999 9999 9999 9999 9999 9999 9999 9999 9999 9999 9999 9999 9999 9999 9999 9999 9999 9999 9999 429.12 432.88 434.4 435.88 435.1 433.74 429.8 424.65 9999 9999 9999 9999 9999 431.13 431.52 432.24 433.93 433.98 434.38 434.82 434.24 434.44 433.63 433.65 433.58 433.52 432.85 433.38 9999 9999
9999 9999 9999 9999 9999 9999 9999 9999 9999 9999 9999 9999 9999 9999 9999 9999 9999 9999 9999 9999 9999 9999 9999 9999 9999 9999 9999 9999 9999 9999 9999 9999 9999 9999 9999 9999 9999 9999 9999 9999 9999 9999 9999 9999 9999 9999 9999 9999 9999 9999 9999 9999 9999 414.2 415.7 417.19 418.04 418.28 418.63 419.23 420.16 419.81 420.98 421.18 421.92 421.98 422.66 422.79 423.21 423.88 423.84 424.44 425.21 425.41 426.45 426.97 428.1 428.98 429.22 429.29 430.8 431 431.32 432.71 434.02 434.75 436.25 436.69 439.3 439.92 441.58 443.32 444.21 444.72 446.4 447.5 449.21 450.53 451.86 452.91 453.73 456.28 456.71 457.71 458.98 458.78 458.98 459.26 458.54 457.96 456.9 455.64 454.37 453.06 451.97 451.19 450.34 450.38 449.82 449.41 447.62 447.83 446.95 447.6 448.26 446.88 447.6 446.33 444.71 442.93 439.92 437.48 432.96 429.74 425.89 421.12 9999 9999 9999 9999 9999 9999 9999 9999 9999 9999 9999 9999 9999 9999 9999 9999 9999 9999 9999 420.49 425.77 431.95 433.79 435.47 435.72 436.15 435.4 436.37 436.57 437.24 437.4 438.21 438.11 438.96 439.4 439.3 439.73 439.86 439.92 440.17 440.44 441.58 441.14 441.04 441 441.44 441.1 441.48 440.83 440.23 439.23 437.63 437.06 436.59 436.83 436.86 436.68 437 436.74 437 437.38 437.27 437.52 437.65 437.79 437.62 438.18 438.51 439.71 439.18 436.64 432.64 432.71 433 432.62 433.22 434.73 440.07 441.66 442.55 443.45 443.53 443.87 444.53 445.03 445.95 446.32 447.37 447.96 449.03 449.64 450.33 450.42 451.74 452.45 454.06 456.02 457.83 461.27 465.38 469.25 474.76 481.93 487.82 492.39 496.02 496.59 496.87 495.73 494.54 491.25 489.24 488.24 491.26 492.59 493.19 494.51 492.34 491.86 490.29 487.68 484.41 480.19 478.16 475.74 474.99 474.78 473.36 474.29 473.28 473.19 473.09 471.55 468.85 466.91 464.65 463.13 462.9 460.98 460.36 457.39 456.1 455.67 453.9 452.33 448.74 447.19 446.02 445.82 445.94 446.13 445.73 446.07 446.99 447.17 446.81 446.62 446.59 447.82 448.54 449.52 450.15 451.51 453.57 457.16 457.74 459.07 460.58 460.35 460.47 459.89 458.74 457.73 457.28 458.19 457.47 457.42 458.34 458.86 458.53 457.85 456.96 456.17 455.52 453.53 452.98 453.64 452.83 453.47 453.38 453 452.25 451.09 448.42 447.74 445.08 443.77 442.31 441.3 441.25 441.07 442.41 441.04 438.66 438.67 438.54 440.06 439.6 437.57 437.82 432.61 429.87 428.76 429.07 427.53 426.76 427.26 427.13 426.91 427.02 427.08 427.31 428.11 429.49 430.19 430.8 430.79 430.37 428.49 427.14 9999 9999 9999 9999 9999 9999 9999 9999 9999 9999 9999 9999 9999 9999 9999 9999 9999 9999 9999 9999 9999 9999 9999 9999 9999 9999 9999 9999 9999 9999 9999 9999 9999 9999 9999 428.41 433.84 436.16 436.32 434.96 430.9 427.09 9999 9999 9999 9999 9999 429.91 432.22 431.52 433.34 434.54 434.28 434.14 434.46 434.06 433.33 433.43 433.64 433.15 433.52 433.37 9999 9999
9999 9999 9999 9999 9999 9999 9999 9999 9999 9999 9999 9999 9999 9999 9999 9999 9999 9999 9999 9999 9999 9999 9999 9999 9999 9999 9999 9999 9999 9999 9999 9999 9999 9999 9999 9999 9999 9999 9999 9999 9999 9999 9999 9999 9999 9999 9999 9999 9999 9999 9999 9999 9999 414.72 416.19 416.86 417.77 418.74 419.03 418.91 419.44 419.9 420.92 420.54 422.06 421.58 422.52 422.6 423 423.42 423.39 424.07 424.6 425.84 426.22 427.53 428.17 428.45 429.3 429.68 430.52 430.27 431.59 432.12 433.17 434.4 436.39 437.72 438.93 440.25 441.95 443.28 443.68 445.64 445.86 448.06 448.67 450.17 452.16 452.72 454.36 455.58 456.28 457 457.57 458.62 458.63 458.2 457.68 457.14 456.77 454.95 454.44 451.99 451.83 450.7 449.59 448.1 447.76 447.55 447.62 447.22 446.44 446.29 446.48 446.2 447.41 446.9 443.9 442.23 438.3 435 430.95 427.64 423.03 420.28 9999 9999 9999 9999 9999 9999 9999 9999 9999 9999 9999 9999 9999 9999 9999 9999 9999 9999 418.02 423.51 426.77 431.64 433.86 435.01 435.81 435.15 436.09 435.79 437.18 437.67 437.68 437.3 438.02 438.71 439.16 439.14 439.22 439.62 439.36 440.4 440.19 440.83 440.92 440.87 441.32 440.86 440.62 440.71 439.02 438.98 437.17 437.09 436.84 435.5 436.2 436.28 437.01 436.13 436.08 436.29 436.59 437.09 437.77 437.09 436.85 437.44 438.12 438.96 439.11 438.17 433.4 431.8 431.87 433.61 433.56 435.23 438.46 441.33 441.8 442.02 442.55 443.14 443.78 444.6 445.69 446.11 446.69 446.98 448.41 448.5 449.23 450.66 450.16 451.72 452.61 454.34 455.93 457.83 461.03 465.69 470.61 478.81 485.19 490.6 494.2 495.93 497.68 496.7 496.32 493.33 490.79 488.5 487.7 488.93 490.96 491.94 492.4 491.55 489.59 489.32 486.03 482.8 479.33 473.07 9999 9999 472.23 472.27 472.51 471.69 470.48 469.46 467.8 466.75 466.02 463.57 462.74 461.09 462.12 459.17 457.21 456.65 456.63 453.82 451.42 448.18 446.08 445.03 445.59 445.89 446.14 445.65 444.65 445.18 446.13 446.72 445.3 445.74 447.07 447.94 447.66 448.91 450.47 452.24 456.61 457.4 458.47 459.87 459.36 460.31 459.18 458.51 457.11 455.27 455.77 455.92 456.67 457.13 457.71 457.87 456.97 456.37 454.96 454.11 452.75 452.63 451.77 452.04 453.54 453.11 452.04 451.57 449.48 448.35 446.51 445.03 444.34 441.74 440.19 440.32 440.76 440.92 439.91 438.93 434.43 433.59 433.84 431.32 430.03 429.2 427.53 427.39 427.49 427.09 427.4 427.26 427.24 427.23 426.19 426.86 426.97 427.93 429.33 430.23 430.71 9999 9999 9999 9999 9999 9999 9999 9999 9999 9999 9999 9999 9999 9999 9999 9999 9999 9999 9999 9999 9999 9999 9999 9999 9999 9999 9999 9999 9999 9999 9999 9999 9999 9999 9999 9999 9999 9999 9999 9999 9999 434.18 436.5 437.4 434.6 433.13 431.22 427.99 425.08 9999 9999 9999 9999 9999 430.02 432.47 433.61 433.55 434.11 433.65 433 433.65 433.57 433.46 432.74 433.23 432.34 9999 9999
9999 9999 9999 9999 9999 9999 9999 9999 9999 9999 9999 9999 9999 9999 9999 9999 9999 9999 9999 9999 9999 9999 9999 9999 9999 9999 9999 9999 9999 9999 9999 9999 9999 9999 9999 9999 9999 9999 9999 9999 9999 9999 9999 9999 9999 9999 9999 9999 9999 9999 9999 9999 9999 415.24 416.53 417.06 417.79 417.98 418.48 419.07 419.32 419.63 420.11 420.89 421.39 421.17 422.05 422.15 423.32 423.27 423.71 424.45 424.83 426.16 427.71 427.78 429.18 428.38 428.84 429.32 430.28 430.34 431.06 431.9 434.05 435.14 435.93 437.53 438.27 440.02 442.55 443.36 444.85 445.34 446.19 447.64 448.75 449.77 452.01 453.13 454.2 455.76 456.1 457.18 457.91 458.62 457.9 458.29 457.81 457.43 456.98 455.26 454.08 452.59 451.52 450.11 449.49 448.57 446.96 447.76 447.37 446.67 445.3 445.31 445.14 445.31 445.75 445.45 442.92 440.24 437.67 432.96 430.33 425.99 423.2 419.53 9999 9999 9999 9999 9999 9999 9999 9999 9999 9999 9999 9999 9999 9999 9999 9999 9999 9999 418.36 424.67 427.9 432.96 433.81 434.26 434.9 435.49 435.46 437 436.43 436.71 437.95 437.46 438.22 438.97 438.45 439.17 438.81 439.85 439.33 440.39 440.1 440.33 440.34 441.13 440.21 439.98 440.23 440.32 439.11 437.85 436.95 435.9 435.8 435.7 435.47 435.39 435.03 435.59 436.2 435.7 436.74 436.82 437.15 436.56 436.69 436.75 436.47 436.62 437.02 434.73 432.23 431.44 432.67 433.45 435.58 439.85 441.79 441.98 442.12 442.13 443.14 442.99 443.57 444.34 445.31 445.75 446.48 447.23 447.99 448.93 449.33 449.81 450.33 451.58 452.81 453.73 455.93 458.77 462.72 467.18 474.66 480.11 486.09 492.13 495.27 497.05 498.24 499.08 496.71 495.37 491.26 488.73 486.69 487.42 488.61 489.2 490.97 490.29 489.04 488.06 483.83 480.63 477.42 472.81 9999 472.02 472.16 472.76 472.73 474.05 472.57 471.54 471.05 468.65 467.96 468.65 467.24 464.73 463.55 462.01 460.56 458.39 456.53 454.38 449.57 446.86 445.64 444.53 444.46 444.15 443.9 444.97 443.61 444.09 444.08 444.2 444.34 445.43 446.08 445.4 446.57 447.78 450.08 451.31 454.13 455.34 458.06 458.16 458.96 458.37 458.4 456.88 455.18 453.8 454.36 454.71 454.82 455.59 456.11 456.07 456.08 454.72 454.15 453.77 452.71 451.13 450.62 450.04 451.66 452.06 453.14 451.12 450.36 447.95 446.14 444.51 443.01 441.97 439.62 439.69 440.6 440 438.24 434.67 432.77 430.8 429.36 428.2 427.29 427.09 427.2 426.99 427.27 427.09 427.35 427.12 426.87 426.78 426.09 9999 9999 9999 430.92 428.91 9999 9999 9999 9999 9999 9999 9999 9999 9999 9999 9999 9999 9999 9999 9999 9999 9999 9999 9999 9999 9999 9999 9999 9999 9999 9999 9999 9999 9999 9999 9999 9999 9999 9999 9999 9999 9999 9999 9999 9999 9999 9999 429.93 434.44 435.85 435.1 431.83 433.62 430.92 430.04 9999 9999 9999 9999 9999 9999 430.44 433.53 433.71 434.03 433.05 432.68 433.63 432.77 434.01 433.31 433.19 432.18 9999 9999
9999 9999 9999 9999 9999 9999 9999 9999 9999 9999 9999 9999 9999 9999 9999 9999 9999 9999 9999 9999 9999 9999 9999 9999 9999 9999 9999 9999 9999 9999 9999 9999 9999 9999 9999 9999 9999 9999 9999 9999 9999 9999 9999 9999 9999 9999 9999 9999 9999 9999 9999 9999 9999 415.66 416.46 416.99 417.54 417.87 418.66 418.97 419.21 419.5 420.38 420.87 420.92 421.77 422.25 422.1 423.07 423.07 424.01 424 424.73 426.17 426.58 427.92 428.55 428.13 428.57 429.47 429.55 430.14 431.16 431.84 432.81 433.83 435.59 437.15 438.57 440.47 442.3 443.35 444.83 445.31 446.75 447.42 448.85 450.26 451.46 452.47 454.96 455.25 456.22 457.08 457.42 458.22 458.91 458.28 457.59 457.23 456.3 454.11 454.51 453.09 451.82 450.04 448.44 447.98 446.22 445.74 445.34 445.39 444.87 444.1 444.39 444.8 445.1 444.31 443.03 441.02 436.66 433.61 430.11 426 422.35 419.77 9999 9999 9999 9999 9999 9999 9999 9999 9999 9999 9999 9999 9999 9999 9999 9999 9999 9999 422.65 425.94 429.04 432.2 433.58 433.75 434.91 435.69 436.04 436.39 436.52 437.01 437.57 437.61 438.25 438.34 438.55 438.71 439.19 439.45 439.91 439.36 440.12 440.59 439.84 439.6 439.31 439.92 439.7 439 438.52 436.69 435.82 434.91 434.66 435.33 435.04 435.73 434.93 434.85 434.44 434.88 435.61 436.43 436.4 436.03 435.71 435.24 434.37 433.8 433.63 432.18 431.49 431.74 434.75 436.5 438.75 440.5 441.23 441.65 442.73 442.31 442.35 443.48 444.1 444.03 444.64 445.55 446.29 447.25 448.11 448.16 449.06 449.95 449.96 451.62 453.39 454.37 456.3 459.64 464.24 468.92 474.17 480.16 488.74 492.36 494.95 497.57 498.83 498.13 497.12 495.5 492.99 489.19 486 485.94 486.16 487.85 488.3 488.11 487.91 486.2 483.36 479.39 476.19 473.58 474.32 473.25 477.09 477.52 478.64 478.3 476.44 477.75 476.5 474.7 471.89 470.04 469.25 466.8 465.11 463.11 460.7 460.03 457.98 452.26 449.64 446.3 444.47 444.06 443.54 443.05 443.9 443.53 443.74 443.35 443.43 442.91 443.77 444.77 445.21 445.12 445.36 446.82 449.41 449.74 452.36 454.52 455.65 457.72 457.17 455.83 456.39 455.53 453.9 452.14 452.31 452.37 453.07 453.51 454.27 454.45 454.05 453.99 453.48 451.38 449.67 448.86 449.83 449.9 451.47 452.78 452.94 452.07 449.32 447.68 444.34 443.6 442.86 441.37 439.79 437.84 438.15 440.01 437.67 432.61 431.1 427.92 427.67 427.38 426.89 427.51 427.41 427.4 426.74 426.91 427.41 427.45 426.86 426.84 426.07 426.89 426.4 9999 9999 429.49 9999 9999 9999 9999 9999 9999 9999 9999 9999 9999 9999 9999 9999 9999 9999 9999 9999 9999 9999 9999 9999 9999 9999 9999 9999 9999 9999 9999 9999 9999 9999 9999 9999 9999 9999 9999 9999 9999 9999 9999 9999 9999 9999 433.42 435.04 434.27 432.94 433.64 435.94 431.89 425.52 9999 9999 9999 9999 9999 428.21 432.75 434.08 433.2 433.43 433.29 433.34 433.6 433.64 433.08 431.54 428.95 9999 9999
9999 9999 9999 9999 9999 9999 9999 9999 9999 9999 9999 9999 9999 9999 9999 9999 9999 9999 9999 9999 9999 9999 9999 9999 9999 9999 9999 9999 9999 9999 9999 9999 9999 9999 9999 9999 9999 9999 9999 9999 9999 9999 9999 9999 9999 9999 9999 9999 9999 9999 9999 9999 9999 415.01 416.33 416.84 417.41 418.01 417.76 418.36 418.59 419.4 420.3 420.77 421.11 421.53 421.9 422.12 422.65 422.51 423.29 424.32 425.5 426.43 427.19 426.9 428.34 427.79 428.57 429.35 429.23 429.83 430.64 432.43 432.67 433.71 435.4 437.63 439.1 441.24 442.01 444.07 445.24 446.56 447.57 447.56 448.63 449.89 450.9 452.79 453.53 454.98 455.83 456.7 456.46 457.75 457.77 457.24 457.55 457 456.42 455.52 453.32 452.34 450.88 449.67 448.48 447.27 445.85 444.84 444.75 444.12 443.12 443.41 443.24 443.42 444.48 443.4 442.27 439.58 436.01 432.63 429.68 427.93 423.51 419.42 9999 9999 9999 9999 9999 9999 9999 9999 9999 9999 9999 9999 9999 9999 9999 9999 9999 423.41 426.84 429.3 431.3 432.12 433.35 434.86 435.24 435 435.72 435.39 436.24 436.59 437.57 437.34 437.96 437.93 438.44 439.44 438.77 438.48 439.43 439.66 439.04 439.13 438.82 439.17 438.97 438.04 437.89 437.78 437.1 435.6 435.17 434.64 434.63 434.87 434.39 433.93 434.36 434.06 433.87 434.33 434.82 435.24 434.8 433.29 433.31 432.9 430.48 430.2 430.73 430.75 431.33 435.08 436.48 438.03 439.3 440.39 442.14 442.19 442.4 442.68 443.51 443.31 443.15 443.98 444.65 445.09 445.81 446.94 447.7 448.51 448.46 449.29 450.78 451.31 453.02 455.62 457.57 459.99 464.76 470.93 476.17 481.68 486.33 492.69 495.99 497.47 498.85 498.11 497.19 496.16 494.47 489.82 487.02 483.88 482.45 482.78 483.76 484.27 484.71 483.77 480.78 477.56 476.89 476.56 477.78 478.78 480.91 481.35 483.67 482.73 481.04 479.7 477.71 474.81 472.49 470.71 468.96 466.44 464.55 461.91 461.19 459.11 458.42 452.53 448.72 446.6 444.02 444 442.58 442.48 442.6 442.45 442.55 442.74 442.73 442.67 443.17 443.97 443.27 443.79 444.49 445.54 447.29 448.91 451.59 452.37 453.68 453.63 452.37 452.79 453.49 452.34 450.78 449.03 449.73 449.61 450.63 451.76 452.81 453.86 451.56 451.26 449.59 448.91 449.18 449.24 449.36 449.9 449.95 451.18 452.02 451.44 449.56 446.55 444.95 442.92 441.49 440.71 439.94 437.41 437.15 437.71 432 429.03 428.22 427.67 427.67 427.62 427.01 427.46 427.54 428.06 429.43 429.1 427 427.09 427.18 427.29 427.33 427.84 426.8 427.04 425.78 430.38 9999 9999 9999 9999 9999 9999 9999 9999 9999 9999 9999 9999 9999 9999 9999 9999 9999 9999 9999 9999 9999 9999 9999 9999 9999 9999 9999 9999 9999 9999 9999 9999 9999 9999 9999 9999 9999 9999 9999 9999 9999 9999 9999 429.93 432.33 433.84 432.65 432.38 433.08 435.02 431.4 9999 9999 9999 9999 9999 427.61 432.86 434.26 434.4 433.74 434.17 433.19 432.22 428.31 9999 9999 427.07 9999 9999
9999 9999 9999 9999 9999 9999 9999 9999 9999 9999 9999 9999 9999 9999 9999 9999 9999 9999 9999 9999 9999 9999 9999 9999 9999 9999 9999 9999 9999 9999 9999 9999 9999 9999 9999 9999 9999 9999 9999 9999 9999 9999 9999 9999 9999 9999 9999 9999 9999 9999 9999 9999 9999 413.34 415.9 417.02 417.49 417.3 418.04 418.15 418.61 419.35 419.93 420.62 421.53 421.74 422.32 422.11 422.36 422.9 423.28 423.86 424.37 425.55 426.23 427.05 427.02 428.07 428.33 428.63 429.59 429.67 430.63 431.79 432.28 434.02 436.14 437.8 439.08 441.17 442.76 444.4 445.24 445.89 447.07 448.27 449.57 448.99 450.81 452.04 452.84 453.95 454.42 455.82 455.99 457.43 457.21 457.45 456.51 457.63 455.67 454.87 453.38 452.23 451.07 450.02 448.48 447.53 446.44 445.18 443.99 443.38 442.83 442.23 442.64 443.85 443.81 442.52 441.15 439.32 436.2 432.08 429.51 426.41 423.07 418.71 9999 9999 9999 9999 9999 9999 9999 9999 9999 9999 9999 9999 9999 9999 9999 9999 421.52 426.33 429.12 430.4 432.58 433.86 434.42 434.97 435.14 435.83 435.62 435.98 436.35 436.97 437.24 437.43 437.73 437.86 438.16 438.99 438.51 438.49 438.63 438.35 438.18 439.14 438.88 438.49 438.61 437.85 436.93 435.98 434.8 434.52 434.06 433.12 432.39 432.63 433.39 433.32 433.28 433.07 432.31 432.11 432.55 432.7 432.67 432.91 433.44 431.07 429.94 430.19 431.32 432.34 433.44 436.3 437.61 438.7 439.75 440.35 441.36 441.36 442 442.24 443.43 442.85 443.09 444.16 445.03 445.03 445.97 446.06 447.01 447.99 449.01 450.56 450.96 451.79 453.36 455.28 457.54 461.66 465.97 470.41 476.28 482.47 487.24 491.55 494.66 497.99 498.84 498.37 498.64 497.16 494.87 493.08 489.45 483.98 481.95 480.51 481.64 481.34 480.68 481.47 480.87 480.65 479.88 482.43 482.59 485.86 486.2 486.27 485.1 483.79 481.97 480.3 478.98 475.08 472.63 471.39 469.21 466.19 464.59 462.64 459.61 458.27 455.42 452.82 449.74 446.07 443.83 443.37 443.1 441.6 441.99 442.33 441.67 441.79 442.33 441.89 441.94 443 443.14 443 444.08 444.97 446.09 446.45 448.15 449.83 450.98 450.09 450.72 448.43 448.41 447.54 447.01 446.74 446.57 447.2 448.4 448.82 450.79 451.53 450.08 449.3 449.52 448.93 447.28 446.76 447.38 448.31 449.64 450.26 451.4 447.42 447.1 446.24 444.49 442.37 441.13 438.99 438.09 435.33 435.82 431.71 428.83 428.01 428.13 427.44 427.52 427.57 427.74 427.19 427.37 429.25 430.54 428.56 427.78 427.09 427.11 428.27 427.35 431.04 426.53 429.2 427.63 430.49 9999 9999 9999 9999 9999 9999 9999 9999 9999 9999 9999 9999 9999 9999 9999 9999 9999 9999 9999 9999 9999 9999 9999 9999 9999 9999 9999 9999 9999 9999 9999 9999 9999 9999 9999 9999 9999 9999 9999 9999 9999 9999 9999 428.03 430.47 433.74 432.69 432.35 432.83 436.97 433.17 426.19 9999 9999 9999 426.9 429.55 433.63 433.98 434.33 433.94 432.72 429.48 9999 9999 9999 9999 426.85 9999 9999
