197.05 195.94 194.83 193.8 193.09 192.39 191.69 191.03 190.36 189.15 187.08 185.03 183.15 181.42 179.69 179.14 179.32 179.5 178.91 178.04 177.17 176.73 176.37 176 176.88 177.82 178.8 180.52 182.24 183.87 185.09 186.3 187.03 186.53 186.04 185.5 184.88 184.27 182.46 179.48 176.49 174.75 173.78 172.82 174.75 177.77 180.78 182.64 184.28 185.92 185.89 185.77 185.61 185 184.38 183.91 184.15 184.39 184.73 185.31 185.89 186.65 187.66 188.68 189.62 190.49 191.37 192.31 193.28 194.25 195.02 195.72 196.41 197.79 199.32 200.84 201.34 201.8 202.21 201.75 201.3 200.84 200.41 199.99 199.78 200.12 200.48 200.93 201.54 202.14 202.73 203.31 203.88 204.19 204.33 204.47 204.45 204.36 204.27 204.07 203.84 203.61 203.74 203.88 204.01 203.89 203.77 203.24 200.68 198.11 196.3 196.39 196.46 195.12 191.65 188.17 187.68 190.18 192.67 194.49 195.91 197.34 194.41 189.82 185.25 177.47 169.06 160.65 155.91 151.38 146.95 144.33 141.72 139.14 136.77 134.4 132.33 131.07 129.8 129.29 129.96 130.62 130.92 130.86 130.82 127.82 122.93 118.06 116.11 115.28 114.43 116.92 120.06 123.18 116.81 109.88 103.09 98.76 94.47 90.87 90.56 90.25 90.09 90.32 90.55 90.78 91
196.95 195.87 194.8 193.79 193.09 192.4 191.64 190.72 189.81 188.37 186.15 183.93 182.34 181.32 180.29 179.9 179.9 179.91 179.5 178.94 178.36 178.27 178.25 178.23 179.21 180.23 181.29 182.88 184.47 185.95 186.93 187.91 188.46 187.94 187.43 186.82 186.09 185.36 183.52 180.62 177.72 176.06 175.13 174.2 176 178.77 181.55 183.21 184.66 186.11 186.04 185.91 185.76 185.29 184.82 184.43 184.47 184.51 184.73 185.36 185.98 186.71 187.58 188.46 189.33 190.19 191.04 192.07 193.2 194.33 195.31 196.24 197.17 198.57 200.05 201.54 201.79 201.98 202.13 201.77 201.41 201.05 200.69 200.33 200.15 200.46 200.76 201.21 201.88 202.55 203.18 203.76 204.35 204.63 204.72 204.81 204.69 204.49 204.3 204.06 203.81 203.56 203.82 204.11 204.36 204.11 203.86 203.2 200.69 198.17 196.88 198.6 200.29 199.93 196.55 193.17 193.02 195.96 198.89 200.39 201.03 201.68 197.66 191.95 186.26 177.71 168.65 159.59 155.14 150.9 146.78 144.43 142.08 139.73 137.38 135.04 133.07 132.01 130.96 130.79 131.96 133.13 133.43 132.9 132.37 128.83 123.43 118.04 116.8 117.08 117.33 121.03 125.36 129.66 122.95 115.7 108.51 102.19 95.9 90.7 90.45 90.2 90.06 90.21 90.35 90.6 90.98
196.84 195.79 194.74 193.76 193.08 192.39 191.55 190.36 189.16 187.49 185.13 182.78 181.54 181.3 181.04 180.79 180.56 180.32 180.18 180.06 179.94 180.22 180.57 180.91 181.93 182.97 184.04 185.4 186.76 187.97 188.53 189.11 189.39 188.95 188.52 187.96 187.21 186.46 184.67 181.94 179.2 177.75 177.06 176.36 177.94 180.3 182.68 184.01 185.17 186.33 186.08 185.79 185.52 185.48 185.44 185.37 185.27 185.16 185.33 186.14 186.93 187.72 188.5 189.27 190.22 191.32 192.42 193.42 194.37 195.32 196.14 196.92 197.7 198.9 200.18 201.45 201.66 201.84 201.97 201.58 201.19 200.86 200.75 200.63 200.67 201.05 201.43 201.91 202.53 203.14 203.71 204.22 204.73 205.05 205.27 205.47 205.37 205.16 204.95 204.7 204.44 204.18 204.32 204.47 204.59 204.23 203.88 203.24 201.33 199.41 198.45 199.79 201.14 201.02 198.77 196.5 196.63 198.99 201.36 202.08 201.84 201.62 196.9 190.61 184.34 176.14 167.6 159.03 155 151.12 147.36 145.02 142.69 140.43 138.45 136.46 134.82 134.03 133.23 133.01 133.65 134.3 133.92 132.59 131.27 127.76 122.93 118.08 117.84 119.2 120.54 124.7 129.36 134.02 127.71 120.97 114.11 106.2 98.32 91.79 91.11 90.45 90.03 90.12 90.22 90.46 90.92
196.73 195.71 194.69 193.74 193.06 192.38 191.46 189.99 188.52 186.62 184.12 181.63 180.75 181.29 181.81 181.68 181.21 180.73 180.87 181.2 181.52 182.18 182.89 183.59 184.65 185.72 186.79 187.91 189.04 189.97 190.13 190.3 190.31 189.97 189.62 189.09 188.32 187.56 185.83 183.25 180.67 179.45 178.98 178.51 179.87 181.83 183.8 184.81 185.67 186.54 186.12 185.67 185.3 185.69 186.07 186.32 186.07 185.82 185.95 186.92 187.89 188.74 189.41 190.09 191.12 192.46 193.8 194.76 195.53 196.3 196.96 197.59 198.23 199.23 200.3 201.37 201.54 201.7 201.81 201.39 200.98 200.67 200.81 200.95 201.18 201.64 202.1 202.61 203.17 203.74 204.23 204.67 205.11 205.48 205.81 206.14 206.05 205.82 205.6 205.33 205.07 204.8 204.81 204.83 204.81 204.36 203.91 203.29 201.99 200.68 200.04 200.93 201.82 201.9 200.82 199.71 200.05 201.7 203.36 203.19 202 200.84 195.43 188.62 181.83 174.2 166.41 158.62 155.03 151.56 148.16 145.77 143.38 141.17 139.68 138.19 137 136.51 136.02 135.55 135.15 134.77 133.33 130.96 128.61 125.46 121.83 118.18 119.13 121.58 124.01 128.02 132.28 136.55 131.29 125.74 119.87 110.82 101.79 94.23 92.63 91.05 89.99 90.08 90.17 90.39 90.79
196.57 195.65 194.72 193.79 192.83 191.88 190.61 188.67 186.74 184.94 183.29 181.62 181.19 181.82 182.46 182.55 182.33 182.11 182.48 183.02 183.56 184.51 185.53 186.54 187.35 188.16 188.98 189.75 190.53 191.17 191.25 191.34 191.26 190.84 190.43 189.8 188.87 187.95 186.29 184.01 181.73 180.85 180.71 180.57 181.69 183.21 184.74 185.4 185.95 186.51 186.16 185.78 185.5 186.07 186.65 187.08 186.93 186.76 187.01 188.14 189.28 190.2 190.86 191.52 192.56 193.94 195.32 196.21 196.82 197.44 197.94 198.4 198.87 199.6 200.39 201.19 201.34 201.49 201.59 201.2 200.81 200.57 200.94 201.31 201.72 202.25 202.78 203.31 203.82 204.33 204.76 205.12 205.49 205.9 206.35 206.79 206.72 206.49 206.24 205.97 205.7 205.42 205.3 205.19 205.04 204.48 203.93 203.35 202.66 201.96 201.62 202.05 202.5 202.8 202.88 202.94 203.46 204.39 205.34 204.28 202.15 200.04 193.95 186.62 179.31 172.26 165.25 158.21 155.08 151.99 148.97 146.52 144.07 141.93 140.93 139.92 139.18 138.99 138.8 138.07 136.63 135.21 132.72 129.31 125.93 123.19 120.76 118.31 120.44 123.98 127.5 131.32 135.2 139.08 134.89 130.54 125.62 115.42 105.24 96.65 94.13 91.62 89.95 90.04 90.12 90.32 90.65
196.4 195.59 194.77 193.85 192.56 191.28 189.62 187.17 184.72 183.1 182.52 181.91 181.94 182.51 183.07 183.41 183.63 183.84 184.41 185.09 185.77 187 188.3 189.6 190.03 190.46 190.89 191.24 191.6 191.92 192.1 192.28 192.21 191.63 191.06 190.2 188.99 187.79 186.21 184.33 182.43 181.98 182.26 182.53 183.39 184.43 185.48 185.77 185.97 186.18 186.2 186.21 186.26 186.71 187.16 187.59 187.9 188.2 188.83 190.14 191.44 192.54 193.38 194.22 195.15 196.16 197.17 197.89 198.47 199.04 199.36 199.61 199.86 200.12 200.39 200.67 200.83 200.99 201.12 201 200.88 200.89 201.42 201.95 202.47 202.99 203.5 203.99 204.44 204.88 205.23 205.5 205.76 206.07 206.4 206.72 206.67 206.5 206.33 205.98 205.62 205.26 205.11 204.96 204.78 204.35 203.92 203.46 202.94 202.41 202.17 202.53 202.89 203.25 203.64 204.02 204.58 205.29 206 204.64 202.22 199.8 193.26 185.5 177.75 170.93 164.24 157.54 154.72 151.93 149.21 147.18 145.13 143.38 142.78 142.17 141.55 140.93 140.34 139.08 136.97 134.86 131.93 128.31 124.68 122.41 120.83 119.24 122.01 126.08 130.14 133.34 136.44 139.58 136.37 133.1 129.06 118.54 108 99.01 95.66 92.33 90.09 90.11 90.12 90.25 90.53
196.24 195.53 194.82 193.9 192.29 190.68 188.62 185.65 182.69 181.28 181.76 182.22 182.69 183.19 183.68 184.28 184.93 185.56 186.35 187.17 187.99 189.5 191.08 192.65 192.7 192.75 192.79 192.72 192.65 192.67 192.95 193.23 193.16 192.42 191.67 190.6 189.11 187.63 186.14 184.64 183.14 183.11 183.81 184.5 185.08 185.64 186.21 186.13 185.99 185.85 186.24 186.63 187.01 187.34 187.67 188.1 188.88 189.65 190.65 192.14 193.61 194.89 195.91 196.93 197.73 198.37 199.02 199.58 200.11 200.63 200.77 200.81 200.85 200.62 200.38 200.15 200.32 200.49 200.66 200.81 200.96 201.22 201.91 202.59 203.21 203.72 204.22 204.67 205.06 205.44 205.7 205.87 206.04 206.23 206.44 206.66 206.62 206.51 206.4 205.98 205.52 205.07 204.88 204.69 204.5 204.2 203.91 203.58 203.17 202.75 202.58 202.9 203.23 203.63 204.14 204.64 205.18 205.75 206.32 204.81 202.28 199.75 192.82 184.67 176.53 169.83 163.29 156.77 154.21 151.64 149.21 147.8 146.38 145.22 144.97 144.71 144.02 142.51 141.01 139.04 136.47 133.91 131.02 127.86 124.69 122.97 121.97 120.95 123.84 127.83 131.82 133.86 135.69 137.53 135.09 132.63 129.31 119.55 109.77 101.28 97.27 93.28 90.57 90.39 90.21 90.2 90.41
195.97 195.34 194.7 193.73 191.63 189.53 187.31 184.79 182.27 181.35 182.36 183.37 183.92 184.15 184.38 185.08 185.99 186.91 187.85 188.79 189.73 191.2 192.73 194.25 194.2 194.16 194.09 193.85 193.6 193.47 193.7 193.93 193.74 192.78 191.82 190.49 188.71 186.95 185.44 184.14 182.84 183.1 184.1 185.1 185.71 186.2 186.69 186.47 186.17 185.88 186.57 187.26 187.9 188.23 188.56 189.08 190.25 191.42 192.73 194.3 195.88 197.24 198.33 199.43 200.09 200.43 200.77 201.18 201.61 202.05 202.01 201.85 201.69 201.08 200.42 199.77 199.92 200.08 200.27 200.68 201.08 201.58 202.4 203.23 203.94 204.44 204.93 205.35 205.68 206 206.17 206.24 206.31 206.4 206.49 206.58 206.57 206.53 206.48 205.98 205.43 204.88 204.65 204.43 204.21 204.06 203.9 203.7 203.4 203.09 202.98 203.27 203.56 204.01 204.64 205.26 205.77 206.21 206.65 204.98 202.33 199.69 192.37 183.84 175.31 168.73 162.35 156.02 153.69 151.36 149.21 148.44 147.65 147.07 147.17 147.26 146.48 144.07 141.67 138.99 135.97 132.95 130.12 127.42 124.7 123.54 123.11 122.67 125.67 129.59 133.5 134.36 134.92 135.47 133.83 132.17 129.58 120.57 111.55 103.54 98.87 94.21 91.05 90.67 90.29 90.15 90.29
195.66 195.11 194.55 193.48 190.84 188.21 185.9 184.18 182.44 182.14 183.5 184.86 185.36 185.23 185.11 185.83 186.94 188.05 189.1 190.14 191.19 192.4 193.64 194.86 194.9 194.94 194.94 194.71 194.48 194.31 194.35 194.39 193.98 192.73 191.49 189.85 187.76 185.68 184 182.63 181.26 181.59 182.68 183.76 184.79 185.79 186.78 186.76 186.64 186.54 187.4 188.26 189.08 189.69 190.29 191.1 192.55 193.99 195.45 196.93 198.42 199.58 200.39 201.2 201.69 201.95 202.21 202.37 202.5 202.63 202.38 202.04 201.7 201.29 200.88 200.46 200.47 200.48 200.58 201.18 201.78 202.39 203.03 203.69 204.25 204.67 205.08 205.46 205.81 206.16 206.29 206.27 206.25 206.4 206.61 206.83 206.8 206.71 206.62 206.06 205.45 204.85 204.75 204.66 204.53 204.26 204 203.75 203.52 203.3 203.27 203.6 203.92 204.4 205.04 205.69 206.11 206.37 206.64 204.19 200.55 196.94 189.75 181.67 173.57 168.26 163.18 158.13 155.78 153.43 151.27 150.35 149.44 148.72 148.55 148.41 147.35 144.61 141.87 138.9 135.67 132.43 129.88 127.81 125.72 125.02 124.95 124.87 127.79 131.45 135.12 135 134.54 134.07 132.85 131.64 129.51 121.55 113.55 106.18 100.83 95.49 91.81 91.11 90.43 90.12 90.2
195.36 194.88 194.39 193.23 190.04 186.87 184.52 183.58 182.63 182.94 184.65 186.36 186.78 186.3 185.83 186.59 187.89 189.19 190.36 191.5 192.64 193.6 194.55 195.48 195.6 195.71 195.78 195.56 195.35 195.15 195 194.85 194.2 192.68 191.15 189.21 186.8 184.4 182.56 181.12 179.69 180.07 181.25 182.43 183.88 185.38 186.88 187.06 187.12 187.21 188.23 189.25 190.25 191.14 192.03 193.12 194.85 196.57 198.17 199.56 200.95 201.93 202.45 202.97 203.29 203.46 203.64 203.57 203.38 203.21 202.75 202.22 201.7 201.51 201.33 201.16 201.02 200.88 200.88 201.68 202.48 203.19 203.66 204.14 204.56 204.89 205.22 205.57 205.94 206.31 206.39 206.28 206.17 206.39 206.75 207.1 207.05 206.91 206.77 206.14 205.48 204.84 204.91 204.97 204.97 204.54 204.12 203.77 203.63 203.48 203.53 203.91 204.29 204.78 205.41 206.04 206.34 206.41 206.49 202.95 197.89 192.85 186.05 178.81 171.56 168.2 165.13 162.04 159.58 157.12 154.79 153.19 151.6 150.18 149.24 148.31 146.78 144.22 141.65 138.78 135.59 132.4 130.4 129.21 128.01 127.67 127.72 127.75 130.32 133.48 136.64 135.93 134.9 133.87 132.39 130.92 128.75 122.43 116.07 109.77 103.72 97.69 93.4 92.08 90.77 90.14 90.23
195.34 194.74 194.13 192.93 189.99 187.05 185 184.47 183.93 184.38 185.9 187.42 187.89 187.63 187.35 188.32 189.81 191.3 192.34 193.28 194.23 194.94 195.63 196.3 196.41 196.52 196.58 196.37 196.16 195.93 195.61 195.3 194.48 192.8 191.11 188.92 186.2 183.48 181.49 179.98 178.48 178.92 180.17 181.42 183.18 185.05 186.92 187.32 187.6 187.91 189.1 190.28 191.46 192.67 193.87 195.25 197.12 198.99 200.64 201.9 203.16 203.95 204.24 204.53 204.72 204.84 204.97 204.69 204.24 203.79 203.15 202.46 201.77 201.77 201.82 201.86 201.57 201.28 201.19 202.19 203.18 203.99 204.29 204.59 204.87 205.12 205.36 205.68 206.07 206.46 206.49 206.29 206.09 206.38 206.88 207.38 207.3 207.11 206.91 206.23 205.51 204.84 205.07 205.3 205.4 204.82 204.24 203.8 203.73 203.67 203.79 204.22 204.65 205.17 205.78 206.39 206.56 206.45 206.33 201.68 195.2 188.74 182.36 175.97 169.57 168.18 167.12 165.95 163.38 160.82 158.29 156.02 153.75 151.64 149.9 148.19 146.22 143.82 141.42 138.66 135.51 132.37 130.94 130.63 130.31 130.33 130.48 130.64 132.84 135.49 138.16 136.84 135.24 133.66 131.93 130.2 128.02 123.34 118.62 113.34 106.61 99.89 94.98 93.03 91.1 90.17 90.26
195.45 194.63 193.82 192.61 190.32 188.01 186.47 186.17 185.87 186.2 187.19 188.19 188.8 189.13 189.46 190.77 192.48 194.18 194.9 195.42 195.95 196.41 196.87 197.31 197.33 197.36 197.34 197.12 196.91 196.63 196.18 195.74 194.84 193.18 191.52 189.18 186.16 183.15 181.03 179.5 177.96 178.47 179.79 181.11 182.94 184.86 186.79 187.48 188.08 188.72 190.05 191.38 192.77 194.44 196.11 197.73 199.25 200.77 202.03 202.86 203.69 204.25 204.51 204.77 205.01 205.22 205.43 205.23 204.86 204.49 204.03 203.55 203.06 203 202.97 202.93 202.84 202.75 202.78 203.48 204.18 204.77 205.04 205.32 205.55 205.72 205.89 206.11 206.36 206.62 206.61 206.42 206.24 206.5 206.95 207.4 207.21 206.9 206.6 205.92 205.22 204.57 204.93 205.29 205.51 205.02 204.52 204.13 203.99 203.85 203.9 204.25 204.6 205.13 205.83 206.52 206.67 206.47 206.27 201.26 194.37 187.48 182.3 177.44 172.53 172.08 171.91 171.58 168.33 165.12 161.88 158.46 155.07 151.99 149.62 147.26 144.98 142.8 140.61 138.19 135.53 132.86 132.02 132.38 132.73 132.96 133.15 133.34 135.05 137.08 139.13 137.57 135.78 133.97 132.07 130.17 128.02 124.6 121.18 116.71 109.5 102.29 96.84 94.18 91.54 90.26 90.32
195.55 194.52 193.5 192.31 190.65 188.99 187.94 187.88 187.81 188 188.47 188.95 189.71 190.65 191.57 193.22 195.15 197.07 197.45 197.55 197.65 197.87 198.11 198.33 198.26 198.19 198.1 197.87 197.65 197.32 196.75 196.18 195.19 193.56 191.92 189.44 186.12 182.81 180.58 179.01 177.44 178.02 179.41 180.8 182.69 184.68 186.67 187.65 188.58 189.53 191.01 192.49 194.08 196.22 198.36 200.21 201.37 202.54 203.41 203.81 204.22 204.54 204.78 205.02 205.3 205.6 205.9 205.77 205.48 205.2 204.92 204.64 204.35 204.23 204.11 204.01 204.11 204.22 204.37 204.78 205.19 205.56 205.81 206.05 206.24 206.35 206.46 206.56 206.67 206.77 206.73 206.58 206.43 206.64 207 207.36 207.05 206.6 206.16 205.5 204.84 204.24 204.71 205.18 205.51 205.2 204.88 204.58 204.3 204.03 203.94 204.14 204.35 204.87 205.7 206.53 206.71 206.49 206.27 201.43 194.88 188.32 185.04 182.34 179.6 179.34 179.2 178.78 174.39 170.02 165.54 160.47 155.43 151.03 148.17 145.31 142.82 140.88 138.93 137.22 135.72 134.2 134.03 134.69 135.34 135.54 135.58 135.63 136.56 137.67 138.79 137.89 136.88 135.81 134.11 132.41 130.42 127.04 123.65 119.3 112.54 105.76 100.19 96.43 92.7 90.79 90.61
195.19 194.18 193.18 192.13 191 189.86 189.17 189.15 189.13 189.27 189.57 189.86 190.8 192.12 193.44 195.17 197.07 198.97 199.16 199.04 198.91 198.97 199.04 199.1 199.02 198.93 198.81 198.54 198.28 197.91 197.25 196.59 195.5 193.74 192 189.4 185.97 182.54 180.32 178.82 177.32 177.99 179.46 180.92 182.82 184.8 186.78 187.97 189.13 190.32 191.92 193.53 195.29 197.79 200.3 202.33 203.22 204.1 204.63 204.63 204.64 204.77 205 205.23 205.57 205.96 206.35 206.31 206.11 205.9 205.81 205.73 205.65 205.45 205.25 205.09 205.39 205.69 205.95 206.07 206.19 206.35 206.57 206.79 206.94 206.98 207.02 207.01 206.97 206.93 206.84 206.73 206.61 206.78 207.06 207.33 206.88 206.3 205.73 205.09 204.45 203.9 204.48 205.06 205.51 205.38 205.24 205.02 204.61 204.2 203.98 204.03 204.09 204.61 205.58 206.53 206.74 206.5 206.27 201.61 195.39 189.16 187.82 187.29 186.72 186.59 186.48 185.96 180.42 174.89 169.16 162.44 155.76 150.07 146.71 143.35 140.67 138.97 137.26 136.27 135.93 135.57 136.04 137 137.95 138.12 138.02 137.92 138.05 138.23 138.43 138.23 137.99 137.65 136.15 134.66 132.81 129.47 126.13 121.9 115.58 109.25 103.51 98.67 93.85 91.31 90.88
194.55 193.7 192.85 192.05 191.36 190.67 190.2 190.06 189.93 190.09 190.51 190.94 192.04 193.54 195.03 196.58 198.15 199.72 199.85 199.73 199.61 199.59 199.56 199.54 199.53 199.51 199.43 199.08 198.73 198.28 197.62 196.96 195.68 193.51 191.35 188.69 185.57 182.44 180.59 179.47 178.34 179.26 180.89 182.51 184.27 186.06 187.85 188.92 189.95 191.03 192.61 194.19 195.87 197.95 200.03 201.8 202.81 203.82 204.31 204.07 203.83 203.89 204.22 204.54 205.02 205.57 206.12 206.42 206.63 206.82 206.85 206.84 206.84 206.57 206.3 206.06 206.21 206.36 206.51 206.63 206.74 206.88 207.07 207.26 207.38 207.41 207.43 207.44 207.43 207.42 207.28 207.07 206.86 206.92 207.07 207.23 206.72 206.11 205.49 205.06 204.63 204.27 204.84 205.41 205.84 205.65 205.47 205.19 204.65 204.12 203.82 203.86 203.89 204.46 205.51 206.56 206.84 206.69 206.53 202.61 197.4 192.16 191.31 191.2 191.12 190.13 189.15 187.81 181.98 176.13 170 162.73 155.43 149.26 145.68 142.09 139.42 138.04 136.64 136.23 136.69 137.16 137.96 138.96 139.98 139.95 139.59 139.24 138.69 138.12 137.55 137.87 138.22 138.44 137.14 135.85 134.19 131.01 127.81 123.85 118.13 112.38 106.6 100.81 94.99 91.88 91.18
193.9 193.22 192.53 191.97 191.73 191.48 191.22 190.97 190.72 190.9 191.46 192.01 193.28 194.96 196.63 197.98 199.22 200.47 200.55 200.43 200.31 200.2 200.08 199.99 200.04 200.09 200.05 199.61 199.17 198.66 198 197.33 195.86 193.27 190.68 187.98 185.17 182.35 180.86 180.12 179.37 180.54 182.32 184.11 185.72 187.32 188.92 189.85 190.77 191.75 193.3 194.86 196.43 198.09 199.76 201.27 202.41 203.54 203.99 203.5 203.01 203.01 203.43 203.85 204.47 205.18 205.9 206.54 207.15 207.75 207.89 207.96 208.02 207.68 207.33 207.01 206.98 206.95 206.96 207.1 207.23 207.37 207.52 207.68 207.78 207.8 207.82 207.87 207.93 207.99 207.79 207.45 207.12 207.05 207.08 207.1 206.57 205.96 205.35 205.2 205.06 204.97 205.48 205.99 206.33 205.98 205.63 205.18 204.52 203.87 203.53 203.64 203.74 204.38 205.49 206.6 207.01 207.03 207.05 204.44 200.98 197.48 195.52 193.83 192.17 188.96 185.77 182.43 177.24 172.03 166.6 160.34 154.06 148.72 145.46 142.19 139.97 139.15 138.32 138.22 138.74 139.25 139.62 139.92 140.23 139.43 138.3 137.18 136.28 135.41 134.55 134.3 134.08 133.73 132.19 130.65 128.84 125.97 123.1 119.82 115.66 111.47 106.88 101.79 96.68 93.55 92.12
193.39 192.95 192.5 192.25 192.4 192.55 192.52 192.26 192 192.23 192.9 193.56 194.82 196.41 198.01 199.12 200.08 201.04 201.11 201.05 200.99 200.79 200.58 200.4 200.43 200.46 200.39 199.89 199.39 198.81 198.05 197.3 195.63 192.71 189.8 187.13 184.66 182.18 181.13 180.85 180.55 181.91 183.8 185.69 187.15 188.56 189.96 190.77 191.57 192.44 193.95 195.47 196.94 198.22 199.49 200.76 202 203.26 203.66 202.92 202.19 202.14 202.65 203.17 203.92 204.8 205.68 206.66 207.68 208.69 208.93 209.07 209.21 208.79 208.36 207.96 207.75 207.54 207.41 207.56 207.72 207.86 207.98 208.1 208.17 208.19 208.21 208.3 208.43 208.56 208.3 207.84 207.38 207.19 207.08 206.98 206.42 205.81 205.2 205.34 205.49 205.67 206.12 206.57 206.82 206.3 205.78 205.18 204.39 203.61 203.25 203.42 203.59 204.3 205.47 206.64 207.17 207.37 207.56 206.31 204.59 202.83 199.71 196.43 193.19 187.75 182.34 177.05 172.5 167.94 163.23 157.98 152.71 148.19 145.25 142.3 140.53 140.28 140.02 140.21 140.78 141.35 141.27 140.86 140.46 138.89 136.99 135.1 133.86 132.7 131.54 130.73 129.93 129.03 127.23 125.44 123.5 120.95 118.4 115.83 113.23 110.6 107.18 102.79 98.38 95.2 93.05
193 192.9 192.79 192.88 193.4 193.92 194.15 194.01 193.87 194.22 194.99 195.76 196.76 197.9 199.04 199.86 200.57 201.29 201.46 201.54 201.62 201.32 201.02 200.73 200.52 200.31 200.04 199.52 199 198.28 197.14 196.02 194.08 191.1 188.11 185.67 183.67 181.66 181.35 181.89 182.43 183.85 185.54 187.23 188.45 189.61 190.78 191.47 192.17 192.91 194.07 195.24 196.48 197.95 199.42 200.71 201.65 202.59 202.91 202.42 201.93 202.04 202.64 203.24 204.06 204.98 205.9 206.77 207.64 208.51 208.7 208.81 208.92 208.47 208.03 207.62 207.5 207.37 207.33 207.55 207.77 207.93 207.96 207.98 208.04 208.15 208.26 208.4 208.57 208.73 208.46 207.97 207.48 207.24 207.06 206.89 206.44 205.96 205.46 205.66 205.87 206.11 206.6 207.1 207.33 206.66 205.99 205.23 204.29 203.35 202.98 203.31 203.63 204.43 205.62 206.8 207.38 207.65 207.93 207.19 206.17 205.17 200.89 196.24 191.6 184.98 178.35 172.02 168.11 164.18 160.18 155.96 151.72 147.96 145.21 142.45 140.98 141.1 141.22 141.57 142.11 142.66 142.17 141.17 140.17 137.98 135.46 132.93 131.41 130 128.59 127.27 125.95 124.54 122.5 120.45 118.35 116.08 113.8 111.91 110.83 109.75 107.49 103.8 100.1 96.84 93.96
192.61 192.85 193.08 193.52 194.41 195.29 195.78 195.76 195.74 196.22 197.09 197.96 198.7 199.38 200.07 200.59 201.07 201.55 201.8 202.03 202.26 201.86 201.47 201.06 200.61 200.16 199.69 199.15 198.61 197.75 196.23 194.73 192.53 189.48 186.43 184.23 182.7 181.15 181.57 182.95 184.32 185.78 187.27 188.76 189.74 190.66 191.59 192.17 192.76 193.38 194.19 195 196.02 197.69 199.35 200.66 201.29 201.92 202.16 201.92 201.68 201.96 202.66 203.36 204.24 205.2 206.16 206.88 207.53 208.19 208.29 208.34 208.38 207.91 207.43 207.02 207.03 207.04 207.11 207.41 207.71 207.88 207.78 207.69 207.74 207.96 208.17 208.37 208.55 208.73 208.46 207.99 207.51 207.24 207.04 206.83 206.56 206.28 206 206.1 206.2 206.36 206.97 207.57 207.85 207.04 206.24 205.32 204.2 203.08 202.73 203.32 203.89 204.79 205.95 207.1 207.62 207.85 208.08 206.58 204.63 202.7 197.17 191.25 185.37 179.37 173.36 167.68 164.42 161.15 157.9 154.76 151.6 148.52 145.63 142.74 141.06 140.84 140.61 140.52 140.54 140.56 139.7 138.41 137.13 134.98 132.59 130.2 128.8 127.49 126.19 125.2 124.2 123.12 121.46 119.79 118.18 116.74 115.29 113.98 112.96 111.93 109.76 106.25 102.73 99.32 96.01
192.99 193.42 193.85 194.49 195.55 196.6 197.23 197.35 197.46 198 198.88 199.76 200.27 200.59 200.92 201.19 201.44 201.69 202.01 202.33 202.65 202.22 201.79 201.32 200.66 199.99 199.33 198.7 198.08 197.01 195.09 193.18 190.8 187.82 184.82 182.94 181.91 180.87 181.97 184.1 186.23 187.69 188.98 190.27 191.02 191.71 192.39 192.87 193.36 193.84 194.3 194.76 195.56 197.43 199.28 200.6 200.92 201.24 201.42 201.43 201.43 201.89 202.69 203.49 204.42 205.42 206.42 206.98 207.42 207.86 207.88 207.86 207.84 207.34 206.84 206.43 206.57 206.71 206.9 207.28 207.66 207.82 207.61 207.4 207.44 207.77 208.09 208.34 208.53 208.72 208.47 208 207.53 207.25 207.01 206.77 206.68 206.61 206.53 206.53 206.53 206.62 207.34 208.05 208.36 207.42 206.49 205.42 204.11 202.8 202.49 203.33 204.16 205.16 206.28 207.4 207.87 208.05 208.22 205.95 203.07 200.21 193.41 186.25 179.15 173.77 168.38 163.35 160.74 158.12 155.63 153.58 151.51 149.08 146.05 143.02 141.14 140.57 140 139.47 138.96 138.46 137.22 135.65 134.08 131.98 129.73 127.48 126.19 124.98 123.79 123.13 122.47 121.71 120.43 119.15 118.03 117.43 116.81 116.06 115.11 114.16 112.08 108.75 105.4 101.85 98.14
194.41 194.87 195.33 195.95 196.87 197.79 198.4 198.65 198.89 199.38 200.06 200.75 201.07 201.22 201.37 201.44 201.49 201.55 201.8 202.06 202.32 202.02 201.71 201.34 200.55 199.76 198.91 197.86 196.83 195.27 192.74 190.21 187.92 185.88 183.82 182.89 182.79 182.68 184.06 186.11 188.17 189.39 190.4 191.42 192.23 193.01 193.78 194.17 194.55 194.95 195.38 195.8 196.47 197.86 199.26 200.3 200.68 201.05 201.38 201.65 201.92 202.41 203.07 203.72 204.45 205.2 205.97 206.39 206.72 207.05 207.09 207.11 207.11 206.89 206.66 206.48 206.64 206.79 206.98 207.28 207.57 207.7 207.53 207.36 207.4 207.69 207.98 208.26 208.52 208.78 208.5 207.97 207.44 207.18 206.98 206.77 206.84 206.93 207.01 206.98 206.96 207.03 207.66 208.3 208.57 207.72 206.87 205.78 204.3 202.82 202.52 203.52 204.52 205.54 206.58 207.62 208.02 208.15 208.27 205.15 201.28 197.43 189.67 181.56 173.57 168.76 163.95 159.52 157.44 155.35 153.48 152.24 151 149.1 146.05 142.98 140.98 140.15 139.32 138.39 137.4 136.41 134.84 133 131.17 129.11 126.99 124.87 123.66 122.53 121.42 121.07 120.73 120.31 119.41 118.51 117.89 118.12 118.34 118.14 117.27 116.39 114.41 111.25 108.08 104.36 100.26
195.82 196.31 196.8 197.4 198.19 198.98 199.58 199.95 200.32 200.75 201.24 201.74 201.87 201.84 201.82 201.69 201.54 201.4 201.58 201.8 202 201.82 201.64 201.35 200.44 199.52 198.47 197.02 195.58 193.52 190.37 187.24 185.07 183.95 182.82 182.85 183.69 184.51 186.14 188.12 190.11 191.08 191.82 192.56 193.43 194.31 195.16 195.46 195.75 196.07 196.48 196.89 197.43 198.33 199.23 199.98 200.45 200.91 201.42 201.97 202.52 203.02 203.5 203.97 204.43 204.89 205.35 205.63 205.88 206.12 206.21 206.27 206.34 206.49 206.63 206.77 206.91 207.05 207.19 207.33 207.48 207.55 207.5 207.45 207.5 207.68 207.85 208.14 208.52 208.89 208.54 207.9 207.26 207.05 206.94 206.83 207.02 207.23 207.43 207.47 207.5 207.58 207.93 208.28 208.42 207.93 207.43 206.51 204.88 203.25 202.93 203.98 205.03 205.97 206.84 207.71 208 208.06 208.12 204 198.99 193.99 186 177.79 169.75 165.48 161.2 157.28 155.38 153.48 151.66 150.11 148.56 146.6 143.92 141.24 139.53 138.83 138.13 137.2 136.12 135.04 133.54 131.86 130.18 128.6 127.02 125.44 124.59 123.78 122.99 122.56 122.13 121.67 121.02 120.36 119.83 119.65 119.48 119.04 118.12 117.21 115.47 112.87 110.26 106.66 102.41
196.98 197.54 198.1 198.71 199.41 200.1 200.71 201.21 201.72 202.07 202.32 202.58 202.52 202.34 202.16 201.88 201.59 201.29 201.41 201.57 201.72 201.61 201.5 201.26 200.21 199.17 197.92 196.05 194.2 191.69 188.03 184.36 182.35 182.14 181.91 182.86 184.61 186.37 188.23 190.14 192.05 192.77 193.23 193.7 194.64 195.61 196.55 196.75 196.95 197.19 197.59 197.98 198.38 198.78 199.2 199.67 200.23 200.78 201.47 202.3 203.13 203.63 203.92 204.22 204.41 204.57 204.73 204.88 205.04 205.19 205.32 205.44 205.58 206.1 206.61 207.05 207.17 207.3 207.39 207.38 207.38 207.41 207.48 207.54 207.6 207.66 207.72 208.03 208.51 208.99 208.59 207.83 207.08 206.93 206.91 206.88 207.2 207.54 207.86 207.95 208.04 208.13 208.19 208.26 208.27 208.14 208 207.23 205.46 203.69 203.34 204.44 205.54 206.39 207.09 207.79 207.98 207.97 207.96 202.83 196.67 190.53 182.34 174.02 165.95 162.21 158.47 155.05 153.33 151.61 149.84 147.98 146.12 144.1 141.81 139.51 138.07 137.51 136.95 136.01 134.84 133.67 132.25 130.73 129.2 128.1 127.06 126.02 125.52 125.04 124.56 124.07 123.58 123.11 122.73 122.34 121.88 121.23 120.59 119.82 118.84 117.86 116.37 114.38 112.37 108.92 104.57
197.62 198.32 199.01 199.7 200.38 201.07 201.74 202.37 203.01 203.19 203.06 202.94 202.7 202.4 202.11 201.86 201.61 201.37 201.46 201.57 201.67 201.29 200.91 200.4 199.15 197.89 196.32 193.87 191.42 188.92 186.27 183.61 182.51 183.02 183.52 184.74 186.45 188.17 189.81 191.44 193.07 193.96 194.68 195.39 196.2 197.01 197.8 197.96 198.12 198.33 198.77 199.22 199.62 199.94 200.26 200.64 201.13 201.62 202.24 203 203.76 204.11 204.19 204.28 204.36 204.44 204.51 204.71 204.92 205.13 205.39 205.65 205.92 206.46 207 207.48 207.65 207.83 207.93 207.88 207.83 207.82 207.88 207.94 207.98 208.01 208.03 208.29 208.71 209.14 208.73 208 207.27 207.15 207.15 207.15 207.47 207.81 208.15 208.31 208.48 208.6 208.48 208.36 208.28 208.34 208.4 207.75 205.99 204.23 203.84 204.82 205.8 206.57 207.19 207.8 207.91 207.82 207.73 201.83 194.8 187.77 179.43 171.02 162.92 159.57 156.22 153.19 151.6 150.01 148.25 146.09 143.92 141.84 139.88 137.92 136.72 136.27 135.81 134.85 133.58 132.3 130.96 129.6 128.23 127.61 127.12 126.61 126.46 126.31 126.13 125.58 125.03 124.56 124.45 124.33 123.92 122.79 121.68 120.59 119.55 118.5 117.28 115.89 114.49 111.18 106.73
198.27 199.1 199.92 200.69 201.36 202.04 202.76 203.54 204.31 204.3 203.8 203.3 202.87 202.46 202.06 201.83 201.64 201.44 201.5 201.57 201.61 200.96 200.32 199.55 198.08 196.61 194.71 191.67 188.64 186.16 184.53 182.88 182.67 183.91 185.13 186.63 188.3 189.97 191.39 192.73 194.07 195.13 196.12 197.11 197.78 198.43 199.05 199.17 199.29 199.48 199.97 200.47 200.91 201.22 201.53 201.88 202.28 202.68 203.19 203.8 204.41 204.55 204.42 204.28 204.3 204.38 204.45 204.75 205.1 205.44 205.89 206.34 206.79 207.2 207.61 208 208.26 208.52 208.7 208.67 208.65 208.62 208.59 208.57 208.59 208.66 208.73 208.89 209.1 209.32 208.97 208.41 207.85 207.73 207.7 207.66 207.84 208.04 208.24 208.5 208.76 208.95 208.81 208.67 208.56 208.52 208.48 207.89 206.46 205.02 204.54 204.99 205.44 206.1 206.87 207.65 207.69 207.48 207.27 201.51 194.75 187.98 179.8 171.56 163.66 160.2 156.75 153.64 152 150.37 148.59 146.45 144.32 142.3 140.44 138.59 137.36 136.74 136.12 135.19 134.07 132.95 131.88 130.82 129.76 129.11 128.54 127.96 127.75 127.55 127.36 127.22 127.07 126.87 126.52 126.18 125.53 124.12 122.71 121.24 119.68 118.13 116.8 115.67 114.54 112.03 108.7
199.09 199.97 200.86 201.66 202.34 203.01 203.77 204.61 205.46 205.29 204.47 203.66 203.07 202.57 202.08 201.86 201.7 201.54 201.56 201.59 201.55 200.64 199.72 198.68 196.99 195.31 193.08 189.46 185.84 183.43 182.81 182.16 182.85 184.81 186.76 188.51 190.14 191.77 192.96 194.01 195.06 196.3 197.58 198.84 199.36 199.84 200.29 200.37 200.46 200.63 201.18 201.73 202.2 202.5 202.8 203.11 203.42 203.74 204.13 204.59 205.05 204.99 204.64 204.28 204.24 204.32 204.39 204.81 205.28 205.75 206.39 207.04 207.66 207.94 208.22 208.51 208.87 209.22 209.47 209.47 209.47 209.42 209.31 209.2 209.2 209.31 209.43 209.47 209.48 209.5 209.22 208.83 208.44 208.32 208.24 208.17 208.22 208.27 208.34 208.69 209.05 209.3 209.14 208.98 208.83 208.69 208.56 208.03 206.92 205.81 205.23 205.14 205.07 205.63 206.56 207.49 207.48 207.14 206.81 201.19 194.69 188.19 180.17 172.1 164.4 160.84 157.28 154.09 152.41 150.73 148.92 146.82 144.72 142.76 141.01 139.25 138 137.21 136.43 135.53 134.58 133.62 132.84 132.11 131.38 130.7 130.03 129.36 129.07 128.79 128.56 128.88 129.18 129.29 128.65 128.01 127.05 125.39 123.73 121.85 119.66 117.48 115.94 114.94 113.94 112.44 110.63
200.49 201.18 201.88 202.58 203.3 204.01 204.66 205.25 205.84 205.59 204.84 204.08 203.54 203.08 202.62 202.35 202.11 201.87 201.8 201.73 201.58 200.31 199.06 197.63 195.42 193.23 190.89 188.18 185.46 183.84 183.83 183.81 184.85 186.88 188.91 190.41 191.62 192.83 193.9 194.93 195.96 197.24 198.57 199.9 200.39 200.84 201.27 201.46 201.64 201.89 202.44 203 203.44 203.62 203.8 203.99 204.19 204.39 204.68 205.03 205.39 205.28 204.89 204.51 204.5 204.61 204.72 205.23 205.81 206.38 207.11 207.85 208.54 208.73 208.93 209.15 209.45 209.76 209.99 210 210.02 209.99 209.89 209.78 209.79 209.9 210.02 210 209.92 209.84 209.62 209.35 209.08 208.91 208.75 208.6 208.53 208.47 208.44 208.83 209.22 209.5 209.28 209.07 208.87 208.66 208.45 208 207.24 206.46 205.84 205.35 204.86 205.33 206.32 207.32 207.19 206.71 206.23 200.72 194.45 188.18 180.4 172.57 165.1 161.47 157.83 154.57 152.85 151.12 149.28 147.2 145.12 143.23 141.57 139.92 138.63 137.68 136.73 135.88 135.08 134.28 133.79 133.4 133 132.28 131.52 130.76 130.39 130.03 129.78 130.55 131.31 131.71 130.76 129.82 128.57 126.66 124.75 122.44 119.62 116.82 115.08 114.22 113.35 112.88 112.6
201.88 202.39 202.89 203.5 204.26 205.02 205.55 205.88 206.22 205.9 205.2 204.5 204.01 203.59 203.16 202.83 202.52 202.2 202.03 201.87 201.59 199.98 198.38 196.57 193.84 191.13 188.71 186.93 185.14 184.34 184.96 185.57 186.95 189.02 191.09 192.31 193.05 193.8 194.77 195.81 196.84 198.15 199.5 200.84 201.31 201.76 202.2 202.52 202.84 203.19 203.73 204.27 204.65 204.67 204.7 204.75 204.81 204.88 205.06 205.33 205.6 205.5 205.18 204.85 204.91 205.1 205.28 205.89 206.56 207.23 207.98 208.73 209.42 209.57 209.72 209.87 210.02 210.17 210.27 210.3 210.32 210.33 210.32 210.32 210.35 210.4 210.46 210.47 210.45 210.42 210.25 210.03 209.81 209.5 209.18 208.87 208.74 208.62 208.54 208.85 209.16 209.33 208.97 208.61 208.29 208.02 207.77 207.43 207.01 206.57 206.17 205.79 205.42 205.71 206.36 207.03 206.53 205.68 204.84 199.08 192.63 186.19 179.18 172.14 165.47 162.11 158.74 155.76 154.22 152.68 150.99 148.99 146.98 145.06 143.27 141.48 140.1 139.06 138.02 137.2 136.48 135.76 135.13 134.54 133.95 133.25 132.54 131.82 131.32 130.82 130.45 131.11 131.77 132.04 130.87 129.71 128.26 126.2 124.15 121.98 119.67 117.33 115.9 115.22 114.54 114.32 114.35
203.16 203.49 203.82 204.34 205.12 205.9 206.33 206.44 206.56 206.19 205.55 204.91 204.46 204.08 203.69 203.31 202.92 202.53 202.27 202.01 201.6 199.65 197.7 195.49 192.26 189.03 186.55 185.7 184.83 184.85 186.1 187.34 189.05 191.17 193.28 194.2 194.48 194.76 195.63 196.68 197.73 199.05 200.42 201.78 202.24 202.69 203.13 203.58 204.03 204.49 205.02 205.54 205.86 205.73 205.6 205.5 205.43 205.37 205.44 205.62 205.81 205.71 205.46 205.2 205.33 205.59 205.84 206.54 207.32 208.09 208.85 209.61 210.31 210.41 210.52 210.6 210.58 210.56 210.56 210.59 210.61 210.67 210.76 210.86 210.9 210.91 210.91 210.94 210.97 211 210.88 210.71 210.53 210.09 209.61 209.14 208.96 208.77 208.64 208.86 209.09 209.16 208.65 208.14 207.7 207.39 207.08 206.87 206.78 206.69 206.5 206.23 205.97 206.09 206.4 206.73 205.86 204.65 203.45 197.44 190.82 184.2 177.98 171.74 165.84 162.75 159.66 156.95 155.6 154.25 152.7 150.78 148.85 146.92 144.99 143.07 141.6 140.49 139.38 138.6 137.96 137.33 136.51 135.65 134.79 134.13 133.48 132.83 132.17 131.51 130.98 131.38 131.79 131.78 130.38 128.99 127.33 125.14 122.96 121.14 119.76 118.35 117.49 117.04 116.59 116.25 115.98
203.73 203.95 204.17 204.53 205.07 205.61 206 206.25 206.51 206.18 205.53 204.89 204.4 203.96 203.52 202.93 202.33 201.72 200.8 199.88 198.87 196.91 194.95 192.96 190.8 188.61 187.07 186.9 186.72 187.17 188.44 189.71 191.21 192.89 194.58 195.52 196.06 196.59 197.41 198.32 199.23 200.39 201.57 202.76 203.03 203.3 203.58 204.01 204.44 204.9 205.46 206.02 206.33 206.15 205.96 205.86 205.86 205.85 205.93 206.07 206.21 206.13 205.93 205.74 205.93 206.22 206.52 207.32 208.18 209.03 209.8 210.57 211.26 211.29 211.33 211.33 211.18 211.04 210.96 211.01 211.06 211.13 211.23 211.34 211.38 211.34 211.31 211.33 211.38 211.43 211.34 211.2 211.06 210.57 210.03 209.49 209.26 209.02 208.83 208.97 209.11 209.08 208.44 207.81 207.26 206.9 206.53 206.42 206.62 206.81 206.82 206.68 206.53 206.47 206.47 206.46 205.25 203.71 202.16 195.92 189.11 182.28 176.79 171.35 166.21 163.4 160.58 158.14 156.98 155.82 154.42 152.57 150.72 148.77 146.72 144.66 143.1 141.92 140.75 140 139.45 138.9 137.89 136.76 135.63 135 134.42 133.83 133.01 132.2 131.52 131.65 131.8 131.52 129.89 128.27 126.4 124.08 121.76 120.32 119.87 119.4 119.08 118.87 118.65 118.18 117.6
204.31 204.41 204.52 204.71 205.01 205.32 205.67 206.07 206.46 206.16 205.52 204.88 204.35 203.85 203.35 202.55 201.72 200.89 199.27 197.66 196.03 194.06 192.09 190.34 189.37 188.37 187.87 188.39 188.9 189.72 190.95 192.18 193.37 194.52 195.69 196.72 197.68 198.62 199.41 200.16 200.91 201.84 202.79 203.75 203.77 203.79 203.85 204.19 204.52 204.92 205.51 206.11 206.44 206.23 206.03 206 206.17 206.34 206.49 206.61 206.74 206.69 206.56 206.42 206.65 206.98 207.31 208.19 209.13 210.07 210.84 211.6 212.27 212.22 212.16 212.07 211.84 211.61 211.5 211.61 211.73 211.78 211.76 211.74 211.71 211.67 211.63 211.6 211.57 211.55 211.41 211.24 211.07 210.75 210.42 210.08 209.82 209.57 209.36 209.42 209.48 209.37 208.72 208.06 207.49 207.09 206.69 206.57 206.78 206.98 207.09 207.12 207.15 207.07 206.93 206.8 205.84 204.67 203.48 198.53 193.18 187.79 182.53 177.26 172.18 168.43 164.7 161.59 160.34 159.1 157.62 155.7 153.79 151.77 149.63 147.49 145.67 144.08 142.5 141.31 140.29 139.29 138.12 136.91 135.7 135.04 134.44 133.83 132.9 131.98 131.17 131.02 130.89 130.43 128.97 127.51 125.88 123.96 122.03 120.88 120.62 120.37 120.11 119.84 119.59 119.06 118.42
204.88 204.87 204.87 204.89 204.96 205.02 205.35 205.88 206.41 206.15 205.51 204.87 204.29 203.73 203.18 202.17 201.11 200.05 197.74 195.44 193.18 191.2 189.22 187.74 187.96 188.16 188.69 189.9 191.09 192.27 193.46 194.64 195.52 196.15 196.8 197.94 199.3 200.66 201.41 202 202.59 203.29 204.01 204.72 204.5 204.28 204.12 204.36 204.6 204.93 205.57 206.21 206.54 206.32 206.1 206.14 206.49 206.84 207.05 207.16 207.26 207.25 207.18 207.11 207.38 207.74 208.1 209.06 210.09 211.11 211.87 212.64 213.28 213.14 212.99 212.81 212.49 212.17 212.04 212.22 212.4 212.43 212.28 212.13 212.04 212 211.95 211.86 211.76 211.66 211.48 211.29 211.09 210.95 210.81 210.66 210.39 210.12 209.89 209.87 209.85 209.67 208.99 208.31 207.71 207.28 206.86 206.73 206.93 207.14 207.35 207.57 207.78 207.66 207.4 207.14 206.44 205.63 204.81 201.18 197.27 193.31 188.28 183.24 178.25 173.59 168.94 165.15 163.83 162.5 160.94 158.96 156.99 154.9 152.7 150.5 148.4 146.36 144.33 142.59 140.98 139.39 138.07 136.81 135.55 134.84 134.17 133.49 132.45 131.41 130.47 130.02 129.58 128.97 127.86 126.74 125.59 124.37 123.13 122.25 121.76 121.28 120.76 120.22 119.68 119.15 118.62
205.54 205.41 205.28 205.22 205.25 205.28 205.44 205.71 205.98 205.63 204.97 204.32 203.74 203.19 202.63 201.27 199.83 198.39 195.99 193.59 191.35 190.25 189.12 188.38 188.89 189.4 190.13 191.26 192.41 193.57 194.76 195.95 196.79 197.38 197.96 199.11 200.52 201.94 202.64 203.16 203.68 204.24 204.8 205.34 205.09 204.84 204.65 204.85 205.04 205.32 205.82 206.33 206.61 206.46 206.3 206.43 206.88 207.32 207.63 207.82 208.02 208.04 207.99 207.94 208.22 208.58 208.94 209.92 210.96 212 212.72 213.45 214.04 213.85 213.65 213.4 213.03 212.66 212.52 212.77 213.01 213.03 212.8 212.57 212.43 212.36 212.29 212.15 211.99 211.83 211.61 211.37 211.13 211.15 211.18 211.21 210.91 210.61 210.34 210.25 210.16 209.92 209.24 208.55 207.94 207.48 207.02 206.88 207.09 207.3 207.62 208.01 208.4 208.25 207.86 207.47 207.04 206.59 206.14 203.85 201.4 198.82 194.03 189.23 184.31 178.73 173.17 168.71 167.31 165.91 164.27 162.23 160.18 158.04 155.78 153.52 151.11 148.62 146.14 143.86 141.66 139.48 138.01 136.71 135.4 134.63 133.89 133.14 131.99 130.84 129.76 129.01 128.26 127.52 126.75 125.98 125.3 124.78 124.25 123.62 122.89 122.18 121.4 120.58 119.77 119.24 118.81
206.19 205.94 205.68 205.55 205.54 205.53 205.53 205.53 205.54 205.08 204.41 203.74 203.16 202.61 202.05 200.32 198.48 196.63 194.21 191.79 189.69 189.62 189.54 189.63 190.3 190.96 191.7 192.59 193.49 194.53 195.72 196.91 197.8 198.47 199.14 200.26 201.58 202.9 203.54 204.03 204.51 204.94 205.37 205.79 205.62 205.45 205.33 205.53 205.72 205.94 206.2 206.47 206.64 206.63 206.62 206.85 207.32 207.79 208.22 208.61 208.99 209.06 208.99 208.92 209.18 209.52 209.86 210.77 211.72 212.66 213.29 213.91 214.41 214.21 214.01 213.76 213.38 213.01 212.88 213.19 213.49 213.54 213.32 213.1 212.94 212.81 212.69 212.53 212.37 212.21 211.91 211.59 211.26 211.36 211.48 211.58 211.16 210.73 210.36 210.21 210.06 209.82 209.28 208.75 208.22 207.71 207.21 207.03 207.19 207.35 207.62 207.98 208.34 208.22 207.92 207.61 207.29 206.97 206.64 205 203.26 201.41 197.6 193.78 189.72 184.53 179.34 174.93 172.65 170.4 167.84 164.8 161.78 159.08 156.68 154.28 151.78 149.2 146.62 144.23 141.93 139.62 138.19 136.93 135.68 134.91 134.17 133.4 132.13 130.87 129.68 128.79 127.91 127.19 126.88 126.56 126.34 126.28 126.22 125.63 124.54 123.46 122.42 121.4 120.39 119.82 119.41
206.85 206.47 206.09 205.87 205.83 205.79 205.61 205.35 205.09 204.53 203.84 203.16 202.58 202.03 201.48 199.36 197.11 194.87 192.43 189.99 188.05 189.02 189.98 190.89 191.71 192.52 193.27 193.92 194.57 195.48 196.67 197.86 198.8 199.56 200.33 201.41 202.63 203.86 204.45 204.89 205.34 205.65 205.94 206.23 206.15 206.06 206.02 206.21 206.4 206.55 206.58 206.61 206.68 206.81 206.95 207.26 207.76 208.26 208.82 209.4 209.98 210.08 210 209.91 210.15 210.46 210.78 211.61 212.48 213.33 213.85 214.38 214.79 214.58 214.37 214.11 213.73 213.35 213.25 213.61 213.97 214.05 213.84 213.64 213.45 213.27 213.09 212.92 212.75 212.58 212.21 211.8 211.39 211.57 211.78 211.95 211.4 210.85 210.37 210.16 209.96 209.72 209.34 208.95 208.5 207.95 207.39 207.17 207.28 207.39 207.63 207.95 208.27 208.19 207.97 207.75 207.53 207.31 207.09 206.05 204.95 203.73 200.96 198.17 195.05 190.45 185.83 181.58 178.32 175.09 171.45 167.2 162.97 159.57 156.98 154.39 151.81 149.22 146.64 144.3 142.04 139.79 138.46 137.31 136.16 135.43 134.72 133.96 132.61 131.25 129.98 129.08 128.19 127.63 127.9 128.15 128.4 128.66 128.9 128.22 126.65 125.1 123.82 122.71 121.59 120.94 120.47
205.96 205.67 205.37 205.2 205.15 205.11 204.95 204.71 204.46 204.02 203.5 202.96 202.31 201.62 200.94 198.58 196.1 193.64 191.77 189.88 188.46 189.72 190.97 192.07 192.73 193.39 194.13 194.97 195.81 196.8 197.95 199.11 200.06 200.89 201.71 202.7 203.77 204.85 205.33 205.7 206.06 206.26 206.44 206.62 206.69 206.75 206.84 207.12 207.39 207.55 207.42 207.29 207.25 207.37 207.49 207.79 208.28 208.77 209.4 210.12 210.84 211.05 211.06 211.07 211.34 211.65 211.97 212.69 213.43 214.16 214.53 214.91 215.2 215.02 214.84 214.61 214.27 213.93 213.84 214.16 214.49 214.55 214.34 214.13 213.91 213.67 213.43 213.25 213.08 212.91 212.49 212.02 211.55 211.78 212.06 212.28 211.62 210.96 210.37 210.12 209.86 209.62 209.39 209.16 208.78 208.18 207.58 207.31 207.37 207.43 207.63 207.91 208.19 208.17 208.03 207.88 207.77 207.66 207.55 207.11 206.64 206.08 204.34 202.59 200.4 196.37 192.33 188.21 183.97 179.75 175.03 169.57 164.13 160.07 157.28 154.5 151.84 149.25 146.66 144.36 142.16 139.96 138.74 137.69 136.64 135.95 135.27 134.53 133.07 131.62 130.27 129.37 128.47 128.09 128.93 129.75 130.47 131.03 131.59 130.79 128.76 126.73 125.22 124.01 122.79 122.07 121.52
205 204.79 204.57 204.44 204.39 204.33 204.2 204.01 203.81 203.52 203.18 202.84 202.09 201.25 200.42 197.85 195.17 192.57 191.42 190.26 189.49 190.82 192.15 193.22 193.61 194 194.72 195.92 197.12 198.28 199.38 200.49 201.46 202.33 203.2 204.08 204.96 205.85 206.21 206.45 206.7 206.79 206.88 206.98 207.24 207.5 207.78 208.23 208.67 208.92 208.73 208.54 208.39 208.33 208.28 208.47 208.89 209.32 209.97 210.75 211.53 211.95 212.23 212.51 212.89 213.29 213.68 214.23 214.79 215.33 215.47 215.61 215.72 215.67 215.61 215.53 215.38 215.24 215.15 215.14 215.14 215 214.72 214.45 214.14 213.82 213.5 213.29 213.13 212.96 212.63 212.28 211.92 211.99 212.08 212.12 211.52 210.91 210.36 210.07 209.78 209.55 209.46 209.37 209.08 208.5 207.92 207.64 207.64 207.63 207.76 207.96 208.17 208.11 207.95 207.8 207.7 207.62 207.53 207.22 206.9 206.51 205.22 203.93 202.18 198.51 194.83 190.63 185.27 179.93 174.58 169.2 163.81 159.82 157.11 154.4 151.85 149.39 146.92 144.85 142.91 140.96 139.85 138.89 137.92 137 136.1 135.15 133.66 132.17 130.82 130.05 129.28 129.05 130.04 131.04 131.88 132.48 133.08 132.27 130.21 128.13 126.64 125.46 124.28 123.61 123.09
204.04 203.91 203.78 203.68 203.62 203.56 203.45 203.31 203.17 203.02 202.88 202.73 201.87 200.88 199.89 197.11 194.23 191.5 191.08 190.65 190.52 191.92 193.33 194.37 194.49 194.61 195.31 196.88 198.45 199.75 200.81 201.87 202.85 203.77 204.69 205.45 206.15 206.86 207.08 207.21 207.34 207.33 207.32 207.33 207.79 208.25 208.73 209.34 209.94 210.3 210.04 209.79 209.54 209.3 209.06 209.14 209.5 209.87 210.53 211.37 212.21 212.85 213.41 213.97 214.45 214.92 215.39 215.77 216.15 216.5 216.4 216.31 216.25 216.31 216.38 216.44 216.5 216.55 216.45 216.11 215.79 215.45 215.11 214.76 214.38 213.97 213.57 213.34 213.18 213.01 212.78 212.53 212.29 212.19 212.1 211.97 211.42 210.86 210.34 210.02 209.69 209.48 209.54 209.59 209.39 208.83 208.27 207.98 207.91 207.84 207.9 208.02 208.14 208.04 207.86 207.68 207.59 207.51 207.43 207.15 206.86 206.51 205.51 204.51 203.01 199.58 196.14 191.7 185.09 178.51 172.66 167.78 162.88 159.26 156.74 154.22 151.86 149.6 147.32 145.6 144.03 142.46 141.5 140.62 139.74 138.44 137.13 135.82 134.34 132.86 131.59 131.1 130.61 130.5 131.24 131.98 132.52 132.8 133.08 132.36 130.8 129.22 128.08 127.17 126.25 125.84 125.58
203.38 203.28 203.17 203.09 203.04 203 202.92 202.82 202.72 202.59 202.46 202.32 201.08 199.65 198.23 195.77 193.24 190.91 191.31 191.7 192.18 193.19 194.2 195 195.26 195.52 196.35 198.05 199.74 201.14 202.26 203.37 204.31 205.16 206.01 206.64 207.21 207.77 207.9 207.94 207.99 207.99 207.99 208.03 208.62 209.21 209.81 210.46 211.12 211.48 211.16 210.84 210.54 210.26 209.97 209.97 210.23 210.5 211.17 212.07 212.98 213.78 214.55 215.31 215.89 216.43 216.97 217.2 217.42 217.61 217.35 217.08 216.9 217.09 217.28 217.46 217.64 217.83 217.68 217.07 216.45 215.94 215.52 215.1 214.64 214.15 213.66 213.41 213.23 213.06 212.92 212.79 212.66 212.39 212.11 211.82 211.32 210.81 210.33 209.97 209.6 209.42 209.62 209.81 209.69 209.16 208.63 208.31 208.18 208.05 208.03 208.08 208.12 207.97 207.76 207.56 207.47 207.4 207.33 207.08 206.83 206.53 205.81 205.09 203.84 200.65 197.45 192.75 184.89 177.06 170.75 166.36 161.97 158.71 156.38 154.04 151.88 149.81 147.73 146.35 145.17 143.98 143.14 142.36 141.56 139.86 138.16 136.49 135.03 133.56 132.37 132.16 131.94 131.95 132.43 132.92 133.16 133.11 133.07 132.46 131.4 130.33 129.53 128.88 128.22 128.07 128.07
202.78 202.69 202.6 202.54 202.51 202.49 202.44 202.39 202.34 202.18 202 201.81 200.09 198.12 196.15 194.2 192.24 190.51 191.8 193.06 194.15 194.52 194.89 195.36 195.99 196.62 197.67 199.35 201.02 202.47 203.71 204.95 205.82 206.5 207.17 207.68 208.15 208.61 208.67 208.66 208.66 208.79 208.93 209.11 209.77 210.42 211.06 211.6 212.13 212.38 211.98 211.58 211.31 211.21 211.11 211.1 211.19 211.28 211.95 212.93 213.91 214.76 215.57 216.38 216.99 217.57 218.15 218.29 218.43 218.53 218.35 218.17 218.1 218.43 218.75 218.96 218.91 218.86 218.56 217.91 217.27 216.7 216.19 215.68 215.19 214.72 214.24 213.81 213.39 212.98 212.77 212.6 212.42 212.06 211.69 211.33 210.95 210.57 210.18 209.74 209.31 209.05 209.18 209.31 209.18 208.69 208.2 207.95 207.89 207.83 207.83 207.87 207.9 207.78 207.62 207.45 207.38 207.31 207.25 207.09 206.93 206.72 206.19 205.66 204.52 201.24 197.96 193.16 185.26 177.35 171.05 166.78 162.51 159.38 157.17 154.96 152.95 151.03 149.12 147.75 146.54 145.34 144.33 143.36 142.4 140.66 138.92 137.22 135.92 134.62 133.6 133.59 133.57 133.72 134.19 134.65 134.84 134.69 134.53 134.1 133.44 132.77 132.24 131.77 131.29 131 130.79
202.18 202.1 202.02 201.99 201.98 201.98 201.97 201.96 201.95 201.77 201.54 201.31 199.09 196.57 194.06 192.64 191.24 190.14 192.3 194.44 196.1 195.83 195.58 195.72 196.72 197.72 198.99 200.64 202.3 203.8 205.17 206.53 207.33 207.83 208.33 208.72 209.08 209.44 209.44 209.38 209.33 209.6 209.87 210.18 210.91 211.64 212.3 212.73 213.15 213.29 212.81 212.33 212.09 212.17 212.24 212.23 212.14 212.06 212.72 213.78 214.84 215.74 216.6 217.45 218.1 218.72 219.34 219.39 219.43 219.46 219.36 219.27 219.29 219.76 220.23 220.46 220.17 219.89 219.44 218.76 218.08 217.45 216.85 216.25 215.74 215.28 214.82 214.2 213.54 212.89 212.62 212.41 212.19 211.72 211.26 210.82 210.58 210.33 210.02 209.5 208.99 208.66 208.7 208.74 208.56 208.11 207.66 207.48 207.5 207.53 207.56 207.6 207.64 207.57 207.46 207.35 207.29 207.24 207.18 207.13 207.08 206.98 206.61 206.23 205.12 201.59 198.07 193.26 185.94 178.62 172.64 168.29 163.94 160.86 158.76 156.65 154.79 153.05 151.31 149.69 148.11 146.54 145.08 143.65 142.22 140.81 139.39 138.03 137.08 136.14 135.43 135.52 135.61 135.98 136.84 137.69 138.26 138.5 138.74 138.66 138.36 138.04 137.71 137.37 137.03 135.68 134.09
201.98 201.86 201.73 201.64 201.59 201.53 201.43 201.3 201.17 200.93 200.67 200.4 197.96 195.2 192.44 191.79 191.15 190.77 193 195.23 196.94 196.6 196.24 196.44 197.81 199.18 200.62 202.16 203.71 205.11 206.38 207.66 208.38 208.78 209.19 209.55 209.9 210.25 210.31 210.34 210.36 210.73 211.1 211.5 212.23 212.95 213.6 213.94 214.27 214.34 213.85 213.36 213.17 213.37 213.57 213.52 213.28 213.04 213.66 214.72 215.79 216.72 217.62 218.51 219.18 219.81 220.45 220.42 220.39 220.36 220.34 220.32 220.44 221.04 221.64 221.87 221.39 220.9 220.31 219.6 218.89 218.2 217.51 216.83 216.3 215.84 215.39 214.59 213.69 212.8 212.47 212.21 211.95 211.39 210.83 210.33 210.21 210.09 209.86 209.27 208.68 208.27 208.21 208.16 207.95 207.53 207.12 207.01 207.12 207.23 207.29 207.34 207.38 207.35 207.3 207.25 207.2 207.16 207.11 207.17 207.23 207.25 207.03 206.8 205.72 201.94 198.18 193.37 186.63 179.89 174.22 169.79 165.37 162.35 160.34 158.34 156.63 155.07 153.49 151.62 149.67 147.73 145.82 143.92 142.05 140.96 139.87 138.84 138.25 137.66 137.26 137.46 137.66 138.24 139.49 140.74 141.69 142.33 142.95 143.24 143.28 143.32 143.19 142.99 142.78 140.33 137.37
201.92 201.73 201.54 201.38 201.25 201.12 200.85 200.52 200.2 199.89 199.59 199.29 196.76 193.92 191.09 191.36 191.63 192.05 193.82 195.6 196.99 196.95 196.91 197.45 199.21 200.96 202.53 203.89 205.25 206.39 207.35 208.32 208.9 209.3 209.69 210.12 210.57 211.02 211.34 211.65 211.94 212.37 212.79 213.23 213.84 214.46 215 215.31 215.62 215.72 215.39 215.07 214.98 215.19 215.4 215.3 214.97 214.64 215.1 215.96 216.82 217.71 218.61 219.5 220.08 220.62 221.15 221.15 221.15 221.14 221.12 221.09 221.19 221.68 222.17 222.36 222.01 221.65 221.09 220.29 219.5 218.67 217.83 217 216.32 215.72 215.13 214.31 213.42 212.53 212.16 211.84 211.51 211.01 210.51 210.06 209.95 209.84 209.64 209.15 208.67 208.33 208.27 208.21 208.02 207.68 207.34 207.23 207.3 207.36 207.45 207.55 207.64 207.55 207.42 207.29 207.29 207.29 207.3 207.37 207.43 207.48 207.4 207.32 206.42 203.09 199.74 195.32 189.04 182.75 177.09 172.16 167.25 163.92 161.73 159.54 157.82 156.29 154.77 152.73 150.57 148.41 146.46 144.51 142.59 141.81 141.02 140.28 139.94 139.59 139.4 139.67 139.94 140.74 142.44 144.13 145.63 146.91 148.16 148.67 148.71 148.77 148.46 148.03 147.63 144.24 140.18
201.86 201.6 201.34 201.11 200.9 200.7 200.28 199.75 199.23 198.85 198.51 198.18 195.56 192.65 189.74 190.94 192.13 193.32 194.63 195.96 197.05 197.32 197.58 198.47 200.61 202.74 204.44 205.61 206.79 207.66 208.31 208.96 209.43 209.81 210.18 210.7 211.25 211.79 212.38 212.96 213.53 214.01 214.48 214.96 215.46 215.96 216.41 216.68 216.96 217.09 216.94 216.78 216.8 217.02 217.23 217.09 216.66 216.23 216.54 217.2 217.85 218.7 219.59 220.49 220.98 221.42 221.86 221.88 221.9 221.92 221.89 221.87 221.94 222.32 222.69 222.86 222.63 222.39 221.86 220.98 220.1 219.15 218.15 217.16 216.34 215.59 214.84 214 213.13 212.25 211.83 211.44 211.06 210.63 210.21 209.83 209.71 209.59 209.41 209.07 208.72 208.49 208.45 208.42 208.28 208.03 207.78 207.67 207.66 207.64 207.76 207.94 208.11 207.92 207.65 207.39 207.45 207.54 207.63 207.65 207.66 207.69 207.75 207.8 207.22 204.8 202.37 198.65 192.78 186.9 181.06 175.28 169.51 165.58 162.9 160.22 158.27 156.63 154.98 152.86 150.64 148.42 146.97 145.56 144.19 143.72 143.25 142.8 142.54 142.28 142.16 142.44 142.72 143.77 146.08 148.38 150.87 153.57 156.23 156.68 155.72 154.77 152.98 150.88 148.81 145.01 140.86
201.61 201.32 201.03 200.76 200.49 200.23 199.85 199.4 198.96 198.41 197.85 197.29 194.79 192.05 189.34 191.04 192.73 194.34 195.31 196.3 197.2 197.83 198.45 199.64 201.94 204.23 205.95 206.99 208.02 208.71 209.15 209.59 210.01 210.43 210.84 211.44 212.09 212.73 213.53 214.34 215.14 215.66 216.18 216.68 217.07 217.46 217.81 218.06 218.31 218.47 218.47 218.48 218.58 218.8 219.02 218.84 218.38 217.9 218.07 218.53 219 219.78 220.65 221.53 221.91 222.25 222.58 222.61 222.64 222.67 222.64 222.62 222.68 222.95 223.22 223.36 223.25 223.14 222.63 221.66 220.69 219.62 218.47 217.33 216.35 215.45 214.55 213.69 212.83 211.98 211.49 211.05 210.6 210.25 209.91 209.59 209.46 209.34 209.19 208.98 208.78 208.64 208.63 208.62 208.54 208.39 208.23 208.11 208.01 207.92 208.07 208.33 208.58 208.29 207.88 207.48 207.62 207.79 207.95 207.92 207.89 207.9 208.1 208.29 208.03 206.53 205.02 201.99 196.53 191.06 185.01 178.38 171.76 167.23 164.06 160.89 158.73 156.96 155.19 152.99 150.71 148.42 147.49 146.63 145.8 145.65 145.48 145.32 145.14 144.97 144.92 145.21 145.5 146.82 149.73 152.63 156.14 160.25 164.33 164.68 162.71 160.75 157.46 153.69 149.95 145.78 141.53
201.28 200.98 200.68 200.36 200.05 199.73 199.51 199.35 199.17 198.4 197.49 196.57 194.36 192 189.72 191.57 193.42 195.12 195.87 196.62 197.45 198.5 199.55 200.99 203.17 205.35 206.95 207.89 208.83 209.44 209.81 210.18 210.68 211.23 211.78 212.49 213.25 214 214.92 215.86 216.78 217.34 217.89 218.41 218.68 218.96 219.22 219.45 219.68 219.86 219.98 220.09 220.23 220.4 220.58 220.5 220.25 219.99 220.19 220.6 221 221.63 222.32 223.01 223.21 223.37 223.51 223.25 223 222.77 222.66 222.55 222.5 222.62 222.75 222.81 222.76 222.71 222.19 221.19 220.18 219.11 218 216.89 216.02 215.26 214.49 213.79 213.11 212.42 212.04 211.68 211.32 211.02 210.71 210.42 210.22 210.03 209.84 209.63 209.41 209.27 209.24 209.22 209.16 209.07 208.98 208.82 208.62 208.41 208.47 208.62 208.78 208.44 207.99 207.54 207.73 207.96 208.18 208.17 208.16 208.17 208.35 208.52 208.34 207.21 206.08 203.19 197.58 191.99 185.71 178.76 171.8 167.25 164.19 161.11 159.1 157.48 155.85 153.83 151.72 149.6 149.01 148.51 148.02 147.86 147.71 147.6 147.59 147.57 147.64 147.93 148.22 149.71 153.01 156.32 160.58 165.75 170.95 171.19 168.44 165.7 161.24 156.14 151.02 146.63 142.36
200.94 200.63 200.32 199.97 199.6 199.23 199.19 199.29 199.4 198.39 197.11 195.85 193.94 191.97 190.1 192.11 194.11 195.91 196.42 196.94 197.7 199.18 200.66 202.34 204.41 206.47 207.95 208.8 209.65 210.17 210.47 210.77 211.35 212.04 212.72 213.55 214.41 215.26 216.32 217.38 218.43 219.02 219.6 220.13 220.29 220.46 220.64 220.84 221.04 221.26 221.48 221.71 221.88 222.01 222.13 222.16 222.12 222.08 222.31 222.65 223 223.48 223.98 224.49 224.5 224.48 224.44 223.9 223.36 222.88 222.67 222.47 222.32 222.29 222.27 222.25 222.23 222.22 221.69 220.64 219.59 218.53 217.46 216.38 215.66 215.06 214.46 213.96 213.48 212.99 212.76 212.54 212.31 212.05 211.78 211.52 211.27 211.02 210.76 210.51 210.25 210.07 210.02 209.97 209.93 209.91 209.88 209.67 209.34 209.02 208.9 208.86 208.83 208.45 208.01 207.57 207.81 208.08 208.34 208.39 208.45 208.49 208.5 208.52 208.14 206.78 205.44 202.02 195.51 189.03 182.4 175.64 168.87 164.99 162.83 160.65 159.34 158.33 157.3 155.96 154.55 153.12 152.6 152.12 151.6 150.73 149.88 149.26 149.59 149.92 150.22 150.46 150.71 152 154.78 157.58 161.16 165.45 169.77 169.57 166.78 163.99 160.18 156 151.81 148.33 144.95
200.7 200.42 200.15 199.86 199.57 199.28 199.33 199.53 199.73 198.4 196.72 195.05 193.66 192.27 190.99 192.96 194.93 196.67 197.09 197.51 198.3 200.11 201.93 203.76 205.64 207.53 208.84 209.55 210.26 210.71 211 211.28 211.92 212.71 213.49 214.41 215.35 216.3 217.44 218.6 219.74 220.36 220.99 221.53 221.62 221.72 221.84 222.04 222.24 222.49 222.82 223.15 223.37 223.47 223.58 223.72 223.9 224.07 224.34 224.66 224.96 225.3 225.63 225.97 225.8 225.6 225.36 224.53 223.71 222.98 222.69 222.39 222.13 221.95 221.78 221.68 221.71 221.74 221.19 220.1 219 217.94 216.91 215.88 215.29 214.86 214.43 214.13 213.86 213.57 213.48 213.39 213.29 213.08 212.86 212.63 212.31 212 211.69 211.38 211.08 210.87 210.79 210.72 210.7 210.75 210.79 210.52 210.07 209.62 209.33 209.1 208.87 208.47 208.04 207.6 207.89 208.2 208.49 208.62 208.74 208.81 208.66 208.51 207.93 206.36 204.79 200.82 193.42 186.05 179.1 172.52 165.94 162.75 161.49 160.21 159.59 159.19 158.77 158.1 157.39 156.66 156.19 155.73 155.17 153.6 152.04 150.93 151.61 152.28 152.8 153 153.19 154.27 156.55 158.84 161.73 165.14 168.57 167.96 165.12 162.28 159.14 155.89 152.61 150.04 147.56
200.54 200.34 200.13 200 199.92 199.83 199.91 200.05 200.19 198.45 196.31 194.18 193.53 192.97 192.51 194.2 195.9 197.42 197.95 198.48 199.41 201.43 203.45 205.3 206.88 208.48 209.51 209.97 210.44 210.85 211.23 211.6 212.26 213.02 213.79 214.71 215.66 216.61 217.67 218.74 219.78 220.39 220.99 221.51 221.64 221.76 221.91 222.15 222.4 222.64 222.9 223.16 223.4 223.61 223.81 224 224.19 224.37 224.72 225.13 225.54 225.8 226.03 226.26 226.09 225.91 225.69 224.9 224.12 223.38 222.85 222.32 221.88 221.65 221.42 221.27 221.22 221.17 220.68 219.76 218.85 217.92 216.99 216.06 215.57 215.24 214.91 214.57 214.24 213.91 213.86 213.81 213.74 213.46 213.18 212.9 212.59 212.27 211.98 211.73 211.48 211.31 211.25 211.19 211.21 211.28 211.35 211.07 210.59 210.11 209.75 209.44 209.12 208.69 208.24 207.8 208.07 208.37 208.65 208.78 208.92 208.96 208.61 208.27 207.29 204.91 202.58 198.01 190.34 182.66 175.97 170.14 164.27 162.15 162.06 161.94 161.9 161.9 161.89 161.42 160.89 160.39 159.67 158.96 158.16 156.27 154.35 153.01 153.99 154.97 155.64 155.69 155.76 156.54 158.25 159.99 162.14 164.64 167.17 166.19 163.35 160.51 158.08 155.76 153.43 151.77 150.19
200.38 200.25 200.12 200.14 200.27 200.39 200.48 200.56 200.64 198.49 195.89 193.29 193.42 193.69 194.02 195.44 196.87 198.17 198.81 199.45 200.53 202.75 204.97 206.83 208.12 209.42 210.17 210.39 210.61 210.99 211.45 211.92 212.59 213.34 214.09 215.01 215.96 216.92 217.89 218.87 219.83 220.41 221 221.5 221.65 221.8 221.98 222.27 222.55 222.8 222.99 223.18 223.43 223.74 224.05 224.29 224.48 224.68 225.1 225.61 226.11 226.29 226.41 226.54 226.38 226.21 226 225.27 224.54 223.79 223.01 222.24 221.61 221.35 221.08 220.87 220.73 220.59 220.16 219.48 218.79 218.02 217.21 216.39 216.01 215.77 215.52 215.09 214.63 214.17 214.11 214.06 213.99 213.58 213.19 212.81 212.51 212.21 211.96 211.8 211.65 211.55 211.52 211.5 211.53 211.61 211.68 211.42 210.97 210.51 210.17 209.86 209.55 209.1 208.63 208.16 208.37 208.59 208.8 208.88 208.96 208.9 208.3 207.7 206 201.93 197.9 192.6 185.6 178.58 173.21 169.2 165.15 164.99 166.85 168.67 169.19 169.32 169.45 167.99 166.34 164.71 162.75 160.82 159.03 158.21 157.36 156.95 158.17 159.37 159.99 159.42 158.86 158.85 159.54 160.25 161.14 162.19 163.26 162.02 159.61 157.19 155.47 153.95 152.4 150.83 149.26
200.58 200.57 200.56 200.7 200.94 201.18 201.09 200.89 200.7 198.42 195.73 193.03 193.71 194.55 195.42 196.6 197.78 198.88 199.6 200.31 201.48 203.76 206.05 207.87 208.97 210.07 210.62 210.67 210.71 211.04 211.55 212.06 212.74 213.48 214.21 215.14 216.1 217.07 217.97 218.86 219.74 220.3 220.86 221.36 221.54 221.73 221.96 222.3 222.64 222.9 223.04 223.18 223.46 223.88 224.29 224.57 224.77 224.98 225.49 226.09 226.69 226.79 226.8 226.82 226.67 226.51 226.3 225.63 224.95 224.2 223.17 222.15 221.35 221.05 220.74 220.47 220.23 220 219.65 219.19 218.73 218.12 217.43 216.73 216.45 216.3 216.14 215.61 215.02 214.43 214.37 214.32 214.23 213.7 213.18 212.71 212.43 212.15 211.93 211.87 211.81 211.78 211.79 211.81 211.85 211.93 212.01 211.76 211.34 210.92 210.59 210.28 209.98 209.51 209.02 208.52 208.67 208.82 208.96 208.98 209 208.83 207.98 207.13 204.67 198.91 193.19 187.21 180.87 174.51 170.48 168.29 166.07 167.87 171.68 175.45 176.49 176.75 177.01 174.54 171.76 169 165.82 162.66 159.92 160.17 160.41 160.9 162.34 163.79 164.33 163.13 161.95 161.15 160.81 160.49 160.12 159.71 159.33 157.87 155.87 153.87 152.88 152.15 151.4 149.89 148.29
201.17 201.35 201.53 201.76 202.01 202.25 201.74 200.95 200.18 198.21 196.01 193.8 194.65 195.63 196.61 197.58 198.56 199.49 200.21 200.93 202.01 203.99 205.98 207.61 208.74 209.87 210.43 210.49 210.54 210.78 211.13 211.48 212.09 212.78 213.48 214.39 215.33 216.27 217.08 217.88 218.66 219.05 219.45 219.81 220.01 220.2 220.46 220.89 221.32 221.66 221.89 222.12 222.53 223.1 223.67 224.02 224.26 224.5 225.04 225.67 226.3 226.43 226.49 226.54 226.3 226.05 225.77 225.17 224.57 223.86 222.77 221.68 220.85 220.58 220.31 220.03 219.76 219.48 219.19 218.9 218.6 218.08 217.43 216.78 216.54 216.42 216.3 215.79 215.23 214.67 214.51 214.36 214.17 213.63 213.09 212.61 212.3 211.99 211.8 211.86 211.91 211.97 212.03 212.09 212.14 212.18 212.22 211.97 211.57 211.17 210.87 210.6 210.33 209.9 209.45 208.99 209.03 209.07 209.09 209 208.91 208.51 207.04 205.6 202.42 195.81 189.18 183.14 177.8 172.42 169.49 168.49 167.5 170.85 176.27 181.69 183.17 183.6 184.03 180.69 176.93 173.18 168.86 164.55 160.96 162.35 163.7 165.08 166.69 168.3 168.7 166.83 165 163.39 162.04 160.71 159.06 157.2 155.36 153.72 152.15 150.57 150.31 150.37 150.41 148.94 147.31
201.77 202.14 202.51 202.81 203.07 203.33 202.38 201.01 199.65 198 196.29 194.57 195.6 196.71 197.8 198.57 199.34 200.11 200.82 201.54 202.55 204.22 205.89 207.36 208.51 209.66 210.24 210.31 210.37 210.52 210.71 210.9 211.44 212.09 212.75 213.63 214.56 215.48 216.19 216.9 217.57 217.8 218.04 218.27 218.47 218.67 218.96 219.48 219.99 220.43 220.75 221.07 221.61 222.33 223.04 223.46 223.73 224 224.55 225.19 225.83 226 226.11 226.21 225.86 225.5 225.12 224.59 224.05 223.39 222.26 221.14 220.31 220.08 219.86 219.59 219.28 218.97 218.75 218.61 218.45 217.98 217.35 216.71 216.48 216.36 216.24 215.82 215.36 214.9 214.58 214.26 213.93 213.44 212.95 212.49 212.12 211.76 211.58 211.77 211.96 212.12 212.24 212.35 212.38 212.35 212.31 212.03 211.64 211.24 210.99 210.77 210.56 210.26 209.95 209.63 209.49 209.36 209.2 208.91 208.61 207.72 204.87 202.05 198.26 192.61 186.94 182.37 179.08 175.76 173.47 171.99 170.51 174.05 179.88 185.7 187.34 187.91 188.49 184.89 180.89 176.87 171.88 166.91 163.04 166.14 169.2 171.78 173 174.22 173.82 170.51 167.24 164.45 162.19 159.96 157.71 155.46 153.21 151.47 149.96 148.44 147.9 147.61 147.32 145.93 144.43
202.44 202.88 203.32 203.57 203.73 203.89 202.58 200.79 199.01 197.67 196.39 195.1 196.26 197.48 198.65 199.38 200.11 200.82 201.49 202.17 203.07 204.46 205.85 207.14 208.31 209.48 210.05 210.13 210.2 210.27 210.34 210.4 210.89 211.5 212.12 212.97 213.86 214.75 215.35 215.95 216.5 216.57 216.63 216.73 216.93 217.14 217.47 218.07 218.67 219.19 219.61 220.02 220.69 221.55 222.42 222.9 223.2 223.49 224.06 224.71 225.36 225.57 225.73 225.88 225.41 224.94 224.47 224.01 223.54 222.92 221.75 220.59 219.76 219.58 219.4 219.15 218.81 218.47 218.32 218.31 218.31 217.89 217.26 216.64 216.42 216.3 216.18 215.85 215.49 215.13 214.65 214.17 213.69 213.25 212.81 212.37 211.95 211.53 211.37 211.69 212.01 212.27 212.44 212.62 212.62 212.51 212.4 212.09 211.7 211.31 211.11 210.95 210.8 210.62 210.45 210.27 209.95 209.64 209.31 208.81 208.31 206.89 202.67 198.48 194.12 189.43 184.71 181.64 180.41 179.14 177.44 175.47 173.51 177.26 183.5 189.72 191.51 192.23 192.95 189.09 184.83 180.54 174.89 169.26 165.15 169.96 174.73 178.47 179.3 180.13 178.91 174.16 169.44 165.48 162.32 159.18 156.35 153.72 151.1 149.3 147.84 146.38 145.5 144.76 144.03 142.69 141.31
203.23 203.52 203.81 203.79 203.59 203.4 201.91 200.01 198.12 197.01 196.01 195 196.16 197.35 198.53 199.7 200.85 201.86 202.34 202.82 203.54 204.76 205.98 207.15 208.26 209.37 209.9 209.96 210.01 210.19 210.42 210.65 211.27 212.01 212.74 213.52 214.32 215.11 215.48 215.85 216.2 216.37 216.53 216.69 216.83 216.98 217.19 217.54 217.89 218.3 218.76 219.21 219.85 220.63 221.41 221.91 222.27 222.63 223.24 223.91 224.58 224.88 225.14 225.4 224.94 224.48 224.02 223.52 223.02 222.39 221.32 220.25 219.47 219.25 219.03 218.82 218.63 218.43 218.35 218.35 218.36 217.95 217.36 216.76 216.5 216.33 216.16 215.85 215.51 215.18 214.68 214.18 213.69 213.32 212.94 212.54 212.11 211.68 211.5 211.76 212.03 212.22 212.32 212.43 212.4 212.28 212.15 211.87 211.53 211.18 211.04 210.95 210.85 210.73 210.61 210.48 210.02 209.55 209.03 208.11 207.21 205.28 200.31 195.32 190.9 187.45 183.95 182.21 182.43 182.66 181.35 178.97 176.59 180.53 187.11 193.69 195.59 196.44 197.3 193.14 188.62 184.04 177.8 171.56 167.29 173.8 180.3 185.15 185.59 186.04 183.97 177.78 171.62 166.5 162.44 158.39 154.98 151.98 148.99 147.14 145.73 144.32 143.09 141.9 140.72 139.46 138.2
204.01 204.16 204.3 203.99 203.45 202.91 201.24 199.23 197.22 196.36 195.63 194.9 196.05 197.22 198.42 200.02 201.6 202.9 203.19 203.48 204.02 205.06 206.1 207.15 208.2 209.26 209.74 209.78 209.82 210.11 210.5 210.9 211.66 212.51 213.36 214.08 214.78 215.48 215.61 215.75 215.91 216.17 216.43 216.65 216.75 216.85 216.95 217.04 217.14 217.42 217.92 218.42 219.01 219.68 220.35 220.86 221.29 221.72 222.36 223.05 223.73 224.14 224.52 224.88 224.46 224.05 223.61 223.05 222.49 221.85 220.92 219.99 219.28 218.98 218.69 218.55 218.59 218.63 218.61 218.56 218.51 218.11 217.56 217 216.68 216.42 216.17 215.81 215.45 215.09 214.69 214.29 213.9 213.61 213.32 213.01 212.63 212.25 212 211.99 211.99 211.91 211.77 211.62 211.53 211.47 211.4 211.21 210.96 210.71 210.63 210.59 210.55 210.3 210.05 209.77 209.17 208.57 207.76 205.79 203.84 201.39 197.52 193.63 190.87 189.95 188.98 188.11 187.39 186.68 184.97 182.59 180.22 184.18 190.66 197.15 198.86 199.58 200.31 195.31 189.97 184.61 178.81 173 169.29 176.23 183.16 188.21 188.35 188.51 186.08 179.62 173.17 167.79 163.46 159.15 155.61 152.55 149.49 147.42 145.73 144.04 142.86 141.76 140.66 139.52 138.38
204.56 204.54 204.52 203.97 203.16 202.35 200.7 198.8 196.88 196.2 195.67 195.16 196.19 197.24 198.39 200.35 202.3 203.83 203.97 204.1 204.49 205.37 206.25 207.18 208.15 209.14 209.59 209.62 209.65 210.04 210.6 211.16 212.04 213.02 213.99 214.63 215.24 215.83 215.74 215.65 215.62 215.98 216.33 216.61 216.67 216.72 216.7 216.54 216.38 216.55 217.09 217.63 218.18 218.73 219.29 219.81 220.31 220.81 221.48 222.18 222.89 223.4 223.89 224.36 223.99 223.62 223.21 222.59 221.97 221.31 220.52 219.73 219.09 218.72 218.34 218.28 218.56 218.83 218.88 218.77 218.67 218.27 217.76 217.24 216.86 216.51 216.17 215.78 215.39 215 214.7 214.4 214.11 213.91 213.71 213.47 213.14 212.81 212.5 212.22 211.94 211.61 211.21 210.82 210.66 210.66 210.65 210.55 210.39 210.24 210.23 210.24 210.25 209.88 209.48 209.06 208.32 207.58 206.47 203.45 200.45 197.53 194.76 191.96 190.89 192.5 194.07 193.99 192.32 190.68 188.59 186.22 183.84 187.83 194.21 200.6 202.13 202.72 203.31 197.47 191.3 185.19 179.82 174.44 171.29 178.67 186.04 191.22 191.04 190.86 188.07 181.37 174.67 169.09 164.57 160.05 156.45 153.41 150.36 148.08 146.07 144.07 143.05 142.19 141.33 140.37 139.4
204.53 204.25 203.98 203.32 202.47 201.62 200.63 199.58 198.51 197.92 197.39 196.87 197.43 197.99 198.73 200.67 202.62 204.15 204.35 204.56 204.99 205.86 206.72 207.52 208.24 208.96 209.37 209.54 209.7 210.29 211.06 211.82 212.78 213.78 214.78 215.33 215.84 216.34 216.42 216.49 216.59 216.82 217.04 217.19 217.1 217.01 216.9 216.74 216.58 216.65 216.96 217.28 217.68 218.14 218.6 219.12 219.67 220.21 220.84 221.48 222.13 222.6 223.05 223.49 223.24 222.98 222.68 222.12 221.55 220.97 220.37 219.77 219.23 218.8 218.38 218.31 218.61 218.92 218.99 218.91 218.83 218.45 217.94 217.44 217.02 216.61 216.2 215.74 215.28 214.84 214.6 214.35 214.12 213.96 213.79 213.59 213.3 213.01 212.69 212.31 211.93 211.5 211.01 210.51 210.28 210.23 210.18 210.09 209.99 209.89 209.86 209.85 209.85 209.3 208.72 208.14 207.36 206.58 205.3 201.67 198.01 194.87 193.07 191.25 191.59 195.25 198.93 199.49 197.04 194.58 192.19 189.84 187.48 191.46 197.73 204.02 205.38 205.86 206.32 199.6 192.61 185.79 180.85 175.9 173.31 181.12 188.92 194.24 193.72 193.21 190.06 183.11 176.17 170.39 165.67 160.95 157.3 154.26 151.22 148.72 146.41 144.1 143.25 142.63 142.01 141.22 140.42
204.5 203.97 203.45 202.67 201.78 200.89 200.57 200.37 200.16 199.65 199.11 198.58 198.65 198.73 199.06 201 202.94 204.46 204.74 205.01 205.5 206.34 207.19 207.86 208.32 208.78 209.15 209.46 209.76 210.54 211.52 212.5 213.52 214.55 215.58 216.03 216.44 216.85 217.13 217.41 217.65 217.74 217.83 217.84 217.6 217.36 217.17 217.06 216.95 216.92 216.97 217.02 217.27 217.63 218 218.53 219.12 219.7 220.27 220.84 221.4 221.77 222.13 222.47 222.37 222.27 222.11 221.65 221.19 220.74 220.36 219.97 219.55 219.1 218.65 218.52 218.72 218.92 219.01 219.01 219.01 218.63 218.12 217.6 217.15 216.71 216.27 215.7 215.13 214.58 214.35 214.11 213.88 213.67 213.45 213.22 212.93 212.65 212.39 212.19 211.98 211.75 211.49 211.22 210.93 210.62 210.32 210.13 210 209.86 209.61 209.36 209.1 208.23 207.33 206.47 206 205.52 204.75 202.65 200.52 198.67 197.56 196.43 196.71 199.05 201.42 201.55 199.59 197.62 195.53 193.39 191.23 194.6 199.87 205.16 206.1 206.32 206.54 201.15 195.55 189.93 184.31 178.7 175.55 182.48 189.43 194.27 194.32 194.36 191.52 184.73 177.93 172.18 167.35 162.52 158.68 155.4 152.12 149.84 147.88 145.91 145.18 144.64 144.09 143.45 142.8
204.39 203.72 203.05 202.24 201.37 200.49 200.71 201.21 201.71 201.28 200.76 200.24 199.84 199.44 199.38 201.31 203.23 204.76 205.11 205.46 205.99 206.83 207.66 208.19 208.39 208.59 208.94 209.38 209.82 210.8 211.99 213.17 214.25 215.31 216.37 216.73 217.04 217.36 217.84 218.32 218.71 218.67 218.62 218.48 218.09 217.7 217.43 217.38 217.32 217.19 216.97 216.76 216.85 217.12 217.4 217.94 218.57 219.19 219.7 220.19 220.67 220.94 221.2 221.45 221.51 221.55 221.53 221.18 220.83 220.52 220.35 220.17 219.88 219.4 218.92 218.73 218.83 218.93 219.02 219.1 219.18 218.82 218.29 217.77 217.29 216.81 216.34 215.66 214.98 214.32 214.1 213.87 213.64 213.38 213.11 212.85 212.57 212.28 212.1 212.07 212.04 212.01 211.98 211.94 211.57 211.01 210.45 210.18 210 209.82 209.36 208.85 208.36 207.15 205.93 204.8 204.64 204.48 204.23 203.66 203.05 202.49 202.07 201.63 201.8 202.83 203.89 203.62 202.14 200.66 198.88 196.94 194.99 197.73 201.99 206.28 206.81 206.76 206.73 202.71 198.58 194.22 187.89 181.58 177.79 183.72 189.68 193.97 194.67 195.35 192.91 186.33 179.75 174.06 169.15 164.23 160.18 156.6 153.01 151.12 149.72 148.31 147.7 147.21 146.71 146.23 145.75
204.03 203.69 203.35 202.92 202.46 201.99 202.04 202.22 202.4 202.12 201.81 201.47 200.7 199.93 199.56 201.36 203.16 204.6 205.04 205.48 205.95 206.46 206.99 207.39 207.67 207.95 208.43 209.03 209.63 210.63 211.8 212.96 214.01 215.03 216.05 216.52 216.94 217.37 217.87 218.37 218.8 218.91 219.01 218.97 218.53 218.09 217.75 217.54 217.33 217.09 216.82 216.55 216.66 217.01 217.36 217.92 218.56 219.2 219.52 219.79 220.07 220.21 220.35 220.49 220.65 220.8 220.87 220.56 220.25 219.99 219.85 219.7 219.43 218.96 218.48 218.33 218.47 218.61 218.73 218.85 218.96 218.66 218.22 217.77 217.31 216.84 216.38 215.66 214.93 214.24 213.95 213.67 213.39 213.12 212.85 212.59 212.36 212.12 212.02 212.1 212.18 212.26 212.36 212.46 212.06 211.39 210.7 210.37 210.16 209.95 209.29 208.56 207.84 206.42 204.98 203.67 203.75 203.83 204.05 204.81 205.58 206.18 206.43 206.68 206.74 206.53 206.32 205.69 204.71 203.71 202.23 200.5 198.76 200.83 204.1 207.38 207.51 207.21 206.91 204.3 201.64 198.5 191.46 184.44 180.01 184.94 189.9 193.69 195.03 196.36 194.3 187.93 181.56 175.95 170.94 165.94 161.68 157.79 153.9 152.4 151.57 150.72 150.23 149.78 149.33 149.02 148.71
203.67 203.66 203.65 203.61 203.56 203.5 203.37 203.22 203.09 202.97 202.86 202.69 201.55 200.42 199.74 201.41 203.08 204.44 204.97 205.5 205.9 206.09 206.3 206.58 206.94 207.3 207.9 208.66 209.42 210.43 211.55 212.67 213.66 214.62 215.59 216.17 216.74 217.3 217.77 218.25 218.7 219.01 219.32 219.41 218.96 218.51 218.06 217.64 217.22 216.89 216.62 216.35 216.56 217.06 217.55 218.16 218.8 219.45 219.54 219.53 219.53 219.53 219.54 219.56 219.79 220.01 220.14 219.83 219.52 219.22 218.94 218.66 218.3 217.84 217.38 217.33 217.64 217.96 218.12 218.2 218.27 218.09 217.82 217.55 217.17 216.77 216.37 215.73 215.07 214.44 213.99 213.54 213.15 212.95 212.75 212.59 212.52 212.44 212.42 212.48 212.53 212.5 212.41 212.32 212.07 211.74 211.4 211.19 211.02 210.85 210.16 209.4 208.63 207.88 207.11 206.42 206.57 206.71 206.89 207.25 207.61 207.88 207.94 208.01 207.97 207.8 207.62 207.22 206.63 206.04 204.86 203.38 201.89 203.07 205.05 207.05 207.04 206.78 206.52 204.55 202.57 200.18 194.62 189.04 185.59 189.61 193.65 196.53 197.14 197.78 194.96 187.94 180.94 175.22 170.48 165.73 162.12 159.03 155.92 155.01 154.69 154.35 153.98 153.59 153.2 152.45 151.71
203.29 203.62 203.95 204.27 204.6 204.93 204.63 204.2 203.76 203.82 203.91 203.91 202.4 200.9 199.92 201.46 203 204.29 204.9 205.52 205.84 205.72 205.6 205.77 206.21 206.65 207.38 208.3 209.21 210.24 211.31 212.38 213.31 214.21 215.12 215.84 216.54 217.22 217.67 218.13 218.59 219.11 219.63 219.85 219.38 218.92 218.38 217.74 217.11 216.68 216.42 216.16 216.47 217.11 217.74 218.39 219.05 219.7 219.55 219.27 218.99 218.85 218.72 218.63 218.93 219.23 219.41 219.1 218.79 218.45 218.03 217.61 217.18 216.73 216.28 216.34 216.82 217.3 217.5 217.54 217.59 217.53 217.44 217.34 217.04 216.7 216.37 215.79 215.22 214.63 214.02 213.41 212.91 212.77 212.64 212.58 212.68 212.77 212.83 212.85 212.88 212.74 212.45 212.18 212.09 212.1 212.11 212.01 211.88 211.75 211.03 210.23 209.43 209.35 209.25 209.18 209.38 209.59 209.73 209.68 209.64 209.57 209.45 209.33 209.21 209.06 208.92 208.75 208.56 208.35 207.46 206.23 205 205.24 205.89 206.58 206.47 206.27 206.05 204.63 203.2 201.47 197.75 193.99 191.84 195.01 198.21 200.14 199.7 199.28 195.39 187.42 179.47 173.57 169.18 164.78 162.15 160.32 158.47 158.25 158.44 158.62 158.38 158.1 157.79 156.24 154.72
202.73 203.42 204.1 204.44 204.65 204.87 204.74 204.55 204.35 204.34 204.35 204.27 203.05 201.83 200.92 201.51 202.12 202.86 203.89 204.9 205.5 205.5 205.5 205.7 206.1 206.51 207.26 208.21 209.17 210.04 210.89 211.75 212.64 213.53 214.43 215.05 215.66 216.28 216.83 217.38 217.96 218.67 219.38 219.76 219.41 219.05 218.54 217.81 217.09 216.59 216.28 215.97 216.31 217 217.7 218.3 218.86 219.43 219.17 218.77 218.38 218.22 218.07 217.96 218.23 218.51 218.67 218.38 218.09 217.72 217.17 216.63 216.17 215.81 215.45 215.62 216.22 216.82 217.03 217.05 217.06 217.08 217.11 217.13 216.88 216.59 216.29 215.74 215.18 214.62 213.95 213.28 212.73 212.62 212.52 212.51 212.68 212.86 212.98 213.02 213.06 212.85 212.45 212.04 212.1 212.41 212.71 212.71 212.63 212.54 211.82 211.02 210.22 210.78 211.35 211.88 212.16 212.45 212.56 212.11 211.66 211.26 210.95 210.65 210.44 210.33 210.22 210.29 210.49 210.67 210.07 209.1 208.12 207.37 206.71 206.07 205.89 205.75 205.6 204.72 203.84 202.81 200.92 198.99 198.08 200.4 202.75 203.72 202.23 200.77 195.8 186.89 177.99 171.94 167.89 163.83 162.21 161.64 161.04 161.5 162.2 162.89 162.79 162.61 162.36 160.03 157.71
202.18 203.23 204.27 204.61 204.71 204.8 204.86 204.9 204.93 204.86 204.78 204.64 203.71 202.77 201.93 201.55 201.18 201.38 202.81 204.24 205.14 205.3 205.46 205.72 206.08 206.43 207.19 208.17 209.15 209.84 210.44 211.04 211.89 212.78 213.67 214.14 214.59 215.07 215.74 216.41 217.13 218.03 218.92 219.47 219.26 219.06 218.62 217.87 217.12 216.57 216.18 215.79 216.11 216.81 217.51 217.98 218.38 218.78 218.49 218.1 217.71 217.64 217.57 217.53 217.68 217.84 217.91 217.67 217.42 217.04 216.39 215.74 215.31 215.16 215 215.29 215.94 216.59 216.81 216.81 216.82 216.85 216.89 216.93 216.67 216.37 216.07 215.39 214.72 214.07 213.61 213.14 212.73 212.52 212.32 212.16 212.08 212.01 212.06 212.23 212.41 212.36 212.15 211.94 212.02 212.25 212.48 212.41 212.26 212.11 211.65 211.15 210.66 211.22 211.78 212.29 212.44 212.6 212.66 212.4 212.14 211.9 211.72 211.54 211.44 211.43 211.42 211.4 211.37 211.35 210.72 209.82 208.92 208.25 207.64 207.02 206.79 206.58 206.37 205.78 205.19 204.54 203.58 202.6 202.29 203.92 205.56 205.82 203.68 201.55 196.24 187.46 178.67 172.96 169.35 165.73 165.06 165.61 166.13 166.44 166.73 167.03 166.38 165.68 164.92 162.54 160.14
201.63 203.04 204.44 204.77 204.75 204.74 204.97 205.25 205.52 205.37 205.22 205.02 204.37 203.71 202.91 201.56 200.23 199.9 201.74 203.59 204.78 205.1 205.42 205.74 206.05 206.36 207.12 208.13 209.14 209.64 209.98 210.33 211.15 212.03 212.92 213.22 213.52 213.86 214.66 215.45 216.3 217.38 218.46 219.17 219.12 219.07 218.7 217.93 217.15 216.54 216.08 215.61 215.92 216.62 217.32 217.66 217.89 218.13 217.82 217.43 217.05 217.06 217.07 217.09 217.13 217.17 217.16 216.96 216.75 216.36 215.6 214.84 214.45 214.5 214.55 214.97 215.66 216.36 216.58 216.58 216.57 216.62 216.67 216.73 216.46 216.16 215.84 215.05 214.25 213.52 213.27 213.01 212.74 212.42 212.11 211.8 211.48 211.16 211.14 211.45 211.76 211.88 211.87 211.85 211.94 212.1 212.25 212.1 211.88 211.67 211.48 211.29 211.11 211.67 212.22 212.7 212.72 212.75 212.75 212.67 212.58 212.51 212.46 212.4 212.42 212.52 212.61 212.45 212.13 211.8 211.09 210.21 209.33 208.92 208.6 208.28 208.01 207.73 207.46 207.11 206.75 206.4 206.09 205.76 205.76 206.72 207.7 207.3 204.65 202.02 196.71 188.61 180.5 175.45 172.4 169.33 169.66 171.32 172.96 172.57 171.8 171.04 169.29 167.5 165.72 163.9 162.07
201.77 203.24 204.71 204.99 204.88 204.77 204.8 204.86 204.92 205.06 205.2 205.29 204.96 204.63 204.09 202.77 201.45 200.91 202.06 203.22 204.22 204.96 205.69 206.13 206.33 206.53 207.21 208.15 209.09 209.45 209.65 209.86 210.56 211.33 212.1 212.53 212.95 213.41 214.25 215.09 215.97 217.02 218.06 218.78 218.81 218.85 218.6 217.98 217.35 216.88 216.54 216.19 216.46 217.05 217.64 217.74 217.71 217.69 217.39 217.05 216.72 216.77 216.81 216.84 216.8 216.76 216.68 216.47 216.27 215.85 215.03 214.21 213.83 213.97 214.12 214.58 215.26 215.95 216.21 216.27 216.32 216.39 216.47 216.55 216.29 216 215.69 214.84 213.98 213.23 213.1 212.97 212.78 212.39 211.99 211.55 211.03 210.5 210.41 210.82 211.23 211.47 211.61 211.76 211.86 211.94 212.02 211.8 211.51 211.23 211.32 211.43 211.56 212.11 212.66 213.1 213 212.89 212.84 212.94 213.03 213.12 213.19 213.27 213.4 213.6 213.8 213.5 212.88 212.25 211.46 210.6 209.74 209.59 209.57 209.55 209.22 208.88 208.55 208.44 208.32 208.27 208.61 208.93 209.23 209.51 209.81 208.77 205.61 202.47 197.19 189.78 182.35 177.95 175.45 172.95 174.29 177.06 179.8 178.68 176.85 175.03 172.18 169.3 166.54 165.28 164.01
201.91 203.45 204.99 205.2 205 204.8 204.61 204.42 204.23 204.69 205.15 205.55 205.55 205.54 205.29 204.16 203.02 202.35 202.62 202.91 203.62 204.83 206.04 206.62 206.69 206.76 207.34 208.18 209.02 209.27 209.37 209.47 210.02 210.63 211.24 211.94 212.63 213.33 214.19 215.05 215.91 216.8 217.7 218.32 218.4 218.48 218.38 218.04 217.69 217.51 217.46 217.41 217.65 218.05 218.45 218.22 217.84 217.46 217.23 217.01 216.8 216.82 216.85 216.86 216.79 216.71 216.59 216.33 216.07 215.62 214.85 214.08 213.67 213.69 213.71 214.04 214.59 215.14 215.5 215.77 216.04 216.2 216.32 216.45 216.26 216.03 215.8 215.2 214.59 214.02 213.71 213.4 213.08 212.74 212.41 212.08 211.78 211.47 211.45 211.73 212.01 212.02 211.85 211.69 211.73 211.84 211.96 211.94 211.88 211.82 211.97 212.14 212.32 212.8 213.29 213.68 213.59 213.49 213.43 213.43 213.43 213.46 213.53 213.61 213.7 213.8 213.9 213.51 212.8 212.09 211.4 210.7 210.01 210.04 210.22 210.39 210.2 210 209.8 209.79 209.77 209.82 210.18 210.54 210.8 210.82 210.84 209.7 206.79 203.87 199.35 193.27 187.15 183.4 181.08 178.77 180.04 182.62 185.22 182.95 179.84 176.77 173.24 169.69 166.34 165.39 164.45
202.04 203.65 205.26 205.41 205.12 204.84 204.41 203.97 203.54 204.32 205.1 205.82 206.15 206.47 206.5 205.55 204.6 203.76 203.16 202.58 203.02 204.72 206.4 207.1 207.04 206.99 207.46 208.2 208.94 209.09 209.08 209.08 209.48 209.93 210.39 211.35 212.31 213.25 214.13 215 215.85 216.59 217.33 217.86 217.99 218.11 218.16 218.1 218.04 218.15 218.39 218.63 218.84 219.05 219.26 218.7 217.95 217.22 217.07 216.97 216.87 216.88 216.89 216.88 216.78 216.67 216.51 216.19 215.87 215.4 214.67 213.94 213.51 213.4 213.29 213.5 213.91 214.33 214.8 215.29 215.77 216 216.17 216.35 216.22 216.07 215.91 215.56 215.2 214.81 214.31 213.81 213.38 213.1 212.82 212.62 212.54 212.45 212.48 212.63 212.79 212.56 212.09 211.62 211.6 211.74 211.89 212.07 212.26 212.43 212.65 212.86 213.09 213.51 213.93 214.27 214.21 214.14 214.06 213.94 213.81 213.76 213.81 213.86 213.86 213.8 213.75 213.27 212.51 211.76 211.21 210.72 210.23 210.43 210.75 211.07 211.1 211.1 211.11 211.14 211.17 211.2 211.25 211.3 211.32 211.26 211.2 210.29 208.13 205.96 202.74 198.53 194.29 191.24 188.88 186.53 186.79 187.97 189.17 185.29 180.61 175.95 172.15 168.38 164.84 163.81 162.79
202.82 204.35 205.88 205.88 205.46 205.04 204.8 204.57 204.34 205.07 205.8 206.48 206.83 207.17 207.31 206.75 206.18 205.42 204.32 203.22 203.27 204.68 206.1 206.74 206.78 206.83 207.33 208.05 208.76 208.97 209.05 209.13 209.58 210.07 210.57 211.56 212.56 213.53 214.32 215.12 215.85 216.38 216.92 217.3 217.38 217.46 217.63 217.87 218.1 218.43 218.84 219.24 219.45 219.57 219.7 219.06 218.24 217.41 217.36 217.36 217.37 217.35 217.34 217.31 217.16 217 216.79 216.41 216.04 215.56 214.92 214.28 213.86 213.67 213.48 213.56 213.83 214.1 214.61 215.21 215.81 216.05 216.23 216.4 216.3 216.18 216.06 215.91 215.76 215.53 214.88 214.23 213.69 213.46 213.24 213.16 213.29 213.42 213.5 213.53 213.57 213.09 212.31 211.54 211.46 211.65 211.83 212.21 212.63 213.05 213.32 213.59 213.86 214.22 214.57 214.86 214.83 214.8 214.7 214.45 214.2 214.06 214.09 214.11 214.02 213.81 213.6 213.03 212.23 211.44 211.02 210.74 210.45 210.82 211.29 211.76 211.99 212.22 212.43 212.5 212.57 212.58 212.31 212.05 211.83 211.7 211.57 210.9 209.49 208.06 206.16 203.84 201.47 199.08 196.69 194.29 193.52 193.3 193.1 187.6 181.33 175.1 171.06 167.06 163.34 162.23 161.13
203.65 205.09 206.53 206.39 205.83 205.27 205.29 205.36 205.43 206.04 206.65 207.23 207.52 207.82 208.02 207.9 207.76 207.15 205.68 204.21 203.82 204.66 205.51 206.01 206.26 206.5 207.08 207.8 208.52 208.89 209.17 209.45 210.08 210.74 211.41 212.31 213.21 214.08 214.71 215.35 215.9 216.18 216.46 216.63 216.58 216.53 216.77 217.32 217.86 218.31 218.7 219.09 219.31 219.47 219.62 219.26 218.78 218.29 218.36 218.48 218.58 218.58 218.59 218.55 218.35 218.14 217.89 217.51 217.13 216.74 216.35 215.95 215.73 215.69 215.64 215.76 215.99 216.21 216.55 216.93 217.32 217.37 217.36 217.36 217.06 216.76 216.46 216.15 215.84 215.51 215.06 214.6 214.18 213.88 213.58 213.45 213.59 213.73 213.82 213.87 213.92 213.49 212.76 212.03 211.97 212.15 212.33 212.73 213.17 213.61 213.93 214.24 214.56 214.92 215.28 215.55 215.44 215.33 215.16 214.85 214.54 214.35 214.3 214.25 214.2 214.13 214.05 213.45 212.55 211.65 211.27 211.07 210.87 211.31 211.85 212.38 212.69 213 213.3 213.48 213.66 213.71 213.27 212.84 212.48 212.25 212.03 211.49 210.52 209.55 208.36 207.01 205.65 203.61 201.2 198.8 197.13 195.71 194.31 188.02 181.06 174.09 169.79 165.52 161.57 160.29 159.03
204.49 205.83 207.18 206.89 206.19 205.5 205.78 206.15 206.52 207.02 207.51 207.97 208.22 208.47 208.74 209.05 209.35 208.87 207.03 205.2 204.37 204.63 204.91 205.29 205.74 206.18 206.82 207.55 208.28 208.81 209.29 209.77 210.58 211.42 212.25 213.05 213.86 214.62 215.1 215.59 215.95 215.97 216 215.95 215.77 215.6 215.93 216.78 217.62 218.18 218.56 218.93 219.18 219.37 219.55 219.47 219.33 219.17 219.37 219.59 219.8 219.81 219.83 219.79 219.54 219.28 218.99 218.61 218.22 217.93 217.78 217.63 217.61 217.71 217.81 217.96 218.14 218.32 218.49 218.65 218.82 218.68 218.49 218.31 217.83 217.34 216.85 216.38 215.92 215.49 215.23 214.97 214.68 214.29 213.91 213.74 213.89 214.03 214.14 214.21 214.27 213.88 213.21 212.54 212.51 212.69 212.87 213.28 213.72 214.16 214.52 214.88 215.24 215.62 216.01 216.27 216.05 215.83 215.57 215.23 214.88 214.63 214.49 214.36 214.39 214.57 214.74 214.13 213.11 212.09 211.72 211.54 211.37 211.85 212.41 212.98 213.28 213.58 213.88 214.2 214.52 214.66 214.16 213.66 213.23 212.91 212.59 212.06 211.23 210.4 209.23 207.79 206.35 204.17 201.62 199.07 196.53 194.03 191.54 185.6 179.23 172.86 168.21 163.57 159.29 157.64 156
204.6 205.52 206.45 206.4 206.11 205.82 206.38 207.02 207.64 207.9 208.16 208.42 208.64 208.86 209.05 209.2 209.35 208.83 207.19 205.54 204.6 204.42 204.24 204.47 204.97 205.47 206.42 207.55 208.67 209.34 209.92 210.5 211.34 212.19 213.03 213.7 214.38 215 215.36 215.71 215.94 215.85 215.76 215.6 215.36 215.11 215.47 216.43 217.4 217.97 218.29 218.62 218.89 219.14 219.38 219.55 219.7 219.85 220.14 220.44 220.72 220.75 220.78 220.76 220.5 220.23 219.94 219.61 219.27 219.09 219.15 219.21 219.35 219.57 219.79 219.96 220.11 220.25 220.28 220.26 220.25 219.93 219.57 219.22 218.56 217.9 217.24 216.61 215.99 215.47 215.42 215.36 215.17 214.71 214.24 214.04 214.19 214.34 214.45 214.54 214.63 214.27 213.67 213.06 213.05 213.23 213.42 213.83 214.27 214.71 215.12 215.52 215.92 216.33 216.73 216.98 216.66 216.33 215.99 215.61 215.22 214.91 214.68 214.46 214.59 215.01 215.42 214.81 213.67 212.53 212.16 212.02 211.88 212.39 212.98 213.58 213.87 214.16 214.47 214.93 215.39 215.62 215.05 214.49 213.97 213.56 213.15 212.62 211.94 211.26 210.1 208.57 207.05 204.73 202.03 199.34 195.92 192.32 188.75 183.2 177.42 171.64 166.62 161.62 157 154.97 152.96
204.54 204.94 205.35 205.65 205.92 206.17 207.02 207.91 208.76 208.74 208.73 208.76 208.94 209.13 209.17 208.86 208.54 207.91 206.73 205.54 204.65 204.08 203.52 203.58 204.03 204.48 205.93 207.75 209.57 210.37 210.98 211.59 212.32 213.05 213.77 214.26 214.75 215.2 215.46 215.71 215.88 215.84 215.79 215.68 215.49 215.29 215.6 216.39 217.18 217.6 217.8 218 218.31 218.66 219 219.34 219.68 220.01 220.3 220.58 220.85 220.87 220.89 220.87 220.69 220.5 220.34 220.24 220.14 220.11 220.2 220.3 220.37 220.44 220.51 220.59 220.68 220.77 220.81 220.83 220.85 220.41 219.9 219.39 218.73 218.07 217.41 216.86 216.31 215.85 215.79 215.73 215.53 215.04 214.55 214.35 214.55 214.75 214.82 214.79 214.76 214.57 214.3 214.02 214.11 214.31 214.52 214.89 215.29 215.69 216.04 216.38 216.71 216.92 217.13 217.22 216.82 216.42 216.05 215.74 215.43 215.23 215.18 215.12 215.37 215.87 216.37 215.8 214.69 213.58 213.27 213.19 213.11 213.61 214.17 214.73 214.97 215.22 215.48 215.83 216.19 216.34 215.77 215.2 214.64 214.14 213.63 213.08 212.46 211.84 210.55 208.76 206.99 204.25 201.08 197.94 193.78 189.37 184.96 179.92 174.8 169.67 164.7 159.7 155.06 152.79 150.52
204.48 204.36 204.25 204.92 205.73 206.54 207.66 208.81 209.87 209.58 209.3 209.09 209.24 209.39 209.29 208.51 207.73 206.99 206.27 205.55 204.7 203.75 202.8 202.68 203.08 203.49 205.44 207.97 210.47 211.41 212.04 212.68 213.3 213.91 214.51 214.81 215.12 215.4 215.55 215.71 215.82 215.82 215.82 215.77 215.62 215.47 215.72 216.34 216.96 217.24 217.31 217.39 217.74 218.18 218.62 219.13 219.65 220.17 220.45 220.72 220.97 220.98 221 220.99 220.88 220.78 220.75 220.88 221.01 221.13 221.26 221.38 221.39 221.31 221.23 221.22 221.26 221.29 221.34 221.4 221.45 220.88 220.21 219.55 218.89 218.23 217.59 217.11 216.63 216.24 216.17 216.11 215.9 215.37 214.85 214.67 214.92 215.17 215.19 215.03 214.86 214.87 214.97 215.05 215.25 215.49 215.73 216.07 216.43 216.78 217.04 217.3 217.52 217.47 217.43 217.29 216.81 216.34 215.97 215.77 215.58 215.58 215.83 216.07 216.46 216.96 217.47 216.97 216.01 215.04 214.85 214.87 214.89 215.35 215.85 216.34 216.53 216.72 216.89 216.9 216.92 216.82 216.3 215.78 215.23 214.62 214.01 213.37 212.69 212 210.34 207.99 205.64 201.92 197.6 193.31 188.6 183.79 178.98 174.58 170.2 165.81 161.88 157.92 154.23 152.19 150.15
204.78 204.39 204.01 204.92 206.07 207.23 208.29 209.34 210.32 210.01 209.69 209.42 209.4 209.38 209.11 208.21 207.32 206.53 205.93 205.33 204.59 203.71 202.82 202.72 203.1 203.48 205.42 207.92 210.44 211.34 211.95 212.57 213.28 214 214.67 214.85 215.03 215.21 215.33 215.46 215.56 215.62 215.67 215.68 215.63 215.57 215.77 216.21 216.65 216.83 216.86 216.88 217.25 217.74 218.22 218.87 219.53 220.2 220.46 220.72 220.95 220.98 221 221.02 221.02 221.02 221.12 221.46 221.8 222.07 222.23 222.39 222.35 222.14 221.93 221.85 221.83 221.81 221.87 221.96 222.05 221.34 220.53 219.72 219.06 218.4 217.77 217.36 216.96 216.62 216.55 216.49 216.26 215.7 215.15 214.98 215.29 215.6 215.56 215.26 214.96 215.18 215.64 216.09 216.4 216.67 216.95 217.25 217.56 217.87 218.04 218.22 218.33 218.02 217.71 217.35 216.81 216.26 215.89 215.81 215.73 215.94 216.48 217.02 217.54 218.05 218.57 218.15 217.33 216.5 216.43 216.56 216.68 217.09 217.52 217.95 218.09 218.22 218.29 217.96 217.65 217.29 216.83 216.36 215.81 215.1 214.39 213.67 212.92 212.17 210.12 207.2 204.29 199.57 194.1 188.66 183.41 178.2 173 169.26 165.61 161.98 159.08 156.16 153.4 151.6 149.79
205.24 204.68 204.13 205.25 206.66 208.07 208.89 209.69 210.42 210.2 209.98 209.75 209.46 209.17 208.74 207.97 207.19 206.43 205.68 204.93 204.36 203.96 203.55 203.66 204.06 204.46 205.84 207.57 209.31 209.97 210.45 210.93 211.98 213.04 214.02 214.14 214.26 214.39 214.59 214.79 214.96 215.06 215.16 215.26 215.37 215.47 215.64 215.88 216.12 216.33 216.52 216.71 217.03 217.41 217.78 218.39 219.03 219.67 219.87 220.07 220.26 220.37 220.48 220.61 220.81 221 221.24 221.54 221.85 222.11 222.29 222.48 222.5 222.39 222.28 222.23 222.22 222.21 222.18 222.15 222.12 221.38 220.55 219.73 219.18 218.62 218.09 217.76 217.43 217.15 217.02 216.9 216.66 216.2 215.74 215.66 216.01 216.37 216.43 216.27 216.09 216.36 216.82 217.29 217.61 217.88 218.16 218.41 218.65 218.9 218.97 219.06 219.08 218.72 218.36 217.94 217.31 216.68 216.29 216.3 216.31 216.64 217.33 218.02 218.58 219.05 219.52 219.2 218.53 217.86 217.86 218.02 218.19 218.51 218.85 219.18 219.24 219.3 219.29 218.83 218.36 217.92 217.52 217.12 216.52 215.57 214.64 213.77 212.97 212.17 209.94 206.75 203.55 198.1 191.76 185.42 179.65 174.01 168.37 165.22 162.21 159.24 157.12 155 152.96 151.24 149.54
205.69 204.97 204.26 205.58 207.26 208.93 209.5 210.03 210.52 210.4 210.28 210.07 209.51 208.95 208.37 207.72 207.07 206.32 205.42 204.52 204.14 204.22 204.29 204.59 205.02 205.45 206.26 207.21 208.17 208.6 208.94 209.28 210.68 212.09 213.37 213.42 213.48 213.58 213.85 214.12 214.35 214.5 214.65 214.85 215.11 215.38 215.51 215.54 215.58 215.82 216.18 216.53 216.81 217.08 217.34 217.91 218.53 219.14 219.28 219.42 219.57 219.76 219.95 220.19 220.59 221 221.35 221.63 221.9 222.15 222.36 222.57 222.65 222.64 222.62 222.62 222.62 222.62 222.49 222.33 222.17 221.4 220.56 219.73 219.29 218.85 218.43 218.18 217.93 217.69 217.5 217.31 217.07 216.73 216.39 216.4 216.81 217.22 217.42 217.46 217.5 217.77 218.15 218.53 218.83 219.1 219.38 219.56 219.73 219.9 219.88 219.86 219.8 219.51 219.21 218.81 218.1 217.39 216.98 217.08 217.17 217.58 218.32 219.06 219.59 219.97 220.35 220.12 219.62 219.12 219.14 219.27 219.39 219.57 219.74 219.92 219.87 219.83 219.74 219.42 219.08 218.76 218.48 218.2 217.47 216.04 214.62 213.5 212.66 211.82 209.85 207.16 204.45 199.14 192.85 186.55 180.56 174.64 168.72 166.13 163.69 161.26 159.03 156.81 154.57 152.29 150.02
205.74 205.03 204.31 205.74 207.52 209.3 209.63 209.92 210.18 210.01 209.85 209.61 209.06 208.51 208.01 207.64 207.27 206.65 205.7 204.75 204.46 204.75 205.03 205.44 205.9 206.37 206.78 207.18 207.58 207.7 207.78 207.88 209.58 211.3 212.83 212.85 212.86 212.94 213.22 213.51 213.77 213.99 214.19 214.47 214.84 215.21 215.32 215.21 215.11 215.38 215.85 216.32 216.58 216.79 216.98 217.51 218.08 218.65 218.73 218.81 218.91 219.17 219.43 219.78 220.38 220.98 221.45 221.7 221.95 222.19 222.42 222.65 222.8 222.89 222.97 223.01 223.02 223.02 222.8 222.51 222.22 221.42 220.58 219.74 219.41 219.08 218.76 218.59 218.42 218.23 217.97 217.72 217.48 217.26 217.04 217.15 217.61 218.07 218.41 218.66 218.91 219.19 219.48 219.77 220.05 220.32 220.6 220.71 220.81 220.9 220.77 220.65 220.52 220.29 220.06 219.68 218.89 218.1 217.68 217.86 218.04 218.52 219.31 220.1 220.59 220.89 221.19 221.04 220.72 220.39 220.41 220.51 220.6 220.62 220.64 220.65 220.5 220.36 220.2 220.01 219.81 219.62 219.45 219.28 218.41 216.5 214.6 213.22 212.35 211.47 209.77 207.58 205.37 200.18 193.93 187.68 181.47 175.27 169.07 167.05 165.19 163.28 160.95 158.61 156.18 153.33 150.48
205.56 204.94 204.32 205.78 207.55 209.32 209.41 209.47 209.49 209.13 208.78 208.44 208.14 207.84 207.66 207.74 207.81 207.47 206.61 205.75 205.45 205.61 205.77 206.17 206.69 207.21 207.48 207.69 207.91 207.62 207.27 206.93 208.87 210.81 212.53 212.59 212.64 212.72 212.88 213.05 213.27 213.6 213.93 214.23 214.5 214.77 214.9 214.93 214.96 215.19 215.53 215.86 216.29 216.75 217.2 217.61 218.03 218.44 218.51 218.58 218.66 218.84 219.01 219.3 219.91 220.53 220.96 221.06 221.17 221.4 221.76 222.11 222.39 222.62 222.84 222.93 222.96 222.99 222.64 222.2 221.76 221.04 220.3 219.58 219.38 219.17 218.98 218.96 218.93 218.85 218.62 218.39 218.18 218 217.82 217.99 218.53 219.07 219.48 219.8 220.12 220.37 220.6 220.83 221.06 221.29 221.52 221.56 221.59 221.61 221.4 221.19 220.98 220.76 220.53 220.18 219.52 218.84 218.53 218.78 219.03 219.52 220.24 220.97 221.4 221.66 221.91 221.84 221.64 221.45 221.47 221.54 221.6 221.5 221.39 221.27 221.06 220.84 220.63 220.39 220.17 219.95 219.74 219.54 218.55 216.4 214.25 212.76 211.9 211.04 209.49 207.55 205.63 200.62 194.53 188.44 182.3 176.11 169.89 168.31 166.89 165.37 162.83 160.31 157.65 154.28 150.91
205.38 204.86 204.34 205.82 207.58 209.34 209.18 209.01 208.8 208.25 207.71 207.28 207.23 207.19 207.33 207.85 208.36 208.3 207.53 206.76 206.44 206.47 206.51 206.91 207.48 208.04 208.18 208.21 208.24 207.53 206.74 205.99 208.16 210.33 212.23 212.32 212.41 212.49 212.54 212.58 212.77 213.22 213.67 213.99 214.15 214.32 214.49 214.66 214.82 215 215.2 215.4 216.01 216.71 217.42 217.71 217.97 218.23 218.29 218.34 218.41 218.5 218.59 218.82 219.45 220.08 220.47 220.43 220.39 220.6 221.08 221.56 221.97 222.33 222.68 222.82 222.87 222.92 222.43 221.83 221.23 220.61 220 219.4 219.32 219.23 219.18 219.32 219.45 219.5 219.32 219.14 218.96 218.8 218.64 218.87 219.5 220.12 220.57 220.9 221.23 221.45 221.63 221.81 221.96 222.12 222.27 222.24 222.2 222.14 221.85 221.55 221.26 220.98 220.71 220.4 220.01 219.62 219.51 219.84 220.16 220.59 221.12 221.65 222.01 222.26 222.5 222.47 222.32 222.18 222.2 222.24 222.28 222.08 221.88 221.67 221.47 221.26 220.97 220.32 219.69 219.03 218.33 217.64 216.49 214.69 212.89 211.68 211.01 210.33 208.33 205.62 202.92 198.11 192.61 187.09 182.72 178.49 174.21 172.23 170.29 168.19 164.45 160.73 157.13 153.88 150.63
205.18 204.75 204.31 205.75 207.43 209.12 208.73 208.35 207.95 207.36 206.76 206.35 206.57 206.79 207.17 207.89 208.62 208.74 208.12 207.5 207.17 207.07 206.98 207.32 207.87 208.42 208.54 208.53 208.52 207.55 206.48 205.46 207.61 209.77 211.69 211.9 212.1 212.25 212.25 212.24 212.42 212.94 213.47 213.78 213.85 213.92 214.11 214.39 214.67 214.81 214.89 214.96 215.73 216.67 217.6 217.79 217.91 218.02 218.07 218.11 218.15 218.16 218.17 218.35 218.99 219.64 219.97 219.79 219.61 219.81 220.41 221.01 221.54 222.04 222.53 222.72 222.78 222.84 222.22 221.45 220.69 220.18 219.69 219.22 219.26 219.3 219.38 219.68 219.98 220.15 220.02 219.88 219.74 219.6 219.45 219.75 220.46 221.18 221.66 222 222.34 222.52 222.65 222.78 222.87 222.94 223.02 222.92 222.8 222.67 222.29 221.9 221.53 221.21 220.88 220.62 220.51 220.4 220.49 220.89 221.29 221.66 221.99 222.33 222.61 222.85 223.1 223.09 223.01 222.92 222.92 222.94 222.96 222.67 222.37 222.08 221.88 221.68 221.31 220.25 219.2 218.1 216.91 215.72 214.43 212.99 211.54 210.61 210.12 209.63 207.17 203.67 200.2 195.62 190.69 185.75 183.18 180.9 178.58 176.13 173.69 170.99 166.04 161.12 156.61 153.49 150.36
204.96 204.61 204.25 205.58 207.11 208.62 208.05 207.48 206.92 206.45 205.98 205.73 206.25 206.75 207.28 207.84 208.41 208.54 208.16 207.78 207.45 207.18 206.9 207.06 207.41 207.76 208.08 208.39 208.7 207.89 206.97 206.12 207.53 208.96 210.28 210.86 211.44 211.93 212.21 212.48 212.79 213.2 213.61 213.81 213.8 213.8 213.96 214.23 214.51 214.66 214.76 214.85 215.48 216.24 216.99 217.28 217.54 217.77 217.74 217.7 217.69 217.83 217.97 218.26 218.96 219.65 220.02 219.84 219.67 219.85 220.4 220.96 221.47 221.95 222.44 222.58 222.59 222.6 221.91 221.07 220.24 219.87 219.52 219.2 219.26 219.33 219.43 219.72 220.01 220.2 220.14 220.07 220.04 220.04 220.04 220.46 221.27 222.07 222.52 222.77 223.01 223.18 223.31 223.44 223.46 223.46 223.46 223.28 223.08 222.88 222.56 222.24 221.9 221.54 221.17 220.96 221.09 221.21 221.44 221.81 222.19 222.47 222.66 222.86 223.05 223.26 223.46 223.5 223.48 223.45 223.41 223.36 223.32 222.92 222.51 222.13 221.9 221.68 221.22 219.84 218.47 217.05 215.55 214.03 212.69 211.57 210.45 209.74 209.38 209.01 206.17 202.06 197.93 193.6 189.21 184.8 183.83 183.33 182.86 179.94 177.04 173.75 167.61 161.48 156.09 153.09 150.09
