345.63 344.89 344.12 343.35 342.59 341.84 341.09 340.33 340.04 339.83 339.62 339.44 339.25 339.05 338.65 338.14 337.62 336.54 334.96 333.41 332.01 330.81 329.64 328.92 329.19 329.48 329.99 331.31 332.64 333.98 335.36 336.72 338.07 338.47 338.87 339.26 338.99 338.65 338.31 338.03 337.78 337.53 338 338.78 339.55 340.8 342.4 344.02 345.82 347.82 349.83 351.85 353.89 355.92 357.85 359.56 361.28 362.94 364.34 365.75 367.16 368.5 369.83 371.16 372.03 372.86 373.68 373.6 373.39 373.2 371.8 370.01 368.23 367.99 368.6 369.24 369.35 368.97 368.57 368.53 368.94 369.37 369.96 370.89 371.83 372.61 372.83 373.03 373.26 373.67 374.09 374.5 374.85 375.22 375.6 377.2 378.9 380.6 381.49 382.21 382.93 380.97 377.99 375.01 373.65 373.27 372.9 373.22 374.18 375.14 375.94 376.52 377.1 377.87 379.04 380.21 381.33 382.28 383.24 384.19 385.04 385.91 386.79 387.76 388.73 389.69 391.14 392.65 394.15 394.89 395.44 396.01 397.26 398.83 400.4 401.85 403.21 404.55 405.84 407.09 408.33 408.27 406.15 404.05 401.89 399.5 397.09 394.61 391.86 389.11 386.53 386.19 385.84 385.47 388.5 391.6 394.7 399.16 403.82 408.48 412.72 416.85 420.99 424.92 428.73 432.52 435.52
345.15 344.4 343.79 343.17 342.54 341.82 341.1 340.38 340.23 340.18 340.13 340.19 340.27 340.34 340.21 339.96 339.69 338.69 337.07 335.42 333.75 332.09 330.45 329.31 329.16 329.04 329.23 330.36 331.51 332.74 334.35 335.97 337.56 338.09 338.62 339.13 338.84 338.48 338.13 337.78 337.44 337.11 337.69 338.62 339.54 340.73 342.1 343.48 345.16 347.12 349.07 351.1 353.22 355.33 357.27 358.8 360.35 361.84 363.08 364.33 365.6 367 368.4 369.8 370.91 372.01 373.09 372.82 372.39 371.97 370.43 368.59 366.76 366.17 366.18 366.23 366.28 366.31 366.31 366.48 366.84 367.21 367.7 368.39 369.1 369.73 370.14 370.53 370.93 371.39 371.84 372.28 372.5 372.72 372.96 374.52 376.14 377.76 378.68 379.49 380.29 378.36 375.56 372.74 371.54 371.22 370.88 371.25 372.19 373.13 373.91 374.51 375.1 375.86 376.96 378.05 379.12 380.09 381.06 381.99 382.74 383.5 384.26 385.16 386.08 387 388.41 389.87 391.34 391.9 392.28 392.65 393.78 395.2 396.63 398.2 399.85 401.5 403.07 404.57 406.06 405.9 403.44 401 398.68 396.58 394.46 392.22 389.61 387 384.64 384.55 384.46 384.34 387.73 391.11 394.47 399.13 403.93 408.72 412.85 416.81 420.78 424.85 428.95 433.03 435.97
344.67 343.91 343.43 342.94 342.45 341.73 341.01 340.3 340.28 340.36 340.43 340.7 341.01 341.32 341.45 341.5 341.53 340.82 339.55 338.27 336.6 334.55 332.52 330.99 330.3 329.65 329.38 330.14 330.92 331.84 333.38 334.93 336.43 337.16 337.88 338.59 338.31 337.98 337.66 337.43 337.22 337 337.67 338.64 339.61 340.7 341.87 343.04 344.57 346.41 348.25 350.22 352.34 354.47 356.39 357.88 359.36 360.74 361.82 362.9 364.04 365.52 366.99 368.45 369.76 371.08 372.42 371.97 371.36 370.73 369.07 367.18 365.29 364.31 363.72 363.17 363.24 363.67 364.08 364.43 364.74 365.05 365.42 365.88 366.35 366.87 367.46 368.04 368.6 369.1 369.6 370.06 370.13 370.22 370.31 371.83 373.37 374.91 375.88 376.76 377.65 375.77 373.13 370.48 369.45 369.16 368.87 369.28 370.19 371.11 371.89 372.53 373.16 373.92 374.92 375.93 376.94 377.96 378.97 379.92 380.63 381.34 382.06 382.81 383.57 384.33 385.59 386.88 388.17 388.72 389.14 389.55 390.67 392.02 393.37 394.98 396.73 398.48 400.05 401.48 402.91 402.89 401.02 399.12 397.11 394.99 392.86 390.61 387.94 385.27 382.98 383.03 383.08 383.24 386.94 390.62 394.28 399.25 404.3 409.33 413.36 417.18 421 425.07 429.24 433.44 436.24
344.18 343.42 343.08 342.72 342.36 341.64 340.93 340.22 340.34 340.54 340.74 341.22 341.77 342.3 342.71 343.05 343.38 342.97 342.06 341.13 339.44 336.99 334.57 332.63 331.41 330.22 329.5 329.89 330.3 330.93 332.41 333.88 335.32 336.24 337.15 338.05 337.77 337.47 337.16 337.08 337.03 336.97 337.72 338.72 339.71 340.68 341.66 342.65 344.02 345.69 347.36 349.21 351.24 353.29 355.16 356.72 358.28 359.66 360.57 361.49 362.52 364.09 365.65 367.18 368.32 369.47 370.64 370.34 369.96 369.57 368.47 367.2 365.9 364.7 363.58 362.48 362.12 362.18 362.27 362.58 363.04 363.48 363.91 364.32 364.73 365.13 365.54 365.98 366.44 366.89 367.35 367.76 367.76 367.76 367.79 369.25 370.71 372.17 373.14 374.07 375.01 373.18 370.71 368.24 367.35 367.11 366.86 367.31 368.2 369.09 369.88 370.55 371.21 371.98 372.89 373.8 374.77 375.82 376.88 377.85 378.52 379.19 379.85 380.44 381.05 381.66 382.76 383.87 385 385.54 386 386.46 387.55 388.83 390.1 391.77 393.62 395.46 397.02 398.37 399.73 399.89 398.67 397.41 395.8 393.67 391.53 389.22 386.46 383.7 381.42 381.57 381.71 382.08 386.12 390.14 394.13 399.56 405.02 410.46 414.52 418.35 422.18 425.93 429.68 433.45 435.86
343.58 342.88 342.5 342.12 341.74 341.21 340.66 340.11 340.4 340.75 341.09 341.75 342.48 343.2 343.8 344.35 344.89 344.78 344.27 343.73 342.09 339.45 336.81 334.52 332.75 331 329.82 329.79 329.78 330.09 331.47 332.86 334.22 335.33 336.43 337.51 337.23 336.95 336.67 336.74 336.85 336.94 337.78 338.79 339.81 340.66 341.44 342.24 343.46 344.96 346.47 348.19 350.14 352.1 353.93 355.57 357.2 358.57 359.32 360.08 361.01 362.66 364.31 365.9 366.87 367.86 368.85 368.73 368.58 368.42 367.93 367.36 366.75 365.38 363.82 362.28 361.46 361.01 360.59 360.83 361.54 362.24 362.88 363.46 364.03 364.37 364.36 364.37 364.46 364.75 365.05 365.32 365.38 365.44 365.56 367.04 368.51 369.98 370.77 371.53 372.3 370.42 368.04 365.65 364.96 364.85 364.73 365.26 366.16 367.06 367.85 368.53 369.22 369.99 370.88 371.76 372.68 373.68 374.68 375.6 376.24 376.88 377.5 378.05 378.59 379.14 380.06 381 381.94 382.48 382.98 383.48 384.51 385.68 386.86 388.57 390.51 392.46 393.99 395.27 396.55 396.92 396.35 395.74 394.49 392.34 390.19 387.83 384.97 382.12 379.87 380.11 380.34 380.95 385.32 389.68 394.01 399.89 405.77 411.62 415.69 419.52 423.36 426.77 430.08 433.43 435.45
342.98 342.32 341.88 341.44 341.01 340.68 340.35 340 340.48 340.98 341.47 342.29 343.17 344.03 344.72 345.36 345.99 346.14 346.01 345.86 344.44 342 339.55 337.19 334.96 332.75 331.15 330.66 330.19 330.16 331.4 332.66 333.88 334.85 335.83 336.76 336.47 336.18 335.89 335.94 336.02 336.1 336.97 338 339.03 339.9 340.7 341.5 342.72 344.19 345.65 347.25 349 350.76 352.49 354.15 355.82 357.2 357.92 358.62 359.52 361.23 362.95 364.58 365.4 366.22 367.04 367.13 367.21 367.28 367.43 367.56 367.65 366.03 364.03 362.05 360.77 359.8 358.87 359.09 360.06 361.03 361.87 362.61 363.33 363.59 363.15 362.73 362.48 362.61 362.75 362.89 363.01 363.12 363.34 364.83 366.31 367.8 368.4 368.99 369.59 367.66 365.37 363.07 362.56 362.58 362.59 363.21 364.11 365.02 365.81 366.51 367.21 367.99 368.88 369.77 370.65 371.51 372.38 373.18 373.78 374.38 374.99 375.63 376.26 376.9 377.68 378.47 379.27 379.88 380.47 381.06 381.98 382.97 383.97 385.46 387.14 388.83 390.4 391.88 393.35 393.92 393.71 393.48 392.52 390.61 388.67 386.41 383.49 380.57 378.41 378.83 379.24 380.14 384.75 389.36 393.98 400.12 406.27 412.41 416.46 420.32 424.18 427.29 430.23 433.2 434.9
342.38 341.77 341.25 340.75 340.28 340.17 340.04 339.9 340.56 341.21 341.85 342.84 343.86 344.87 345.66 346.38 347.1 347.51 347.77 348.01 346.8 344.56 342.31 339.84 337.14 334.48 332.46 331.5 330.57 330.22 331.33 332.45 333.53 334.37 335.22 336 335.68 335.37 335.06 335.01 334.97 334.95 335.79 336.77 337.76 338.69 339.6 340.5 341.83 343.39 344.94 346.39 347.77 349.17 350.64 352.16 353.68 355.04 356.05 357.04 358.17 359.75 361.34 362.84 363.68 364.53 365.35 365.61 365.86 366.09 366.3 366.5 366.71 365.27 363.49 361.68 360.27 359.01 357.77 357.94 358.95 359.97 360.8 361.48 362.17 362.31 361.68 361.04 360.61 360.63 360.66 360.7 360.83 360.97 361.24 362.64 364.07 365.53 365.97 366.42 366.86 364.91 362.7 360.49 360.18 360.33 360.47 361.15 362.07 362.99 363.78 364.49 365.2 366 366.89 367.78 368.61 369.34 370.07 370.76 371.32 371.88 372.47 373.21 373.94 374.66 375.29 375.94 376.59 377.28 377.97 378.65 379.44 380.25 381.07 382.33 383.75 385.17 386.79 388.48 390.16 390.94 391.02 391.08 390.36 388.74 387.09 384.97 382 379.04 377.01 377.7 378.37 379.66 384.44 389.21 394.03 400.13 406.23 412.34 416.23 419.99 423.76 426.54 429.16 431.79 433.19
343.03 342.61 342.26 341.89 341.53 341.36 341.19 341.04 341.48 341.94 342.42 343.41 344.44 345.48 346.33 347.13 347.93 348.58 349.18 349.76 348.82 346.89 344.93 342.38 339.3 336.21 333.78 332.34 330.93 330.26 331.25 332.24 333.18 333.89 334.61 335.23 334.89 334.56 334.22 334.07 333.92 333.79 334.6 335.54 336.48 337.49 338.5 339.51 340.95 342.59 344.23 345.5 346.52 347.57 348.77 350.15 351.54 352.9 354.2 355.49 356.81 358.26 359.73 361.1 361.97 362.83 363.67 364.09 364.51 364.91 365.06 365.2 365.34 364.15 362.73 361.28 359.85 358.43 357.02 357.15 358.09 359.03 359.66 360.04 360.44 360.42 359.85 359.29 358.94 359.03 359.12 359.21 359.33 359.45 359.67 360.55 361.46 362.38 362.69 363.01 363.34 361.64 359.79 357.91 357.92 358.29 358.66 359.33 360.13 360.93 361.68 362.38 363.08 363.88 364.76 365.64 366.44 367.1 367.77 368.4 368.95 369.49 370.09 370.87 371.65 372.41 372.94 373.46 373.99 374.74 375.5 376.26 376.89 377.51 378.15 379.19 380.34 381.5 383.19 385.09 386.98 387.97 388.34 388.69 388.22 386.88 385.53 383.53 380.52 377.51 375.64 376.59 377.53 379.18 384.13 389.06 394.08 400.14 406.2 412.26 415.98 419.65 423.33 425.78 428.06 430.36 431.47
343.96 343.83 343.77 343.7 343.58 343.34 343.11 342.89 342.95 343.03 343.13 343.99 344.89 345.8 346.63 347.44 348.26 349.01 349.73 350.45 349.8 348.37 346.9 344.53 341.4 338.27 335.6 333.54 331.52 330.41 331.08 331.77 332.45 333.06 333.67 334.18 333.89 333.59 333.29 333.11 332.93 332.75 333.45 334.24 335.05 336.11 337.23 338.35 339.78 341.35 342.95 344.1 344.97 345.82 346.89 348.16 349.43 350.81 352.34 353.87 355.36 356.72 358.09 359.36 360.25 361.14 362 362.59 363.17 363.74 363.82 363.9 363.98 363.06 361.99 360.91 359.42 357.84 356.27 356.36 357.22 358.09 358.5 358.59 358.7 358.53 358.03 357.54 357.29 357.44 357.58 357.72 357.82 357.93 358.07 358.43 358.82 359.22 359.4 359.6 359.8 358.37 356.87 355.34 355.69 356.32 356.94 357.57 358.21 358.87 359.54 360.22 360.9 361.68 362.53 363.38 364.15 364.82 365.48 366.13 366.72 367.31 367.94 368.69 369.44 370.16 370.73 371.29 371.86 372.57 373.28 374 374.64 375.29 375.92 376.8 377.73 378.67 380.05 381.62 383.21 384.2 384.81 385.41 385.16 384.15 383.11 381.31 378.46 375.6 374.06 375.42 376.74 378.84 383.91 388.98 394.13 400.03 405.95 411.88 415.48 419.09 422.71 424.87 426.87 428.88 429.73
344.91 345.07 345.3 345.52 345.63 345.32 345.02 344.72 344.4 344.09 343.81 344.56 345.33 346.11 346.94 347.76 348.59 349.44 350.29 351.14 350.8 349.87 348.91 346.68 343.5 340.33 337.38 334.72 332.09 330.55 330.89 331.25 331.66 332.16 332.67 333.07 332.82 332.57 332.33 332.15 331.97 331.79 332.31 332.88 333.47 334.58 335.79 336.99 338.19 339.41 340.65 341.76 342.78 343.78 344.95 346.26 347.56 348.89 350.25 351.63 352.98 354.26 355.54 356.78 357.85 358.91 359.96 360.94 361.89 362.8 362.8 362.81 362.82 362.06 361.23 360.38 358.82 357.1 355.39 355.57 356.49 357.4 357.7 357.61 357.52 357.16 356.58 356.01 355.75 355.91 356.08 356.23 356.32 356.42 356.46 356.31 356.16 356.05 356.11 356.17 356.25 355.12 353.97 352.8 353.47 354.36 355.23 355.8 356.29 356.8 357.41 358.07 358.73 359.48 360.29 361.11 361.86 362.53 363.19 363.85 364.49 365.13 365.79 366.5 367.22 367.92 368.52 369.13 369.74 370.4 371.07 371.73 372.4 373.06 373.72 374.44 375.18 375.94 376.96 378.1 379.26 380.18 380.96 381.73 381.67 380.92 380.15 378.56 375.96 373.34 372.28 374.17 376.03 378.67 383.84 389 394.19 399.59 405.03 410.42 413.87 417.33 420.8 422.77 424.65 426.53 427.52
346.28 346.44 346.64 346.86 346.98 346.7 346.41 346.11 345.7 345.28 344.85 345.37 345.91 346.48 347.22 348 348.78 349.69 350.63 351.59 351.57 351.12 350.68 348.65 345.53 342.38 339.13 335.85 332.62 330.66 330.68 330.72 330.87 331.26 331.66 331.96 331.76 331.56 331.36 331.18 331.01 330.83 331.16 331.51 331.88 333.06 334.35 335.63 336.58 337.45 338.34 339.42 340.59 341.76 343.01 344.35 345.69 346.95 348.16 349.37 350.58 351.78 352.99 354.2 355.43 356.65 357.89 359.28 360.64 361.91 361.85 361.79 361.74 361.11 360.45 359.77 358.09 356.24 354.4 354.78 355.92 357.04 357.41 357.38 357.34 356.82 355.92 355.04 354.57 354.63 354.69 354.77 354.88 354.99 355.05 354.92 354.8 354.69 354.67 354.65 354.61 353.49 352.37 351.24 351.99 352.89 353.79 354.21 354.53 354.86 355.37 355.96 356.55 357.25 358.02 358.79 359.51 360.19 360.86 361.55 362.25 362.95 363.64 364.32 365.01 365.68 366.32 366.95 367.59 368.22 368.85 369.47 370.15 370.83 371.51 372.07 372.63 373.2 373.85 374.55 375.28 376.17 377.13 378.07 378.19 377.7 377.2 375.81 373.47 371.11 370.54 372.96 375.35 378.51 383.77 389.02 394.22 399.13 404.08 408.94 412.24 415.55 418.87 420.67 422.42 424.17 425.33
347.81 347.84 347.88 347.93 347.91 347.65 347.39 347.13 346.88 346.61 346.36 346.53 346.71 346.92 347.46 348.02 348.6 349.34 350.11 350.89 350.79 350.36 349.92 348.1 345.44 342.75 339.74 336.47 333.2 331.2 330.97 330.75 330.67 330.89 331.11 331.26 331.06 330.87 330.68 330.49 330.31 330.13 330.3 330.48 330.67 331.73 332.9 334.09 334.8 335.4 336 337.05 338.3 339.56 340.89 342.28 343.67 344.92 346.01 347.1 348.19 349.31 350.43 351.64 353.02 354.4 355.86 357.65 359.42 361.01 360.89 360.77 360.66 360.18 359.68 359.17 357.36 355.38 353.41 354.01 355.35 356.68 357.13 357.15 357.16 356.46 355.24 354.04 353.38 353.34 353.3 353.32 353.45 353.57 353.64 353.54 353.44 353.35 353.32 353.28 353.2 352.11 351.02 349.93 350.71 351.59 352.47 352.71 352.85 353 353.4 353.89 354.38 355 355.7 356.4 357.09 357.78 358.46 359.19 359.97 360.75 361.49 362.18 362.86 363.51 364.08 364.65 365.23 365.86 366.5 367.13 367.88 368.62 369.36 369.89 370.4 370.91 371.42 371.93 372.44 373.15 373.95 374.76 374.87 374.53 374.18 373.01 371.03 369.01 369.03 372.01 374.95 378.57 383.83 389.1 394.19 398.57 403 407.34 410.51 413.7 416.9 418.56 420.18 421.8 423.15
349.33 349.24 349.11 348.98 348.84 348.61 348.37 348.16 348.07 347.96 347.84 347.66 347.5 347.35 347.68 348.04 348.41 348.97 349.58 350.19 350.02 349.59 349.16 347.58 345.38 343.15 340.33 337.07 333.8 331.79 331.33 330.88 330.61 330.66 330.72 330.72 330.53 330.35 330.16 329.99 329.81 329.64 329.74 329.84 329.94 330.64 331.4 332.19 332.71 333.17 333.65 334.52 335.55 336.6 337.77 339.02 340.28 341.56 342.86 344.14 345.49 346.94 348.37 349.84 351.43 353.01 354.63 356.46 358.28 359.89 359.75 359.61 359.46 358.99 358.52 358.06 356.13 354.06 352 352.68 354.05 355.44 355.97 356.13 356.28 355.56 354.25 352.91 352.16 352.03 351.9 351.88 352.02 352.15 352.23 352.16 352.09 352.02 351.97 351.92 351.79 350.73 349.67 348.61 349.43 350.28 351.14 351.2 351.16 351.13 351.42 351.81 352.2 352.74 353.37 354 354.67 355.37 356.06 356.83 357.7 358.55 359.35 360.03 360.71 361.34 361.83 362.33 362.86 363.5 364.15 364.8 365.61 366.41 367.21 367.74 368.25 368.76 369.21 369.66 370.11 370.61 371.13 371.67 371.67 371.37 371.07 370.14 368.65 367.12 367.84 371.47 375.06 379.12 384.21 389.3 394.06 397.65 401.3 404.89 407.79 410.72 413.64 415.68 417.7 419.69 420.98
350.12 350.02 349.85 349.67 349.48 349.25 349.03 348.84 348.76 348.69 348.61 348.26 347.9 347.54 347.74 347.95 348.16 348.57 349.02 349.47 349.23 348.81 348.4 347.09 345.34 343.57 340.92 337.66 334.39 332.36 331.67 331 330.54 330.42 330.31 330.19 330.01 329.83 329.65 329.48 329.31 329.16 329.17 329.19 329.21 329.53 329.89 330.27 330.61 330.94 331.28 331.98 332.79 333.62 334.64 335.76 336.89 338.22 339.71 341.19 342.81 344.6 346.37 348.16 349.99 351.81 353.61 355.38 357.16 358.67 358.52 358.36 358.2 357.62 357.06 356.5 354.42 352.24 350.07 350.54 351.56 352.59 353.04 353.26 353.48 353.03 352.16 351.26 350.76 350.63 350.51 350.54 350.78 351.01 351.18 351.22 351.25 351.22 350.99 350.77 350.47 349.42 348.37 347.34 348.07 348.81 349.56 349.54 349.45 349.35 349.55 349.84 350.13 350.61 351.16 351.73 352.36 353.04 353.72 354.5 355.4 356.3 357.13 357.83 358.53 359.15 359.59 360.02 360.49 361.14 361.8 362.47 363.34 364.21 365.07 365.59 366.1 366.61 367 367.39 367.78 368.05 368.29 368.55 368.48 368.23 367.97 367.3 366.29 365.26 366.7 370.97 375.2 379.66 384.57 389.5 393.87 396.69 399.55 402.41 405.06 407.72 410.39 412.82 415.23 417.61 418.81
350.51 350.4 350.23 350.06 349.85 349.58 349.31 349.02 348.68 348.36 348.05 347.74 347.42 347.11 347.31 347.5 347.7 348 348.32 348.65 348.21 347.6 347 345.9 344.57 343.21 341.19 338.71 336.18 334.29 333.1 331.94 331.13 330.8 330.49 330.2 329.93 329.67 329.43 329.25 329.07 328.9 328.84 328.79 328.73 328.75 328.78 328.8 328.94 329.09 329.25 329.71 330.25 330.8 331.61 332.54 333.49 334.89 336.57 338.25 340.14 342.28 344.39 346.48 348.56 350.62 352.58 354.31 356.04 357.45 357.28 357.12 356.93 356.25 355.59 354.93 352.7 350.42 348.14 348.38 349.04 349.72 350.11 350.4 350.69 350.52 350.1 349.64 349.36 349.24 349.12 349.2 349.55 349.88 350.15 350.31 350.46 350.47 350.06 349.65 349.17 348.13 347.08 346.1 346.67 347.24 347.82 347.79 347.72 347.65 347.8 348 348.2 348.64 349.15 349.67 350.27 350.91 351.55 352.24 352.98 353.73 354.49 355.27 356.04 356.74 357.28 357.82 358.38 359.02 359.67 360.33 361.1 361.89 362.67 363.16 363.64 364.13 364.55 364.96 365.36 365.55 365.68 365.81 365.65 365.38 365.12 364.7 364.17 363.6 365.68 370.45 375.22 379.96 384.68 389.43 393.43 395.57 397.72 399.92 402.31 404.72 407.17 409.99 412.79 415.56 416.64
350.89 350.78 350.61 350.44 350.22 349.9 349.58 349.19 348.6 348.02 347.5 347.22 346.94 346.68 346.87 347.05 347.24 347.42 347.62 347.81 347.17 346.37 345.59 344.71 343.77 342.8 341.47 339.9 338.27 336.56 334.84 333.14 331.98 331.48 330.99 330.54 330.17 329.8 329.48 329.3 329.11 328.94 328.86 328.79 328.72 328.69 328.67 328.66 328.68 328.72 328.77 329.06 329.41 329.78 330.38 331.09 331.81 332.96 334.38 335.82 337.65 339.84 342.04 344.26 346.5 348.75 350.83 352.56 354.3 355.66 355.51 355.36 355.18 354.68 354.15 353.6 351.25 348.89 346.54 346.55 346.86 347.18 347.49 347.79 348.09 348.17 348.13 348.08 347.98 347.86 347.72 347.88 348.32 348.76 349.13 349.41 349.68 349.71 349.11 348.53 347.87 346.84 345.8 344.86 345.25 345.65 346.07 346.04 345.99 345.94 346.03 346.15 346.27 346.66 347.14 347.62 348.18 348.77 349.38 349.96 350.55 351.14 351.86 352.71 353.56 354.33 354.99 355.64 356.28 356.92 357.56 358.21 358.86 359.53 360.19 360.62 361.06 361.5 361.97 362.43 362.89 363.1 363.26 363.43 363.23 362.91 362.59 362.46 362.42 362.35 364.89 369.8 374.7 379.32 383.57 387.85 391.41 393.39 395.39 397.43 399.61 401.8 404.02 406.37 408.75 411.15 412.58
351.56 351.42 351.2 350.98 350.69 350.28 349.87 349.38 348.66 347.92 347.26 346.94 346.63 346.36 346.47 346.6 346.75 346.83 346.9 346.97 346.12 345.14 344.17 343.54 342.99 342.41 341.8 341.13 340.41 338.79 336.54 334.32 332.82 332.14 331.47 330.88 330.4 329.93 329.53 329.34 329.15 328.97 328.88 328.79 328.7 328.63 328.57 328.51 328.42 328.35 328.28 328.4 328.57 328.74 329.14 329.62 330.12 331.05 332.23 333.42 335.17 337.39 339.6 341.89 344.27 346.64 348.78 350.5 352.22 353.51 353.35 353.2 353.05 352.91 352.76 352.53 350.2 347.86 345.53 345.41 345.5 345.6 345.84 346.11 346.38 346.57 346.71 346.85 346.93 346.97 347 347.23 347.65 348.07 348.44 348.74 349.04 348.99 348.16 347.35 346.51 345.52 344.53 343.66 344.01 344.35 344.69 344.6 344.51 344.43 344.45 344.5 344.54 344.85 345.24 345.64 346.13 346.66 347.21 347.69 348.13 348.57 349.24 350.16 351.07 351.94 352.7 353.46 354.18 354.82 355.46 356.08 356.62 357.16 357.7 358.09 358.48 358.88 359.39 359.9 360.42 360.66 360.85 361.05 360.81 360.43 360.06 360.25 360.7 361.12 364.11 369.15 374.19 378.65 382.43 386.24 389.37 391.21 393.05 394.93 396.9 398.88 400.84 402.62 404.44 406.29 408.12
352.49 352.33 352.01 351.7 351.29 350.73 350.19 349.64 349.08 348.5 347.94 347.47 347.01 346.58 346.36 346.16 345.98 346.06 346.13 346.21 345.69 345.08 344.45 343.97 343.53 343.09 342.66 342.24 341.81 340.43 338.39 336.31 334.78 333.86 332.95 332.17 331.6 331.03 330.49 330.06 329.66 329.3 329.06 328.84 328.65 328.54 328.44 328.34 328.17 327.99 327.81 327.76 327.72 327.7 327.89 328.14 328.41 329.13 330.06 331.01 332.69 334.93 337.17 339.53 342.04 344.53 346.74 348.44 350.15 351.37 351.2 351.03 350.93 351.17 351.4 351.46 349.15 346.83 344.52 344.26 344.13 344.01 344.19 344.43 344.67 344.98 345.31 345.63 345.88 346.09 346.29 346.6 347.02 347.43 347.8 348.11 348.43 348.27 347.2 346.14 345.13 344.2 343.26 342.5 342.89 343.28 343.66 343.48 343.31 343.15 343.15 343.17 343.19 343.39 343.63 343.89 344.25 344.65 345.06 345.48 345.89 346.31 346.91 347.7 348.5 349.3 350.11 350.92 351.7 352.43 353.16 353.85 354.42 354.98 355.52 355.88 356.24 356.6 357.08 357.57 358.06 358.31 358.53 358.75 358.52 358.17 357.8 358.26 359.1 359.93 363.22 368.3 373.4 377.69 381.09 384.51 387.29 389.01 390.7 392.41 394.17 395.95 397.63 398.85 400.1 401.46 403.68
353.42 353.23 352.82 352.42 351.88 351.19 350.5 349.91 349.51 349.1 348.62 348 347.38 346.77 346.23 345.7 345.21 345.28 345.36 345.44 345.31 345.13 344.93 344.64 344.33 344.01 343.66 343.29 342.92 341.85 340.34 338.8 337.46 336.33 335.22 334.35 333.81 333.27 332.63 331.77 330.94 330.17 329.59 329.02 328.52 328.38 328.23 328.09 327.95 327.8 327.65 327.56 327.48 327.4 327.51 327.67 327.82 328.41 329.18 329.95 331.5 333.56 335.63 337.83 340.18 342.55 344.6 346.17 347.76 348.85 348.73 348.59 348.57 349.02 349.47 349.71 347.63 345.51 343.36 343.05 342.76 342.47 342.6 342.8 343 343.42 343.92 344.43 344.85 345.23 345.59 345.98 346.38 346.79 347.16 347.49 347.81 347.54 346.22 344.92 343.75 342.88 342.01 341.34 341.78 342.22 342.62 342.36 342.11 341.86 341.84 341.84 341.83 341.91 342.02 342.13 342.36 342.63 342.91 343.26 343.65 344.04 344.57 345.24 345.91 346.66 347.5 348.33 349.17 350 350.82 351.6 352.24 352.88 353.48 353.84 354.2 354.56 354.98 355.4 355.82 356.08 356.33 356.58 356.48 356.29 356.09 356.76 357.77 358.77 361.89 366.36 370.88 374.69 377.83 380.99 383.59 385.37 387.14 388.89 390.59 392.3 393.94 395.28 396.61 398.02 400.25
353.97 353.76 353.29 352.83 352.21 351.44 350.66 350.06 349.75 349.46 349.06 348.34 347.63 346.89 346.05 345.21 344.43 344.51 344.59 344.67 344.95 345.21 345.44 345.32 345.13 344.94 344.66 344.34 344.03 343.3 342.33 341.32 340.12 338.79 337.47 336.52 336.02 335.52 334.73 333.45 332.19 331.02 330.09 329.18 328.39 328.2 328.02 327.85 327.73 327.61 327.49 327.36 327.23 327.11 327.16 327.25 327.35 327.86 328.53 329.2 330.63 332.51 334.41 336.4 338.5 340.61 342.4 343.74 345.1 346.01 345.93 345.85 345.86 346.22 346.58 346.73 345.11 343.48 341.83 341.64 341.46 341.26 341.43 341.64 341.84 342.16 342.51 342.87 343.34 343.86 344.36 344.76 345.1 345.45 345.63 345.65 345.7 345.3 344.18 343.03 342.02 341.36 340.68 340.2 340.61 341.03 341.39 341.14 340.88 340.61 340.58 340.55 340.52 340.5 340.48 340.45 340.55 340.67 340.81 341.07 341.41 341.76 342.23 342.77 343.32 344.02 344.89 345.75 346.64 347.57 348.49 349.36 350.07 350.79 351.44 351.8 352.16 352.52 352.87 353.22 353.57 353.85 354.14 354.41 354.45 354.42 354.39 355.27 356.45 357.61 360.51 364.4 368.31 371.67 374.56 377.45 379.89 381.72 383.54 385.3 386.92 388.55 390.18 391.79 393.38 395.03 397.2
354.05 353.79 353.24 352.69 352.03 351.25 350.46 349.78 349.26 348.75 348.2 347.52 346.84 346.15 345.39 344.63 343.92 343.81 343.71 343.62 343.87 344.13 344.39 344.41 344.38 344.35 344.19 343.99 343.79 343.32 342.72 342.11 341.26 340.21 339.12 338.47 338.29 338.07 337.32 335.74 334.16 332.61 331.18 329.79 328.61 328.26 327.94 327.66 327.54 327.43 327.33 327.16 326.99 326.82 326.81 326.84 326.86 327.3 327.87 328.44 329.75 331.46 333.18 334.96 336.8 338.65 340.18 341.3 342.43 343.16 343.14 343.11 343.15 343.42 343.69 343.76 342.63 341.47 340.33 340.25 340.16 340.07 340.26 340.47 340.68 340.88 341.09 341.3 341.83 342.46 343.08 343.46 343.7 343.94 343.82 343.4 342.99 342.43 341.61 340.77 340.07 339.7 339.32 339.07 339.37 339.67 339.93 339.77 339.61 339.44 339.4 339.36 339.32 339.3 339.28 339.27 339.31 339.38 339.45 339.65 339.91 340.17 340.51 340.91 341.32 341.89 342.62 343.36 344.19 345.12 346.05 346.95 347.74 348.54 349.26 349.71 350.14 350.57 350.92 351.26 351.59 351.84 352.08 352.34 352.49 352.62 352.74 353.8 355.12 356.44 359.09 362.39 365.72 368.64 371.26 373.9 376.19 378.07 379.94 381.69 383.24 384.79 386.43 388.3 390.16 392.04 394.14
354.13 353.81 353.18 352.55 351.84 351.05 350.27 349.5 348.76 348.03 347.34 346.7 346.06 345.41 344.73 344.05 343.41 343.1 342.8 342.52 342.66 342.81 342.96 343.04 343.11 343.17 343.06 342.92 342.77 342.39 341.92 341.44 341.01 340.57 340.09 340.13 340.67 341.17 340.87 339.45 338.02 336.4 334.35 332.34 330.59 329.75 328.93 328.2 327.94 327.69 327.45 327.19 326.94 326.7 326.64 326.61 326.57 326.89 327.31 327.75 328.89 330.37 331.86 333.48 335.17 336.87 338.28 339.38 340.46 341.12 341.12 341.12 341.12 341.17 341.24 341.18 340.39 339.6 338.87 338.86 338.86 338.86 339.08 339.3 339.53 339.6 339.66 339.72 340.32 341.06 341.8 342.14 342.28 342.43 342 341.11 340.26 339.58 339.06 338.53 338.15 338.06 337.97 337.93 338.11 338.31 338.47 338.41 338.34 338.27 338.22 338.17 338.13 338.11 338.09 338.08 338.08 338.08 338.1 338.23 338.4 338.59 338.83 339.11 339.39 339.84 340.42 341.02 341.75 342.66 343.57 344.46 345.33 346.19 346.99 347.57 348.15 348.7 349.15 349.59 350.02 350.15 350.29 350.44 350.71 350.98 351.25 352.38 353.72 355.06 357.47 360.34 363.25 365.87 368.32 370.77 373.03 375.08 377.11 378.84 380.14 381.45 382.88 384.57 386.27 388.07 390.18
353.45 353.18 352.6 352.01 351.33 350.58 349.83 349.04 348.18 347.3 346.51 345.9 345.28 344.68 344.08 343.47 342.88 342.37 341.88 341.42 341.45 341.49 341.53 341.68 341.84 341.99 341.94 341.84 341.75 341.47 341.13 340.78 340.78 340.95 341.09 341.84 343.09 344.31 344.44 343.17 341.9 340.15 337.49 334.86 332.55 331.21 329.9 328.73 328.33 327.94 327.57 327.24 326.91 326.6 326.49 326.41 326.33 326.53 326.79 327.07 328.02 329.25 330.49 331.97 333.6 335.23 336.71 338.03 339.33 340.15 340.28 340.41 340.41 340.16 339.94 339.63 338.91 338.2 337.54 337.5 337.46 337.42 337.67 337.92 338.17 338.27 338.34 338.41 338.86 339.42 340 340.23 340.31 340.39 339.94 339.1 338.24 337.62 337.24 336.87 336.65 336.69 336.73 336.79 336.91 337.02 337.12 337.11 337.1 337.1 337.04 336.98 336.92 336.9 336.89 336.88 336.83 336.78 336.73 336.8 336.89 337 337.13 337.29 337.46 337.77 338.21 338.66 339.31 340.19 341.08 341.98 342.92 343.86 344.73 345.45 346.16 346.84 347.38 347.92 348.43 348.46 348.5 348.54 348.94 349.35 349.75 350.96 352.32 353.68 355.82 358.27 360.74 363.09 365.37 367.66 369.93 372.18 374.41 376.12 377.16 378.22 379.37 380.7 382.05 383.58 385.67
351.38 351.16 350.76 350.35 349.76 349.04 348.32 347.68 347.1 346.51 345.91 345.31 344.7 344.07 343.37 342.67 342.04 341.67 341.29 340.91 340.74 340.58 340.43 340.6 340.77 340.94 340.86 340.75 340.64 340.41 340.15 339.88 340.19 340.78 341.37 342.62 344.38 346.16 346.71 345.81 344.88 343.2 340.19 337.15 334.42 332.63 330.84 329.25 328.72 328.19 327.68 327.28 326.88 326.49 326.34 326.21 326.08 326.15 326.26 326.39 327.14 328.11 329.11 330.47 332.03 333.6 335.15 336.69 338.22 339.19 339.45 339.7 339.68 339.14 338.62 338.08 337.44 336.8 336.22 336.14 336.06 336 336.27 336.55 336.82 336.94 337.04 337.14 337.4 337.72 338.05 338.14 338.14 338.15 337.81 337.25 336.67 336.25 335.98 335.7 335.55 335.58 335.62 335.68 335.78 335.88 335.95 335.94 335.92 335.9 335.81 335.73 335.65 335.61 335.58 335.54 335.5 335.47 335.43 335.48 335.56 335.63 335.72 335.82 335.92 336.16 336.5 336.84 337.36 338.08 338.82 339.63 340.56 341.49 342.39 343.21 344.03 344.81 345.44 346.06 346.64 346.67 346.69 346.7 347.21 347.73 348.26 349.51 350.89 352.27 354.15 356.17 358.22 360.3 362.41 364.53 366.84 369.29 371.72 373.38 374.17 374.97 375.84 376.82 377.81 379.09 381.15
349.3 349.15 348.93 348.7 348.18 347.5 346.81 346.33 346.05 345.75 345.31 344.72 344.13 343.46 342.65 341.84 341.17 340.98 340.77 340.54 340.17 339.82 339.47 339.64 339.8 339.96 339.81 339.64 339.46 339.21 338.94 338.68 339.05 339.69 340.33 341.46 342.95 344.46 344.99 344.48 343.95 342.68 340.24 337.76 335.5 333.84 332.16 330.61 329.67 328.75 327.89 327.47 327.05 326.63 326.51 326.4 326.28 326.19 326.12 326.05 326.59 327.31 328.05 329.23 330.63 332.05 333.56 335.15 336.76 337.83 338.28 338.71 338.74 338.06 337.36 336.67 336.05 335.44 334.91 334.79 334.67 334.57 334.87 335.17 335.47 335.61 335.74 335.86 335.93 336 336.08 336.04 335.97 335.89 335.7 335.42 335.12 334.89 334.71 334.53 334.45 334.48 334.51 334.56 334.65 334.73 334.79 334.76 334.73 334.69 334.59 334.49 334.38 334.32 334.26 334.21 334.18 334.15 334.12 334.17 334.23 334.3 334.36 334.42 334.48 334.68 334.95 335.24 335.64 336.16 336.69 337.36 338.22 339.08 339.96 340.84 341.72 342.54 343.17 343.8 344.39 344.63 344.85 345.06 345.6 346.14 346.68 347.8 349 350.21 351.99 353.91 355.84 357.81 359.8 361.8 363.97 366.26 368.57 370.14 370.94 371.73 372.55 373.43 374.3 375.46 377.37
347.35 347.24 347.14 347.05 346.61 345.97 345.32 345.01 345 344.99 344.72 344.13 343.55 342.84 341.92 341.01 340.31 340.3 340.27 340.16 339.59 339.04 338.52 338.67 338.83 338.99 338.76 338.52 338.27 338.01 337.74 337.48 337.91 338.6 339.28 340.29 341.51 342.74 343.29 343.18 343.05 342.19 340.31 338.41 336.6 335.05 333.49 331.97 330.63 329.31 328.11 327.69 327.27 326.84 326.79 326.72 326.66 326.41 326.16 325.92 326.27 326.77 327.28 328.24 329.42 330.6 331.89 333.26 334.64 335.67 336.32 336.96 337.2 336.83 336.44 335.94 335.19 334.45 333.83 333.68 333.54 333.44 333.89 334.33 334.77 334.87 334.96 335.06 334.93 334.79 334.65 334.51 334.37 334.23 334.07 333.91 333.75 333.62 333.51 333.39 333.35 333.39 333.42 333.47 333.54 333.61 333.65 333.61 333.57 333.51 333.38 333.25 333.13 333.04 332.95 332.87 332.85 332.83 332.82 332.86 332.91 332.96 332.99 333.02 333.04 333.19 333.41 333.63 333.9 334.22 334.55 335.09 335.88 336.68 337.53 338.47 339.4 340.26 340.91 341.55 342.16 342.6 343.02 343.44 343.99 344.55 345.1 346.08 347.1 348.14 349.82 351.64 353.46 355.34 357.23 359.14 361.13 363.19 365.27 366.73 367.62 368.5 369.41 370.36 371.3 372.49 374.22
345.78 345.64 345.48 345.32 344.98 344.54 344.09 343.74 343.48 343.23 342.93 342.56 342.18 341.56 340.55 339.55 338.86 339.02 339.17 339.2 338.68 338.15 337.66 337.72 337.79 337.86 337.62 337.35 337.08 336.84 336.59 336.35 336.78 337.45 338.12 339 339.98 340.97 341.56 341.8 342.05 341.63 340.36 339.08 337.7 336.27 334.83 333.31 331.57 329.85 328.34 327.91 327.48 327.07 327.06 327.05 327.04 326.63 326.2 325.78 325.93 326.2 326.49 327.24 328.19 329.14 330.21 331.36 332.52 333.53 334.38 335.22 335.68 335.62 335.55 335.21 334.33 333.46 332.74 332.57 332.4 332.33 332.95 333.55 334.15 334.22 334.3 334.37 334.07 333.74 333.42 333.23 333.07 332.91 332.78 332.65 332.53 332.43 332.35 332.27 332.26 332.32 332.38 332.43 332.48 332.52 332.55 332.53 332.51 332.46 332.33 332.21 332.08 331.96 331.84 331.72 331.7 331.67 331.65 331.66 331.67 331.68 331.68 331.68 331.69 331.8 331.96 332.13 332.33 332.55 332.77 333.22 333.93 334.64 335.43 336.37 337.31 338.17 338.81 339.45 340.09 340.69 341.29 341.88 342.42 342.97 343.53 344.35 345.2 346.06 347.64 349.36 351.08 352.86 354.66 356.46 358.28 360.11 361.96 363.33 364.31 365.28 366.27 367.3 368.31 369.51 371.06
344.21 344.03 343.81 343.59 343.36 343.12 342.87 342.45 341.94 341.44 341.11 340.94 340.75 340.18 339.06 337.95 337.26 337.56 337.85 338 337.61 337.22 336.85 336.76 336.68 336.61 336.37 336.14 335.9 335.72 335.54 335.35 335.67 336.14 336.62 337.34 338.17 339.01 339.49 339.71 339.93 339.6 338.65 337.68 336.64 335.52 334.39 333.18 331.8 330.4 329.1 328.41 327.75 327.13 327.03 326.93 326.85 326.55 326.23 325.89 325.86 325.89 325.93 326.45 327.13 327.83 328.65 329.55 330.47 331.43 332.42 333.42 334.09 334.35 334.59 334.41 333.44 332.45 331.66 331.46 331.27 331.22 332.01 332.78 333.52 333.57 333.63 333.68 333.2 332.69 332.19 331.96 331.78 331.6 331.49 331.4 331.31 331.24 331.2 331.16 331.18 331.25 331.33 331.38 331.41 331.44 331.46 331.45 331.44 331.41 331.28 331.16 331.03 330.88 330.72 330.58 330.55 330.53 330.51 330.47 330.44 330.4 330.39 330.37 330.36 330.44 330.57 330.7 330.89 331.12 331.35 331.79 332.44 333.09 333.84 334.74 335.63 336.47 337.16 337.84 338.54 339.29 340.03 340.73 341.15 341.57 341.99 342.84 343.68 344.53 346 347.56 349.12 350.74 352.38 354.02 355.71 357.41 359.11 360.44 361.47 362.51 363.54 364.57 365.61 366.78 368.17
342.59 342.38 342.12 341.86 341.75 341.71 341.66 341.15 340.39 339.64 339.31 339.32 339.33 338.8 337.57 336.35 335.67 336.11 336.54 336.81 336.56 336.3 336.03 335.79 335.56 335.34 335.13 334.92 334.71 334.6 334.48 334.37 334.55 334.82 335.1 335.67 336.35 337.04 337.42 337.61 337.81 337.59 336.95 336.29 335.54 334.67 333.79 332.88 331.94 330.97 329.98 328.99 328.02 327.13 326.84 326.56 326.29 326.29 326.27 326.24 326.05 325.85 325.66 325.94 326.36 326.79 327.36 327.99 328.64 329.45 330.38 331.31 332.01 332.44 332.87 332.84 332.09 331.32 330.7 330.51 330.32 330.3 331.04 331.79 332.51 332.69 332.85 333.01 332.38 331.73 331.09 330.81 330.58 330.36 330.26 330.2 330.13 330.09 330.07 330.05 330.09 330.18 330.28 330.33 330.34 330.36 330.37 330.38 330.39 330.36 330.24 330.11 329.98 329.79 329.61 329.44 329.41 329.39 329.36 329.28 329.2 329.13 329.09 329.06 329.04 329.09 329.17 329.26 329.44 329.69 329.93 330.35 330.94 331.54 332.24 333.1 333.96 334.78 335.51 336.24 337 337.9 338.78 339.58 339.87 340.16 340.47 341.32 342.18 343.03 344.4 345.81 347.24 348.69 350.16 351.65 353.23 354.87 356.5 357.83 358.94 360.05 361.12 362.16 363.2 364.35 365.65
340.67 340.52 340.36 340.19 340.1 340.03 339.97 339.5 338.81 338.12 337.85 337.92 337.98 337.46 336.24 335.02 334.34 334.64 334.96 335.19 335.14 335.07 334.97 334.72 334.47 334.22 334.03 333.84 333.65 333.57 333.5 333.42 333.5 333.6 333.7 334.1 334.61 335.12 335.4 335.54 335.68 335.59 335.27 334.92 334.46 333.84 333.21 332.62 332.11 331.57 330.84 329.55 328.27 327.11 326.63 326.17 325.73 326.04 326.33 326.6 326.22 325.79 325.38 325.42 325.57 325.74 326.04 326.41 326.79 327.47 328.33 329.2 329.94 330.55 331.15 331.28 330.74 330.19 329.75 329.57 329.39 329.39 330.07 330.75 331.4 331.73 332.05 332.36 331.59 330.83 330.07 329.74 329.46 329.19 329.1 329.05 329.01 328.99 328.98 328.97 329.02 329.11 329.2 329.25 329.27 329.28 329.31 329.36 329.4 329.4 329.28 329.16 329.03 328.87 328.7 328.55 328.52 328.49 328.46 328.39 328.31 328.24 328.22 328.2 328.19 328.19 328.2 328.22 328.35 328.56 328.76 329.14 329.66 330.19 330.83 331.62 332.41 333.21 334.01 334.79 335.6 336.56 337.54 338.41 338.58 338.74 338.94 339.81 340.67 341.54 342.78 344.06 345.34 346.63 347.94 349.26 350.76 352.32 353.89 355.22 356.41 357.6 358.71 359.75 360.79 361.91 363.12
338.74 338.67 338.6 338.53 338.44 338.36 338.27 337.84 337.24 336.63 336.45 336.55 336.65 336.14 334.98 333.81 333.1 333.15 333.21 333.31 333.46 333.6 333.69 333.56 333.42 333.27 333.12 332.97 332.81 332.74 332.67 332.6 332.69 332.8 332.91 333.21 333.56 333.93 334.11 334.19 334.27 334.12 333.79 333.45 333.08 332.65 332.21 331.79 331.42 331.05 330.46 329.26 328.04 326.92 326.37 325.81 325.31 325.73 326.15 326.57 326.15 325.68 325.19 325.02 324.91 324.82 324.9 325.04 325.18 325.7 326.45 327.2 327.94 328.68 329.44 329.74 329.42 329.08 328.8 328.63 328.47 328.48 329.09 329.71 330.31 330.79 331.25 331.68 330.79 329.92 329.05 328.67 328.34 328.01 327.93 327.91 327.89 327.89 327.89 327.89 327.94 328.03 328.13 328.18 328.19 328.2 328.25 328.34 328.42 328.44 328.32 328.2 328.08 327.95 327.82 327.7 327.67 327.65 327.62 327.59 327.56 327.52 327.56 327.61 327.65 327.63 327.59 327.55 327.64 327.79 327.94 328.29 328.77 329.25 329.84 330.55 331.26 332.11 333.17 334.22 335.12 335.69 336.28 336.83 337.09 337.34 337.63 338.43 339.23 340.04 341.12 342.22 343.32 344.49 345.68 346.87 348.26 349.72 351.18 352.5 353.73 354.97 356.13 357.24 358.33 359.47 360.64
336.81 336.82 336.85 336.87 336.79 336.68 336.58 336.18 335.67 335.15 335.04 335.18 335.32 334.82 333.71 332.6 331.86 331.64 331.44 331.43 331.8 332.15 332.41 332.39 332.37 332.33 332.21 332.09 331.97 331.91 331.85 331.78 331.89 332.01 332.12 332.31 332.51 332.73 332.81 332.83 332.86 332.67 332.32 331.97 331.66 331.4 331.12 330.81 330.46 330.11 329.58 328.58 327.57 326.62 326.06 325.49 325 325.33 325.67 326.02 325.76 325.48 325.19 324.88 324.57 324.28 324.39 324.62 324.83 325.3 325.88 326.48 326.94 327.29 327.68 327.83 327.7 327.56 327.44 327.37 327.28 327.36 327.88 328.42 328.94 329.4 329.87 330.27 329.49 328.69 327.89 327.55 327.24 326.91 326.86 326.85 326.84 326.85 326.86 326.87 326.92 327.01 327.09 327.13 327.13 327.14 327.2 327.32 327.44 327.49 327.37 327.25 327.14 327.04 326.94 326.84 326.83 326.81 326.79 326.8 326.8 326.81 326.91 327.02 327.12 327.06 326.97 326.88 326.93 327.02 327.11 327.42 327.87 328.31 328.85 329.47 330.1 331.03 332.36 333.67 334.61 334.8 335 335.25 335.6 335.95 336.33 337.06 337.8 338.54 339.43 340.34 341.26 342.32 343.39 344.48 345.75 347.07 348.41 349.67 350.91 352.14 353.37 354.59 355.8 357.03 358.29
335.12 335.03 334.97 334.9 334.75 334.58 334.42 334.07 333.65 333.23 333.15 333.26 333.37 332.95 332.05 331.14 330.51 330.24 329.96 329.91 330.31 330.72 331.05 331.13 331.2 331.25 331.2 331.13 331.07 331.06 331.05 331.02 331.12 331.23 331.35 331.41 331.46 331.52 331.51 331.48 331.45 331.21 330.85 330.49 330.26 330.15 330.04 329.83 329.51 329.18 328.71 327.91 327.1 326.33 325.74 325.16 324.67 324.93 325.19 325.45 325.38 325.3 325.2 324.72 324.22 323.73 323.89 324.19 324.49 324.88 325.31 325.75 325.91 325.89 325.89 325.92 325.97 326.01 326.04 326.04 326.05 326.17 326.6 327.03 327.45 327.79 328.15 328.42 327.83 327.22 326.61 326.39 326.17 325.94 325.92 325.92 325.92 325.95 325.99 326.03 326.1 326.18 326.26 326.28 326.26 326.24 326.27 326.36 326.46 326.51 326.46 326.4 326.34 326.28 326.21 326.14 326.11 326.07 326.04 326.07 326.1 326.13 326.27 326.42 326.57 326.51 326.42 326.33 326.33 326.38 326.42 326.67 327.04 327.41 327.9 328.47 329.04 330.02 331.54 333.09 334.05 333.88 333.7 333.68 334.12 334.56 335.02 335.69 336.36 337.03 337.74 338.46 339.18 340.13 341.1 342.08 343.23 344.42 345.62 346.85 348.08 349.32 350.62 351.94 353.27 354.6 355.94
333.41 333.24 333.08 332.92 332.69 332.45 332.21 331.89 331.54 331.19 331.1 331.13 331.17 330.83 330.2 329.55 329.12 328.93 328.73 328.71 329.01 329.31 329.57 329.7 329.82 329.93 329.94 329.94 329.95 330.16 330.36 330.55 330.6 330.65 330.7 330.79 330.89 330.99 330.92 330.81 330.69 330.42 330.05 329.69 329.53 329.53 329.52 329.32 328.91 328.5 328.03 327.42 326.8 326.19 325.67 325.13 324.67 324.78 324.89 325.01 325.04 325.07 325.11 324.53 323.91 323.28 323.48 323.84 324.2 324.49 324.74 325.02 324.86 324.46 324.07 324.03 324.25 324.47 324.63 324.73 324.81 324.97 325.3 325.64 325.95 326.18 326.41 326.58 326.18 325.76 325.34 325.23 325.1 324.97 324.97 324.99 325 325.06 325.13 325.19 325.27 325.35 325.44 325.43 325.38 325.33 325.34 325.41 325.48 325.53 325.55 325.56 325.57 325.54 325.52 325.49 325.43 325.38 325.33 325.38 325.43 325.48 325.65 325.83 326 325.99 325.96 325.93 325.94 325.97 326 326.17 326.41 326.66 327.17 327.85 328.52 329.4 330.51 331.65 332.36 332.33 332.28 332.38 332.86 333.34 333.81 334.29 334.77 335.28 335.92 336.55 337.19 338.08 338.98 339.88 340.95 342.05 343.15 344.38 345.63 346.88 348.2 349.57 350.94 352.3 353.67
331.71 331.45 331.19 330.93 330.62 330.31 330 329.72 329.44 329.16 329.05 329 328.97 328.74 328.37 327.98 327.73 327.62 327.51 327.51 327.7 327.89 328.09 328.27 328.45 328.61 328.68 328.75 328.85 329.28 329.69 330.1 330.08 330.06 330.04 330.18 330.33 330.48 330.36 330.18 330 329.72 329.39 329.05 328.99 329.1 329.22 329.02 328.49 327.96 327.49 327.07 326.64 326.22 325.84 325.45 325.1 325 324.9 324.82 324.76 324.71 324.67 324.25 323.81 323.36 323.66 324.08 324.5 324.72 324.89 325.06 324.79 324.28 323.78 323.63 323.76 323.89 323.98 324.02 324.06 324.14 324.32 324.5 324.69 324.83 324.98 325.07 324.78 324.49 324.21 324.14 324.07 324 324.05 324.1 324.14 324.22 324.31 324.4 324.48 324.55 324.63 324.6 324.51 324.42 324.41 324.45 324.49 324.56 324.65 324.73 324.79 324.82 324.84 324.83 324.76 324.68 324.62 324.69 324.76 324.83 325.03 325.23 325.43 325.48 325.51 325.53 325.54 325.56 325.57 325.66 325.78 325.91 326.44 327.23 328.02 328.75 329.45 330.19 330.68 330.78 330.87 331.09 331.62 332.15 332.61 332.87 333.14 333.45 334.05 334.64 335.24 336.1 336.96 337.82 338.87 339.95 341.03 342.33 343.68 345.03 346.37 347.72 349.07 350.36 351.61
330.17 329.97 329.78 329.57 329.34 329.09 328.84 328.61 328.39 328.16 328.02 327.92 327.82 327.63 327.38 327.12 326.95 326.87 326.78 326.76 326.84 326.92 327.02 327.18 327.35 327.5 327.59 327.69 327.84 328.42 329.01 329.6 329.53 329.46 329.38 329.56 329.77 329.97 329.8 329.55 329.31 329.03 328.72 328.42 328.45 328.69 328.92 328.7 328.06 327.42 326.95 326.73 326.49 326.25 326.02 325.78 325.52 325.2 324.89 324.61 324.48 324.35 324.22 323.98 323.72 323.46 323.85 324.33 324.8 324.95 325.03 325.11 324.75 324.2 323.65 323.44 323.48 323.53 323.54 323.51 323.48 323.47 323.49 323.52 323.57 323.69 323.81 323.87 323.66 323.44 323.23 323.16 323.09 323.02 323.17 323.32 323.46 323.58 323.7 323.82 323.91 323.99 324.07 324.11 324.13 324.14 324.1 324.03 323.95 323.89 323.85 323.81 323.74 323.6 323.48 323.37 323.25 323.14 323.07 323.18 323.29 323.41 323.65 323.9 324.14 324.28 324.41 324.53 324.63 324.72 324.81 324.9 325 325.08 325.68 326.58 327.48 328.07 328.37 328.7 329 329.24 329.47 329.81 330.39 330.96 331.4 331.44 331.5 331.63 332.18 332.73 333.29 334.11 334.93 335.76 336.79 337.85 338.9 340.29 341.74 343.19 344.54 345.87 347.2 348.41 349.55
328.63 328.53 328.42 328.3 328.2 328.08 327.96 327.84 327.71 327.58 327.49 327.41 327.33 327.2 327.04 326.87 326.77 326.72 326.67 326.66 326.69 326.73 326.79 326.87 326.96 327.04 327.1 327.16 327.27 327.68 328.09 328.49 328.46 328.43 328.39 328.71 329.04 329.36 329.33 329.22 329.1 328.96 328.79 328.61 328.59 328.67 328.77 328.51 327.92 327.33 326.93 326.8 326.67 326.54 326.41 326.27 326.05 325.56 325.08 324.63 324.41 324.18 323.96 323.83 323.7 323.58 324.05 324.57 325.1 325.18 325.16 325.15 324.72 324.11 323.52 323.25 323.21 323.16 323.09 322.99 322.9 322.78 322.65 322.52 322.46 322.55 322.63 322.67 322.54 322.39 322.26 322.18 322.11 322.04 322.29 322.54 322.79 322.94 323.09 323.23 323.34 323.43 323.51 323.63 323.76 323.88 323.82 323.64 323.47 323.27 323.06 322.85 322.58 322.2 321.83 9999 9999 9999 9999 9999 9999 9999 9999 9999 9999 9999 9999 9999 322.48 322.71 322.93 323.23 323.54 323.85 324.55 325.46 326.37 326.98 327.35 327.72 328.02 328.24 328.46 328.79 329.33 329.86 330.26 330.24 330.22 330.26 330.66 331.07 331.52 332.36 333.19 334.02 335.06 336.1 337.14 338.51 339.96 341.41 342.73 344.01 345.3 346.42 347.46
327.1 327.09 327.06 327.03 327.06 327.08 327.1 327.07 327.05 327.01 326.95 326.89 326.83 326.77 326.71 326.63 326.59 326.58 326.56 326.55 326.55 326.55 326.55 326.56 326.57 326.59 326.61 326.64 326.7 326.92 327.16 327.38 327.39 327.39 327.4 327.84 328.3 328.74 328.88 328.96 329.02 329.08 329.12 329.14 329.02 328.84 328.67 328.4 328.02 327.63 327.39 327.33 327.26 327.19 327.11 327.02 326.82 326.3 325.79 325.32 325.1 324.88 324.66 324.42 324.2 323.98 324.18 324.42 324.68 324.66 324.6 324.53 324.27 323.92 323.56 323.34 323.22 323.1 322.94 322.76 322.58 322.38 322.15 321.92 321.77 321.78 321.78 321.77 321.66 321.54 321.44 321.36 321.28 321.21 321.5 321.8 322.11 322.28 322.45 322.62 322.75 322.86 322.96 323.16 323.4 323.63 323.54 323.25 322.97 322.64 322.26 321.89 9999 9999 9999 9999 9999 9999 9999 9999 9999 9999 9999 9999 9999 9999 9999 9999 9999 9999 9999 9999 322.11 322.63 323.43 324.34 325.26 325.89 326.33 326.77 327.09 327.29 327.5 327.81 328.3 328.8 329.14 329.12 329.1 329.13 329.34 329.57 329.87 330.8 331.72 332.64 333.75 334.85 335.95 337.2 338.48 339.77 340.95 342.1 343.26 344.29 345.26
326.83 326.8 326.76 326.72 326.75 326.78 326.81 326.81 326.81 326.8 326.74 326.68 326.61 326.57 326.54 326.51 326.49 326.49 326.49 326.47 326.44 326.41 326.37 326.31 326.25 326.2 326.18 326.16 326.15 326.18 326.21 326.28 326.32 326.36 326.41 326.99 327.57 328.13 328.44 328.7 328.96 329.21 329.45 329.69 329.44 328.99 328.57 328.3 328.13 327.95 327.85 327.86 327.86 327.84 327.81 327.78 327.59 327.04 326.49 326.01 325.79 325.57 325.35 325.01 324.69 324.37 324.3 324.26 324.23 324.1 323.96 323.83 323.78 323.73 323.66 323.51 323.33 323.15 322.92 322.67 322.42 322.17 321.92 321.68 321.49 321.41 321.34 321.26 321.15 321.03 320.93 320.89 320.85 320.82 320.99 321.17 321.36 321.39 321.43 321.48 321.64 321.83 322 322.13 322.26 322.39 322.24 321.96 321.67 321.37 9999 9999 9999 9999 9999 9999 9999 9999 9999 9999 9999 9999 9999 9999 9999 9999 9999 9999 9999 9999 9999 9999 9999 9999 322.3 323.22 324.15 324.81 325.32 325.82 326.16 326.35 326.54 326.84 327.28 327.73 328.02 328.01 327.99 327.98 328.01 328.06 328.22 329.24 330.26 331.27 332.44 333.6 334.76 335.87 336.99 338.12 339.16 340.19 341.22 342.15 343.05
326.74 326.72 326.69 326.67 326.71 326.75 326.78 326.79 326.81 326.82 326.76 326.69 326.63 326.59 326.55 326.52 326.5 326.49 326.48 326.46 326.43 326.4 326.36 326.32 326.26 326.22 326.19 326.15 326.13 326.14 326.15 326.16 326.15 326.15 326.17 326.55 326.95 327.36 327.6 327.84 328.08 328.39 328.72 329.05 328.93 328.63 328.31 328.22 328.26 328.29 328.46 328.74 328.98 329.07 329 328.93 328.69 328.07 327.44 326.89 326.61 326.35 326.07 325.62 325.17 324.75 324.4 324.07 323.76 323.54 323.33 323.13 323.3 323.55 323.78 323.67 323.43 323.19 322.9 322.57 322.25 321.96 321.69 321.43 321.21 321.05 320.89 320.75 320.64 320.52 320.43 320.43 320.43 320.43 320.48 320.53 320.6 320.5 320.41 320.32 320.54 320.8 321.04 321.06 321.03 321 9999 9999 9999 9999 9999 9999 9999 9999 9999 9999 9999 9999 9999 9999 9999 9999 9999 9999 9999 9999 9999 9999 9999 9999 9999 9999 9999 9999 9999 9999 322.36 323.06 323.73 324.4 324.88 325.22 325.55 325.9 326.28 326.67 326.94 326.97 326.99 326.98 326.85 326.74 326.8 327.86 328.92 329.98 331.13 332.29 333.45 334.46 335.46 336.47 337.38 338.28 339.19 340.03 340.85
326.65 326.64 326.63 326.62 326.67 326.71 326.75 326.78 326.81 326.83 326.78 326.71 326.64 326.6 326.57 326.54 326.51 326.49 326.47 326.45 326.42 326.4 326.36 326.32 326.28 326.24 326.19 326.15 326.11 326.09 326.08 326.06 326.04 326.02 326.01 326.17 326.35 326.54 326.64 326.75 326.87 327.12 327.4 327.68 327.82 327.9 327.95 328.14 328.4 328.65 329.28 330.2 331.08 331.48 331.32 331.17 330.84 330.16 329.48 328.85 328.35 327.87 327.37 326.76 326.16 325.58 325.28 324.97 324.66 324.21 323.76 323.32 323.42 323.62 323.84 323.66 323.35 323.04 322.72 322.39 322.05 321.74 321.44 321.15 320.9 320.69 320.49 320.31 320.21 320.1 320.01 320.01 320.02 320.02 319.96 319.9 319.84 319.61 9999 9999 9999 9999 9999 9999 9999 9999 9999 9999 9999 9999 9999 9999 9999 9999 9999 9999 9999 9999 9999 9999 9999 9999 9999 9999 9999 9999 9999 9999 9999 9999 9999 9999 9999 9999 9999 9999 9999 9999 322.09 322.91 323.55 324.06 324.56 324.97 325.29 325.62 325.86 325.98 326.08 326.09 325.84 325.61 325.61 326.68 327.74 328.8 329.81 330.83 331.86 332.85 333.85 334.84 335.69 336.51 337.34 338.15 338.96
326.62 326.61 326.6 326.6 326.66 326.72 326.77 326.79 326.82 326.84 326.79 326.72 326.66 326.62 326.59 326.56 326.53 326.5 326.46 326.44 326.42 326.4 326.37 326.34 326.3 326.26 326.2 326.14 326.09 326.05 326.01 325.97 325.92 325.88 325.84 325.78 325.73 325.7 325.68 325.66 325.65 325.85 326.08 326.31 326.73 327.18 327.61 328.08 328.56 329.03 330.14 331.7 333.22 333.88 333.63 333.4 332.98 332.25 331.52 330.8 330.08 329.37 328.66 327.9 327.14 326.43 326.21 325.98 325.75 325.08 324.4 323.74 323.71 323.78 323.86 323.57 323.16 322.76 322.43 322.13 321.82 321.5 321.17 320.84 320.57 320.37 320.17 320.02 319.97 319.92 319.85 319.75 319.66 319.57 319.45 319.35 9999 9999 9999 9999 9999 9999 9999 9999 9999 9999 9999 9999 9999 9999 9999 9999 9999 9999 9999 9999 9999 9999 9999 9999 9999 9999 9999 9999 9999 9999 9999 9999 9999 9999 9999 9999 9999 9999 9999 9999 9999 9999 9999 321.43 322.22 322.91 323.58 324.03 324.3 324.56 324.8 324.99 325.17 325.19 324.83 324.48 324.43 325.49 326.56 327.61 328.48 329.36 330.25 331.24 332.23 333.21 333.98 334.74 335.49 336.28 337.06
326.61 326.6 326.59 326.6 326.68 326.75 326.82 326.83 326.84 326.85 326.79 326.72 326.66 326.63 326.62 326.6 326.56 326.52 326.48 326.47 326.46 326.46 326.44 326.39 326.35 326.3 326.23 326.16 326.11 326.07 326.03 325.98 325.92 325.87 325.81 325.7 325.6 325.5 325.4 325.31 325.21 325.31 325.44 325.57 326.06 326.63 327.2 327.94 328.72 329.47 330.96 332.94 334.92 335.81 335.63 335.42 334.98 334.24 333.49 332.69 331.78 330.86 329.95 329.02 328.11 327.28 327.14 326.99 326.84 325.93 325.03 324.14 323.99 323.93 323.87 323.47 322.97 322.48 322.14 321.87 321.6 321.26 320.89 320.52 320.24 320.04 319.84 319.73 319.73 319.74 319.68 319.48 319.29 319.11 9999 9999 9999 9999 9999 9999 9999 9999 9999 9999 9999 9999 9999 9999 9999 9999 9999 9999 9999 9999 9999 9999 9999 9999 9999 9999 9999 9999 9999 9999 9999 9999 9999 9999 9999 9999 9999 9999 9999 9999 9999 9999 9999 9999 9999 9999 9999 321.5 322.1 322.53 322.81 323.08 323.33 323.56 323.78 323.83 323.51 323.17 323.17 324.24 325.32 326.36 327.16 327.95 328.75 329.71 330.68 331.64 332.32 332.98 333.65 334.4 335.17
326.6 326.59 326.59 326.59 326.69 326.79 326.88 326.86 326.85 326.85 326.79 326.72 326.66 326.65 326.64 326.64 326.6 326.55 326.5 326.5 326.51 326.52 326.5 326.45 326.4 326.34 326.26 326.19 326.12 326.09 326.05 326.01 325.94 325.88 325.82 325.74 325.66 325.57 325.47 325.37 325.26 325.3 325.35 325.4 325.78 326.23 326.68 327.69 328.88 330.04 331.63 333.48 335.33 336.27 336.39 336.49 336.22 335.5 334.77 333.93 332.88 331.84 330.82 329.83 328.84 327.96 327.74 327.54 327.32 326.48 325.64 324.79 324.43 324.14 323.86 323.35 322.8 322.25 321.87 321.56 321.26 320.91 320.53 320.15 319.88 319.71 319.53 319.45 319.49 319.54 319.48 319.2 318.92 9999 9999 9999 9999 9999 9999 9999 9999 9999 9999 9999 9999 9999 9999 9999 9999 9999 9999 9999 9999 9999 9999 9999 9999 9999 9999 9999 9999 9999 9999 9999 9999 9999 9999 9999 9999 9999 9999 9999 9999 9999 9999 9999 9999 9999 9999 9999 9999 9999 9999 9999 9999 321.31 321.54 321.72 321.91 321.97 321.81 321.64 321.8 322.87 323.94 324.98 325.87 326.76 327.65 328.61 329.58 330.54 331.17 331.78 332.39 333.06 333.75
326.63 326.62 326.62 326.63 326.7 326.78 326.86 326.84 326.83 326.82 326.77 326.71 326.66 326.65 326.65 326.65 326.62 326.57 326.52 326.53 326.55 326.58 326.56 326.5 326.45 326.38 326.29 326.21 326.14 326.11 326.07 326.03 325.96 325.89 325.83 325.77 325.71 325.65 325.54 325.43 325.32 325.28 325.26 325.23 325.51 325.83 326.16 327.47 329.06 330.62 332.28 334 335.73 336.73 337.17 337.58 337.46 336.76 336.05 335.16 333.99 332.81 331.67 330.61 329.55 328.61 328.29 327.97 327.64 326.95 326.25 325.54 324.95 324.37 323.82 323.24 322.66 322.08 321.61 321.19 320.78 320.4 320.05 319.7 319.48 319.37 319.25 319.19 319.2 319.21 319.13 318.88 9999 9999 9999 9999 9999 9999 9999 9999 9999 9999 9999 9999 9999 9999 9999 9999 9999 9999 9999 9999 9999 9999 9999 9999 9999 9999 9999 9999 9999 9999 9999 9999 9999 9999 9999 9999 9999 9999 9999 9999 9999 9999 9999 9999 9999 9999 9999 9999 9999 9999 9999 9999 9999 9999 9999 9999 9999 9999 9999 9999 9999 321.49 322.56 323.61 324.59 325.58 326.55 327.52 328.48 329.45 330.01 330.56 331.12 331.74 332.36
326.67 326.67 326.67 326.68 326.71 326.74 326.77 326.77 326.76 326.75 326.72 326.69 326.65 326.64 326.62 326.61 326.59 326.57 326.55 326.56 326.57 326.59 326.57 326.53 326.5 326.42 326.31 326.2 326.13 326.11 326.08 326.05 325.98 325.92 325.86 325.81 325.75 325.7 325.62 325.54 325.45 325.43 325.41 325.38 325.72 326.08 326.41 327.86 329.61 331.37 332.97 334.51 336.08 337.13 337.83 338.55 338.61 337.98 337.32 336.39 335.08 333.78 332.53 331.39 330.25 329.25 328.82 328.4 327.97 327.42 326.87 326.31 325.45 324.59 323.76 323.12 322.51 321.9 321.35 320.81 9999 319.9 319.57 319.24 319.07 319.03 318.97 318.93 318.9 318.88 318.78 9999 9999 9999 9999 9999 9999 9999 9999 9999 9999 9999 9999 9999 9999 9999 9999 9999 9999 9999 9999 9999 9999 9999 9999 9999 9999 9999 9999 9999 9999 9999 9999 9999 9999 9999 9999 9999 9999 9999 9999 9999 9999 9999 9999 9999 9999 9999 9999 9999 9999 9999 9999 9999 9999 9999 9999 9999 9999 9999 9999 9999 9999 9999 321.24 322.24 323.3 324.36 325.41 326.4 327.37 328.34 328.84 329.35 329.86 330.41 330.96
326.71 326.72 326.73 326.73 326.71 326.7 326.69 326.69 326.68 326.68 326.67 326.66 326.65 326.62 326.6 326.57 326.57 326.58 326.58 326.58 326.59 326.6 326.59 326.57 326.54 326.46 326.33 326.2 326.12 326.1 326.09 326.06 326 325.95 325.89 325.84 325.79 325.74 325.72 325.7 325.67 325.77 325.86 325.94 326.68 327.45 328.2 329.53 331.01 332.5 333.76 334.95 336.16 336.91 337.38 337.87 337.86 337.37 336.87 336.15 335.12 334.07 333.01 331.95 330.89 329.94 329.42 328.9 328.39 327.91 327.42 326.93 326.02 325.1 324.17 323.53 322.91 322.28 321.53 320.76 320.01 9999 319.21 318.87 318.73 318.73 318.73 318.69 318.63 318.56 9999 9999 9999 9999 9999 9999 9999 9999 9999 9999 9999 9999 9999 9999 9999 9999 9999 9999 9999 9999 9999 9999 9999 9999 9999 9999 9999 9999 9999 9999 9999 9999 9999 9999 9999 9999 9999 9999 9999 9999 9999 9999 9999 9999 9999 9999 9999 9999 9999 9999 9999 9999 9999 9999 9999 9999 9999 9999 9999 9999 9999 9999 9999 9999 9999 9999 321.91 322.92 323.94 325 326.06 327.08 327.52 327.96 328.41 328.98 329.55
326.72 326.73 326.75 326.75 326.71 326.68 326.65 326.64 326.64 326.64 326.64 326.64 326.64 326.61 326.57 326.54 326.56 326.58 326.61 326.61 326.61 326.61 326.61 326.6 326.59 326.5 326.34 326.19 326.1 326.1 326.1 326.07 326.02 325.97 325.92 325.88 325.83 325.79 325.83 325.86 325.9 326.11 326.31 326.51 327.67 328.85 330.01 331.19 332.4 333.62 334.54 335.37 336.22 336.67 336.92 337.18 337.11 336.77 336.41 335.87 335.1 334.31 333.45 332.48 331.51 330.62 330.02 329.43 328.86 328.4 327.94 327.46 326.66 325.86 325.05 324.5 323.96 323.41 322.37 321.25 320.15 319.55 319.13 318.72 318.58 318.61 318.63 318.6 318.51 9999 9999 9999 9999 9999 9999 9999 9999 9999 9999 9999 9999 9999 9999 9999 9999 9999 9999 9999 9999 9999 9999 9999 9999 9999 9999 9999 9999 9999 9999 9999 9999 9999 9999 9999 9999 9999 9999 9999 9999 9999 9999 9999 9999 9999 9999 9999 9999 9999 9999 9999 9999 9999 9999 9999 9999 9999 9999 9999 9999 9999 9999 9999 9999 9999 9999 9999 9999 9999 322.47 323.61 324.74 325.81 326.18 326.56 326.94 327.54 328.15
326.71 326.72 326.73 326.73 326.71 326.68 326.66 326.66 326.66 326.66 326.65 326.64 326.63 326.61 326.58 326.56 326.58 326.6 326.62 326.63 326.62 326.62 326.59 326.56 326.53 326.45 326.32 326.2 326.13 326.12 326.12 326.1 326.05 326 325.96 325.92 325.88 325.87 325.96 326.05 326.16 326.55 326.92 327.28 328.77 330.27 331.76 332.77 333.74 334.71 335.31 335.8 336.3 336.46 336.46 336.48 336.38 336.18 335.96 335.61 335.09 334.56 333.9 333.02 332.14 331.31 330.63 329.95 329.32 328.89 328.45 328 327.31 326.62 325.93 325.47 325.01 324.55 323.19 321.72 320.26 319.54 319.05 318.56 318.44 318.49 9999 9999 9999 9999 9999 9999 9999 9999 9999 9999 9999 9999 9999 9999 9999 9999 9999 9999 9999 9999 9999 9999 9999 9999 9999 9999 9999 9999 9999 9999 9999 9999 9999 9999 9999 9999 9999 9999 9999 9999 9999 9999 9999 9999 9999 9999 9999 9999 9999 9999 9999 9999 9999 9999 9999 9999 9999 9999 9999 9999 9999 9999 9999 9999 9999 9999 9999 9999 9999 9999 9999 9999 9999 322.22 323.43 324.54 324.84 325.15 325.47 326.11 326.74
326.7 326.71 326.72 326.72 326.7 326.68 326.67 326.68 326.68 326.68 326.66 326.64 326.61 326.61 326.6 326.59 326.6 326.62 326.64 326.64 326.63 326.62 326.58 326.52 326.46 326.39 326.3 326.22 326.17 326.16 326.14 326.12 326.08 326.03 326 325.98 325.96 325.97 326.12 326.27 326.48 327.15 327.8 328.45 330.06 331.67 333.26 334.11 334.9 335.71 336.17 336.57 336.97 337.06 337.04 337.01 336.9 336.73 336.55 336.18 335.63 335.08 334.36 333.38 332.41 331.53 330.82 330.11 329.46 329.02 328.59 328.14 327.58 327.02 326.45 326 325.57 325.14 323.68 322.08 320.46 319.65 9999 9999 318.33 318.38 9999 9999 9999 9999 9999 9999 9999 9999 9999 9999 9999 9999 9999 9999 9999 9999 9999 9999 9999 9999 9999 9999 9999 9999 9999 9999 9999 9999 9999 9999 9999 9999 9999 9999 9999 9999 9999 9999 9999 9999 9999 9999 9999 9999 9999 9999 9999 9999 9999 9999 9999 9999 9999 9999 9999 9999 9999 9999 9999 9999 9999 9999 9999 9999 9999 9999 9999 9999 9999 9999 9999 9999 9999 9999 9999 322.63 323.12 323.61 324.09 324.83 325.56
326.79 326.76 326.73 326.71 326.7 326.69 326.68 326.69 326.7 326.7 9999 326.63 326.6 326.61 326.61 326.61 326.63 326.64 326.66 326.65 326.64 326.63 326.56 326.48 326.39 326.33 326.29 326.24 326.2 326.19 326.17 326.14 326.1 326.07 326.04 326.04 326.03 326.08 326.29 326.49 326.81 327.76 328.69 329.64 331.36 333.07 334.78 335.44 336.06 336.69 337.03 337.32 337.62 337.66 337.61 337.56 337.48 337.38 337.27 336.89 336.27 335.66 334.81 333.67 332.54 331.54 330.8 330.06 329.37 328.88 328.39 327.91 327.45 326.98 326.5 325.86 325.23 324.62 323.46 322.23 320.98 320.15 319.42 318.7 9999 9999 9999 9999 9999 9999 9999 9999 9999 9999 9999 9999 9999 9999 9999 9999 9999 9999 9999 9999 9999 9999 9999 9999 9999 9999 9999 9999 9999 9999 9999 9999 9999 9999 9999 9999 9999 9999 9999 9999 9999 9999 9999 9999 9999 9999 9999 9999 9999 9999 9999 9999 9999 9999 9999 9999 9999 9999 9999 9999 9999 9999 9999 9999 9999 9999 9999 9999 9999 9999 9999 9999 9999 9999 9999 9999 9999 9999 9999 322.05 322.73 323.6 324.45
326.98 326.87 326.78 326.72 326.71 326.7 326.69 326.69 326.69 326.69 326.67 326.64 326.62 326.63 326.63 326.63 326.62 326.61 326.6 326.62 326.64 326.66 326.6 326.51 326.43 326.37 326.32 326.27 326.23 326.21 326.18 326.15 326.12 326.08 326.06 326.07 326.08 326.17 326.46 326.75 327.18 328.31 329.44 330.63 332.4 334.19 335.99 336.56 337.08 337.59 337.85 338.07 338.27 338.26 338.19 338.11 338.07 338.03 337.99 337.59 336.91 336.23 335.26 333.95 332.66 331.55 330.77 330 329.28 328.74 328.2 327.69 327.32 326.94 326.53 325.7 324.89 324.09 323.25 322.4 321.52 320.65 319.78 9999 9999 9999 9999 9999 9999 9999 9999 9999 9999 9999 9999 9999 9999 9999 9999 9999 9999 9999 9999 9999 9999 9999 9999 9999 9999 9999 9999 9999 9999 9999 9999 9999 9999 9999 9999 9999 9999 9999 9999 9999 9999 9999 9999 9999 9999 9999 9999 9999 9999 9999 9999 9999 9999 9999 9999 9999 9999 9999 9999 9999 9999 9999 9999 9999 9999 9999 9999 9999 9999 9999 9999 9999 9999 9999 9999 9999 9999 9999 9999 9999 9999 322.37 323.35
327.16 326.99 326.82 326.72 326.71 326.7 326.69 326.69 326.68 326.68 326.67 326.65 326.64 326.64 326.64 326.64 326.61 326.57 326.54 326.58 326.64 326.69 326.64 326.57 326.5 326.43 326.37 326.3 326.26 326.22 326.18 326.15 326.12 326.09 326.07 326.08 326.08 326.22 326.65 327.07 327.62 328.7 329.78 330.91 332.43 333.96 335.5 336.15 336.8 337.44 337.65 337.83 338.01 338.04 338.03 338.02 338 337.98 337.96 337.62 337.07 336.51 335.58 334.28 332.97 331.84 330.98 330.14 329.36 328.73 328.11 327.54 327.21 326.88 326.49 325.58 324.65 323.72 323.15 322.59 322.03 321.09 320.1 319.12 9999 9999 9999 9999 9999 9999 9999 317.83 9999 9999 9999 9999 9999 9999 9999 9999 9999 9999 9999 9999 9999 9999 9999 9999 9999 9999 9999 9999 9999 9999 9999 9999 9999 9999 9999 9999 9999 9999 9999 9999 9999 9999 9999 9999 9999 9999 9999 9999 9999 9999 9999 9999 9999 9999 9999 9999 9999 9999 9999 9999 9999 9999 9999 9999 9999 9999 9999 9999 9999 9999 9999 9999 9999 9999 9999 9999 9999 9999 9999 9999 9999 9999 9999
327.24 327.04 326.84 326.73 326.72 326.71 326.7 326.69 326.68 326.67 326.67 326.66 326.66 326.66 326.66 326.66 326.59 326.53 326.47 326.55 326.64 326.72 326.69 326.63 326.57 326.49 326.42 326.34 326.28 326.23 326.18 326.14 326.12 326.09 326.08 326.08 326.09 326.28 326.84 327.39 328.05 329.08 330.12 331.19 332.44 333.71 334.98 335.76 336.53 337.29 337.46 337.58 337.71 337.77 337.81 337.85 337.82 337.78 337.73 337.48 337.08 336.68 335.85 334.63 333.41 332.31 331.37 330.44 329.58 328.86 328.14 327.5 327.14 326.77 326.36 325.56 324.75 323.93 323.36 322.79 322.22 321.16 320.06 318.97 9999 9999 9999 9999 9999 9999 317.8 9999 9999 9999 9999 9999 9999 9999 9999 9999 9999 9999 9999 9999 9999 9999 9999 9999 9999 9999 9999 9999 9999 9999 9999 9999 9999 9999 9999 9999 9999 9999 9999 9999 9999 9999 9999 9999 9999 9999 9999 9999 9999 9999 9999 9999 9999 9999 9999 9999 9999 9999 9999 9999 9999 9999 9999 9999 9999 9999 9999 9999 9999 9999 9999 9999 9999 9999 9999 9999 9999 9999 9999 9999 9999 9999 9999
327.17 327 326.83 326.74 326.73 326.73 326.72 326.7 326.68 326.67 326.67 326.66 326.66 326.65 326.64 326.64 326.6 326.56 326.51 326.57 326.64 326.7 326.66 326.6 326.55 326.49 326.42 326.35 326.29 326.25 326.2 326.18 326.17 326.16 326.23 326.38 326.5 326.77 327.34 327.91 328.58 329.5 330.44 331.41 332.43 333.46 334.48 335.37 336.26 337.15 337.26 337.34 337.42 337.51 337.6 337.68 337.65 337.58 337.51 337.34 337.1 336.86 336.12 334.99 333.85 332.77 331.76 330.75 329.8 328.98 328.16 327.45 327.06 326.67 326.24 325.54 324.84 324.15 323.57 322.99 322.41 321.23 320.02 318.81 9999 9999 9999 9999 9999 9999 9999 9999 9999 9999 9999 9999 9999 9999 9999 9999 9999 9999 9999 9999 9999 9999 9999 9999 9999 9999 9999 9999 9999 9999 9999 9999 9999 9999 9999 9999 9999 9999 9999 9999 9999 9999 9999 9999 9999 9999 9999 9999 9999 9999 9999 9999 9999 9999 9999 9999 9999 9999 9999 9999 9999 9999 9999 9999 9999 9999 9999 9999 9999 9999 9999 9999 9999 9999 9999 9999 9999 9999 9999 9999 9999 9999 9999
327.11 326.96 326.82 326.75 326.75 326.75 326.74 326.71 326.69 326.67 326.67 326.66 326.65 326.64 326.63 326.61 326.6 326.59 326.57 326.6 326.63 326.66 326.61 326.55 326.49 326.44 326.39 326.34 326.31 326.28 326.24 326.25 326.27 326.29 326.59 327.15 327.69 328.16 328.56 328.97 329.45 330.08 330.72 331.43 332.32 333.21 334.1 334.83 335.57 336.31 336.46 336.6 336.73 336.83 336.92 337.01 337.01 336.98 336.95 336.86 336.74 336.62 335.95 334.9 333.84 332.8 331.77 330.74 329.79 328.96 328.12 327.4 327.02 326.63 326.19 325.54 324.9 324.27 323.71 323.14 322.57 321.28 319.96 318.64 9999 9999 9999 9999 9999 9999 9999 9999 9999 9999 9999 9999 9999 9999 9999 9999 9999 9999 9999 9999 9999 9999 9999 9999 9999 9999 9999 9999 9999 9999 9999 9999 9999 9999 9999 9999 9999 9999 9999 9999 9999 9999 9999 9999 9999 9999 9999 9999 9999 9999 9999 9999 9999 9999 9999 9999 9999 9999 9999 9999 9999 9999 9999 9999 9999 9999 9999 9999 9999 9999 9999 9999 9999 9999 9999 9999 9999 9999 9999 9999 9999 9999 9999
327.03 326.92 326.81 326.76 326.76 326.76 326.75 326.72 326.69 326.67 326.67 326.66 326.65 326.63 326.61 326.59 326.61 326.62 326.63 326.63 326.62 326.62 326.56 326.5 326.44 326.4 326.37 326.34 326.32 326.3 326.28 326.32 326.38 326.44 326.99 327.95 328.9 329.53 329.77 330.02 330.3 330.63 330.98 331.44 332.2 332.96 333.71 334.28 334.86 335.44 335.63 335.81 335.99 336.07 336.14 336.21 336.23 336.24 336.24 336.21 336.16 336.11 335.46 334.45 333.43 332.4 331.38 330.35 329.45 328.7 327.95 327.35 327.08 326.8 326.4 325.54 324.69 323.89 323.34 322.79 322.23 320.98 319.72 318.46 9999 9999 9999 9999 9999 9999 9999 9999 9999 9999 9999 9999 9999 9999 9999 9999 9999 9999 9999 9999 9999 9999 9999 9999 9999 9999 9999 9999 9999 9999 9999 9999 9999 9999 9999 9999 9999 9999 9999 9999 9999 9999 9999 9999 9999 9999 9999 9999 9999 9999 9999 9999 9999 9999 9999 9999 9999 9999 9999 9999 9999 9999 9999 9999 9999 9999 9999 9999 9999 9999 9999 9999 9999 9999 9999 9999 9999 9999 9999 9999 9999 9999 9999
326.93 326.86 326.79 326.75 326.75 326.74 326.73 326.71 326.69 326.67 326.68 326.68 326.67 326.65 326.63 326.61 326.63 326.64 326.66 326.64 326.63 326.62 326.56 326.5 326.43 326.42 326.41 326.41 326.49 326.6 326.69 326.75 326.8 326.86 327.54 328.72 329.92 330.64 330.78 330.92 331.04 331.14 331.23 331.45 332.07 332.7 333.31 333.72 334.14 334.56 334.8 335.03 335.25 335.31 335.35 335.4 335.45 335.5 335.54 335.57 335.59 335.61 334.98 334 333.01 332 330.98 329.97 329.11 328.45 327.79 327.3 327.14 326.98 326.59 325.53 324.47 323.5 322.97 322.43 321.87 320.68 319.48 318.28 9999 9999 9999 9999 9999 9999 9999 9999 9999 9999 9999 9999 9999 9999 9999 9999 9999 9999 9999 9999 9999 9999 9999 9999 9999 9999 9999 9999 9999 9999 9999 9999 9999 9999 9999 9999 9999 9999 9999 9999 9999 9999 9999 9999 9999 9999 9999 9999 9999 9999 9999 9999 9999 9999 9999 9999 9999 9999 9999 9999 9999 9999 9999 9999 9999 9999 9999 9999 9999 9999 9999 9999 9999 9999 9999 9999 9999 9999 9999 9999 9999 9999 9999
326.82 326.8 326.77 326.75 326.74 326.72 326.71 326.7 326.68 326.68 326.68 326.69 326.69 326.67 326.65 326.64 326.65 326.66 326.67 326.66 326.65 326.63 326.58 326.53 326.47 326.49 326.51 326.53 326.84 327.22 327.58 327.72 327.77 327.81 328.39 329.35 330.33 330.89 331.01 331.14 331.25 331.34 331.43 331.62 332.05 332.5 332.93 333.3 333.68 334.04 334.22 334.4 334.59 334.62 334.66 334.69 334.68 334.67 334.66 334.65 334.65 334.66 334.08 333.22 332.34 331.45 330.55 329.63 328.89 328.34 327.79 327.38 327.25 327.14 326.73 325.5 324.27 323.14 322.6 322.08 321.52 320.38 319.24 9999 9999 9999 9999 9999 9999 9999 9999 9999 9999 9999 9999 9999 9999 9999 9999 9999 9999 9999 9999 9999 9999 9999 9999 9999 9999 9999 9999 9999 9999 9999 9999 9999 9999 9999 9999 9999 9999 9999 9999 9999 9999 9999 9999 9999 9999 9999 9999 9999 9999 9999 9999 9999 9999 9999 9999 9999 9999 9999 9999 9999 9999 9999 9999 9999 9999 9999 9999 9999 9999 9999 9999 9999 9999 9999 9999 9999 9999 9999 9999 9999 9999 9999 9999
326.98 326.94 326.9 326.84 326.78 326.72 326.7 326.69 326.68 326.68 326.69 326.71 326.71 326.7 326.68 326.67 326.67 326.68 326.68 326.67 326.66 326.65 326.6 326.56 326.51 326.55 326.6 326.65 327.21 327.86 328.49 328.69 328.73 328.77 329.23 329.97 330.72 331.14 331.25 331.35 331.45 331.55 331.64 331.78 332.02 332.28 332.56 332.9 333.24 333.55 333.68 333.81 333.94 333.96 333.99 334.02 333.9 333.78 333.66 333.53 333.4 333.29 332.76 332.06 331.34 330.69 330.06 329.41 328.92 328.57 328.22 327.86 327.51 327.18 326.63 325.5 324.38 323.33 322.62 321.93 321.21 320.17 319.12 9999 9999 9999 9999 9999 9999 9999 9999 9999 9999 9999 9999 9999 9999 9999 9999 9999 9999 9999 9999 9999 9999 9999 9999 9999 9999 9999 9999 9999 9999 9999 9999 9999 9999 9999 9999 9999 9999 9999 9999 9999 9999 9999 9999 9999 9999 9999 9999 9999 9999 9999 9999 9999 9999 9999 9999 9999 9999 9999 9999 9999 9999 9999 9999 9999 9999 9999 9999 9999 9999 9999 9999 9999 9999 9999 9999 9999 9999 9999 9999 9999 9999 9999 9999
328.11 328 327.9 327.65 327.34 327.04 326.93 326.95 326.98 326.96 326.89 326.83 326.78 326.76 326.73 326.71 326.72 326.73 326.73 326.73 326.73 326.74 326.79 326.84 326.87 326.99 327.09 327.19 327.83 328.57 329.33 329.55 329.58 329.62 330.01 330.58 331.15 331.45 331.52 331.6 331.68 331.76 331.84 331.92 331.98 332.05 332.19 332.49 332.8 333.07 333.14 333.21 333.28 333.3 333.33 333.35 333.12 332.88 332.64 332.39 332.15 331.91 331.45 330.91 330.36 329.94 329.58 329.21 328.96 328.82 328.66 328.32 327.76 327.22 326.53 325.51 324.49 323.5 322.63 321.78 320.92 319.97 319.01 9999 9999 9999 9999 9999 9999 9999 9999 9999 9999 9999 9999 9999 9999 9999 9999 9999 9999 9999 9999 9999 9999 9999 9999 9999 9999 9999 9999 9999 9999 9999 9999 9999 9999 9999 9999 9999 9999 9999 9999 9999 9999 9999 9999 9999 9999 9999 9999 9999 9999 9999 9999 9999 9999 9999 9999 9999 9999 9999 9999 9999 9999 9999 9999 9999 9999 9999 9999 9999 9999 9999 9999 9999 9999 9999 9999 9999 9999 9999 9999 9999 9999 9999 9999
329.24 329.06 328.89 328.44 327.88 327.34 327.16 327.22 327.29 327.25 327.1 326.96 326.87 326.82 326.78 326.76 326.77 326.79 326.8 326.82 326.84 326.87 327.11 327.34 327.56 327.81 328.06 328.3 328.83 329.41 330 330.14 330.16 330.18 330.61 331.22 331.84 332.14 332.21 332.28 332.35 332.41 332.47 332.5 332.47 332.45 332.48 332.65 332.83 332.99 333.03 333.08 333.11 333.08 333.04 333.02 332.74 332.46 332.17 331.85 331.51 331.17 330.76 330.32 329.88 329.6 329.42 329.23 329.11 329.07 329.03 328.67 327.92 327.18 326.4 325.52 324.61 323.66 322.63 321.61 320.63 319.77 318.91 9999 9999 9999 9999 9999 9999 9999 9999 9999 9999 9999 9999 9999 9999 9999 9999 9999 9999 9999 9999 9999 9999 9999 9999 9999 9999 9999 9999 9999 9999 9999 9999 9999 9999 9999 9999 9999 9999 9999 9999 9999 9999 9999 9999 9999 9999 9999 9999 9999 9999 9999 9999 9999 9999 9999 9999 9999 9999 9999 9999 9999 9999 9999 9999 9999 9999 9999 9999 9999 9999 9999 9999 9999 9999 9999 9999 9999 9999 9999 9999 9999 9999 9999 9999
330.29 330.07 329.86 329.22 328.41 327.62 327.39 327.5 327.6 327.53 327.31 327.09 326.95 326.89 326.84 326.81 326.83 326.85 326.87 326.91 326.94 327.02 327.44 327.86 328.26 328.65 329.04 329.42 329.82 330.23 330.66 330.74 330.74 330.74 331.21 331.87 332.54 332.84 332.9 332.96 333.01 333.06 333.1 333.09 333 332.92 332.87 332.91 332.96 333.02 333.07 333.12 333.16 333.07 332.98 332.9 332.68 332.46 332.23 331.93 331.62 331.31 331 330.69 330.37 330.16 330.01 329.85 329.59 329.29 329 328.36 327.34 326.33 325.45 324.75 324.04 323.28 322.42 321.55 320.67 319.8 318.93 9999 9999 9999 9999 9999 9999 9999 9999 9999 9999 9999 9999 9999 9999 9999 9999 9999 9999 9999 9999 9999 9999 9999 9999 9999 9999 9999 9999 9999 9999 9999 9999 9999 9999 9999 9999 9999 9999 9999 9999 9999 9999 9999 9999 9999 9999 9999 9999 9999 9999 9999 9999 9999 9999 9999 9999 9999 9999 9999 9999 9999 9999 9999 9999 9999 9999 9999 9999 9999 9999 9999 9999 9999 9999 9999 9999 9999 9999 9999 9999 9999 9999 9999 9999
330.72 330.61 330.5 330.12 329.64 329.14 329.06 329.22 329.37 329.34 329.14 328.94 328.72 328.5 328.28 328.11 328.03 327.96 327.92 327.98 328.03 328.1 328.34 328.61 328.92 329.4 329.87 330.35 330.67 330.97 331.28 331.32 331.3 331.29 331.81 332.53 333.24 333.53 333.58 333.64 333.68 333.7 333.73 333.68 333.53 333.38 333.26 333.17 333.09 333.05 333.11 333.17 333.21 333.06 332.92 332.78 332.62 332.45 332.28 332.01 331.73 331.45 331.25 331.07 330.88 330.73 330.6 330.47 330.06 329.5 328.96 328.03 326.74 325.46 324.51 323.99 323.47 322.88 322.2 321.5 320.76 319.86 318.97 9999 9999 9999 9999 9999 9999 9999 9999 9999 9999 9999 9999 9999 9999 9999 9999 9999 9999 9999 9999 9999 9999 9999 9999 9999 9999 9999 9999 9999 9999 9999 9999 9999 9999 9999 9999 9999 9999 9999 9999 9999 9999 9999 9999 9999 9999 9999 9999 9999 9999 9999 9999 9999 9999 9999 9999 9999 9999 9999 9999 9999 9999 9999 9999 9999 9999 9999 9999 9999 9999 9999 9999 9999 9999 9999 9999 9999 9999 9999 9999 9999 9999 9999 9999
331.16 331.15 331.14 331.04 330.89 330.72 330.84 331.1 331.35 331.41 331.33 331.25 331.02 330.65 330.29 330.01 329.86 329.71 329.65 329.82 329.98 330.07 329.85 329.65 329.52 329.98 330.44 330.9 331.2 331.5 331.79 331.83 331.82 331.81 332.43 333.23 334.03 334.24 334.17 334.1 334.03 333.97 333.91 333.86 333.82 333.76 333.69 333.58 333.47 333.41 333.45 333.5 333.51 333.32 333.14 332.95 332.76 332.58 332.41 332.13 331.85 331.58 331.41 331.28 331.16 331.07 330.98 330.9 330.4 329.66 328.9 327.7 326.13 324.58 323.59 323.25 322.9 322.49 321.99 321.47 320.85 319.93 319.02 9999 9999 9999 9999 9999 9999 9999 9999 9999 9999 9999 9999 9999 9999 9999 9999 9999 9999 9999 9999 9999 9999 9999 9999 9999 9999 9999 9999 9999 9999 9999 9999 9999 9999 9999 9999 9999 9999 9999 9999 9999 9999 9999 9999 9999 9999 9999 9999 9999 9999 9999 9999 9999 9999 9999 9999 9999 9999 9999 9999 9999 9999 9999 9999 9999 9999 9999 9999 9999 9999 9999 9999 9999 9999 9999 9999 9999 9999 9999 9999 9999 9999 9999 9999
331.62 331.7 331.8 331.98 332.16 332.32 332.62 332.98 333.34 333.5 333.53 333.56 333.31 332.8 332.29 331.91 331.68 331.46 331.39 331.67 331.94 332.01 331.32 330.66 330.13 330.57 331.01 331.45 331.74 332.02 332.3 332.33 332.34 332.34 333.05 333.94 334.82 334.95 334.75 334.55 334.37 334.19 334.03 333.99 334.06 334.13 334.13 334.05 333.96 333.91 333.95 333.99 333.99 333.79 333.59 333.39 333.13 332.87 332.62 332.3 331.98 331.67 331.35 331.04 330.74 330.57 330.44 330.31 329.95 329.47 328.97 327.9 326.41 324.91 323.87 323.34 322.83 322.27 321.65 321.03 320.39 319.62 318.84 9999 9999 9999 9999 9999 9999 9999 9999 9999 9999 9999 9999 9999 9999 9999 9999 9999 9999 9999 9999 9999 9999 9999 9999 9999 9999 9999 9999 9999 9999 9999 9999 9999 9999 9999 9999 9999 9999 9999 9999 9999 9999 9999 9999 9999 9999 9999 9999 9999 9999 9999 9999 9999 9999 9999 9999 9999 9999 9999 9999 9999 9999 9999 9999 9999 9999 9999 9999 9999 9999 9999 9999 9999 9999 9999 9999 9999 9999 9999 9999 9999 9999 9999 9999
332.88 332.86 332.85 332.88 332.92 332.97 333.01 333.06 333.14 333.3 333.5 333.69 333.58 333.2 332.81 332.5 332.31 332.12 332.14 332.58 333.01 333.15 332.33 331.49 330.79 331.16 331.55 331.95 332.21 332.48 332.76 332.8 332.82 332.84 333.66 334.65 335.62 335.65 335.32 334.99 334.69 334.41 334.14 334.11 334.31 334.5 334.58 334.51 334.45 334.41 334.45 334.49 334.47 334.26 334.05 333.82 333.48 333.15 332.82 332.47 332.12 331.77 331.28 330.78 330.3 330.07 329.89 329.72 329.52 329.3 329.06 328.11 326.7 325.28 324.21 323.5 322.8 322.07 321.27 320.49 319.77 319.19 318.59 9999 9999 9999 9999 9999 9999 9999 9999 9999 9999 9999 9999 9999 9999 9999 9999 9999 9999 9999 9999 9999 9999 9999 9999 9999 9999 9999 9999 9999 9999 9999 9999 9999 9999 9999 9999 9999 9999 9999 9999 9999 9999 9999 9999 9999 9999 9999 9999 9999 9999 9999 9999 9999 9999 9999 9999 9999 9999 9999 9999 9999 9999 9999 9999 9999 9999 9999 9999 9999 9999 9999 9999 9999 9999 9999 9999 9999 9999 9999 9999 9999 9999 9999 9999
334.14 334.03 333.92 333.76 333.61 333.47 333.11 332.7 332.32 332.37 332.62 332.87 332.86 332.62 332.38 332.16 331.98 331.8 331.87 332.39 332.91 333.15 332.6 332.03 331.56 331.79 332.02 332.26 332.46 332.66 332.87 332.94 333 333.06 333.71 334.48 335.26 335.44 335.39 335.33 335.17 334.95 334.73 334.73 334.92 335.12 335.17 335.04 334.92 334.85 334.86 334.87 334.83 334.62 334.41 334.17 333.77 333.37 332.97 332.6 332.23 331.85 331.22 330.58 329.93 329.63 329.39 329.16 329.11 329.14 329.16 328.32 326.99 325.65 324.54 323.65 322.77 321.86 320.89 319.93 319.16 318.76 9999 9999 9999 9999 9999 9999 9999 9999 9999 9999 9999 9999 9999 9999 9999 9999 9999 9999 9999 9999 9999 9999 9999 9999 9999 9999 9999 9999 9999 9999 9999 9999 9999 9999 9999 9999 9999 9999 9999 9999 9999 9999 9999 9999 9999 9999 9999 9999 9999 9999 9999 9999 9999 9999 9999 9999 9999 9999 9999 9999 9999 9999 9999 9999 9999 9999 9999 9999 9999 9999 9999 9999 9999 9999 9999 9999 9999 9999 9999 9999 9999 9999 9999 9999 9999
335.39 335.18 334.98 334.64 334.29 333.96 333.18 332.32 331.47 331.44 331.75 332.06 332.14 332.05 331.95 331.82 331.64 331.47 331.6 332.22 332.82 333.17 332.89 332.58 332.33 332.4 332.47 332.56 332.7 332.84 332.98 333.08 333.17 333.27 333.75 334.29 334.85 335.19 335.44 335.68 335.68 335.57 335.45 335.5 335.67 335.84 335.83 335.61 335.39 335.24 335.19 335.15 335.06 334.85 334.64 334.39 333.93 333.47 333.03 332.66 332.29 331.91 331.29 330.65 330.01 329.71 329.47 329.22 328.97 328.73 328.51 327.59 326.32 325.05 324.11 323.41 322.69 321.82 320.79 319.76 318.96 9999 9999 9999 9999 9999 9999 9999 9999 9999 9999 9999 9999 9999 9999 9999 9999 9999 9999 9999 9999 9999 9999 9999 9999 9999 9999 9999 9999 9999 9999 9999 9999 9999 9999 9999 9999 9999 9999 9999 9999 9999 9999 9999 9999 9999 9999 9999 9999 9999 9999 9999 9999 9999 9999 9999 9999 9999 9999 9999 9999 9999 9999 9999 9999 9999 9999 9999 9999 9999 9999 9999 9999 9999 9999 9999 9999 9999 9999 9999 9999 9999 9999 9999 9999 9999 9999
337.32 336.85 336.39 335.86 335.33 334.81 333.83 332.75 331.68 331.64 331.98 332.32 332.36 332.23 332.11 331.97 331.81 331.64 331.77 332.33 332.9 333.27 333.2 333.11 333.04 333 332.96 332.92 332.99 333.06 333.12 333.23 333.35 333.48 333.77 334.1 334.43 334.95 335.5 336.04 336.19 336.19 336.18 336.26 336.41 336.56 336.48 336.16 335.85 335.63 335.52 335.42 335.29 335.08 334.88 334.61 334.09 333.57 333.08 332.71 332.34 331.98 331.35 330.72 330.09 329.8 329.54 329.29 328.82 328.31 327.81 326.8 325.57 324.33 323.55 323.09 322.61 321.85 320.8 319.75 318.95 9999 9999 9999 9999 9999 9999 9999 9999 9999 9999 9999 9999 9999 9999 9999 9999 9999 9999 9999 9999 9999 9999 9999 9999 9999 9999 9999 9999 9999 9999 9999 9999 9999 9999 9999 9999 9999 9999 9999 9999 9999 9999 9999 9999 9999 9999 9999 9999 9999 9999 9999 9999 9999 9999 9999 9999 9999 9999 9999 9999 9999 9999 9999 9999 9999 9999 9999 9999 9999 9999 9999 9999 9999 9999 9999 9999 9999 9999 9999 9999 9999 9999 9999 9999 9999 9999
339.29 338.56 337.84 337.14 336.44 335.76 334.67 333.52 332.37 332.42 332.85 333.27 333.27 333.03 332.8 332.65 332.57 332.49 332.59 332.93 333.28 333.53 333.54 333.54 333.55 333.58 333.61 333.64 333.75 333.85 333.95 334.01 334.07 334.14 334.31 334.49 334.68 335.21 335.8 336.39 336.58 336.61 336.64 336.7 336.78 336.87 336.77 336.5 336.22 335.99 335.85 335.7 335.53 335.3 335.08 334.78 334.24 333.69 333.17 332.8 332.42 332.05 331.43 330.81 330.18 329.88 329.62 329.35 328.65 327.86 327.1 326.02 324.81 323.61 323.01 322.79 322.55 321.88 320.81 319.74 318.94 318.53 9999 9999 9999 9999 9999 9999 9999 9999 9999 9999 9999 9999 9999 9999 9999 9999 9999 9999 9999 9999 9999 9999 9999 9999 9999 9999 9999 9999 9999 9999 9999 9999 9999 9999 9999 9999 9999 9999 9999 9999 9999 9999 9999 9999 9999 9999 9999 9999 9999 9999 9999 9999 9999 9999 9999 9999 9999 9999 9999 9999 9999 9999 9999 9999 9999 9999 9999 9999 9999 9999 9999 9999 9999 9999 9999 9999 9999 9999 9999 9999 9999 9999 9999 9999 9999
341.25 340.26 339.28 338.41 337.55 336.69 335.51 334.28 333.06 333.2 333.72 334.24 334.16 333.82 333.48 333.34 333.34 333.34 333.39 333.52 333.66 333.79 333.88 333.97 334.06 334.17 334.26 334.36 334.5 334.64 334.77 334.78 334.79 334.8 334.87 334.94 335.01 335.55 336.15 336.75 336.92 336.96 336.99 336.98 336.94 336.91 336.82 336.66 336.5 336.33 336.17 336.01 335.8 335.5 335.2 334.85 334.36 333.86 333.38 333 332.61 332.22 331.63 331.04 330.45 330.1 329.76 329.43 328.72 327.94 327.17 326.13 325 323.86 323.29 323.03 322.77 322.19 321.31 320.42 319.68 9999 9999 9999 9999 9999 9999 9999 9999 9999 9999 9999 9999 9999 9999 9999 9999 9999 9999 9999 9999 9999 9999 9999 9999 9999 9999 9999 9999 9999 9999 9999 9999 9999 9999 9999 9999 9999 9999 9999 9999 9999 9999 9999 9999 9999 9999 9999 9999 9999 9999 9999 9999 9999 9999 9999 9999 9999 9999 9999 9999 9999 9999 9999 9999 9999 9999 9999 9999 9999 9999 9999 9999 9999 9999 9999 9999 9999 9999 9999 9999 9999 9999 9999 9999 9999 9999
343.39 342.33 341.26 340.22 339.2 338.18 336.9 335.6 334.3 334.46 334.97 335.49 335.29 334.8 334.32 334.14 334.16 334.18 334.19 334.18 334.16 334.21 334.35 334.49 334.63 334.79 334.94 335.09 335.26 335.43 335.58 335.54 335.51 335.47 335.42 335.38 335.35 335.89 336.5 337.11 337.26 337.3 337.34 337.24 337.09 336.94 336.87 336.83 336.79 336.68 336.5 336.32 336.06 335.69 335.32 334.93 334.49 334.04 333.6 333.2 332.8 332.39 331.83 331.27 330.71 330.3 329.9 329.5 328.81 328.08 327.35 326.41 325.4 324.39 323.82 323.46 323.11 322.66 322.11 321.55 320.94 320.3 319.66 9999 9999 9999 9999 9999 9999 9999 9999 9999 9999 9999 9999 9999 9999 9999 9999 9999 9999 9999 9999 9999 9999 9999 9999 9999 9999 9999 9999 9999 9999 9999 9999 9999 9999 9999 9999 9999 9999 9999 9999 9999 9999 9999 9999 9999 9999 9999 9999 9999 9999 9999 9999 9999 9999 9999 9999 9999 9999 9999 9999 9999 9999 9999 9999 9999 9999 9999 9999 9999 9999 9999 9999 9999 9999 9999 9999 9999 9999 9999 9999 9999 9999 9999 9999
345.58 344.48 343.39 342.22 341.07 339.91 338.59 337.26 335.92 336.09 336.54 337 336.65 336.02 335.39 335.12 335.06 335 335.01 335.07 335.13 335.21 335.32 335.43 335.55 335.69 335.82 335.96 336.09 336.23 336.36 336.36 336.35 336.35 336.25 336.16 336.06 336.54 337.07 337.61 337.71 337.71 337.72 337.57 337.35 337.13 337.05 337.05 337.06 336.96 336.77 336.58 336.29 335.87 335.45 335.04 334.63 334.22 333.81 333.4 332.99 332.57 332.04 331.51 330.97 330.5 330.04 329.58 328.91 328.23 327.54 326.7 325.82 324.93 324.35 323.89 323.44 323.14 322.94 322.71 322.2 321.44 320.69 319.94 319.22 318.51 9999 9999 9999 9999 9999 9999 9999 9999 9999 9999 9999 9999 9999 9999 9999 9999 9999 9999 9999 9999 9999 9999 9999 9999 9999 9999 9999 9999 9999 9999 9999 9999 9999 9999 9999 9999 9999 9999 9999 9999 9999 9999 9999 9999 9999 9999 9999 9999 9999 9999 9999 9999 9999 9999 9999 9999 9999 9999 9999 9999 9999 9999 9999 9999 9999 9999 9999 9999 9999 9999 9999 9999 9999 9999 9999 9999 9999 9999 9999 9999 9999
347.76 346.64 345.52 344.22 342.93 341.64 340.28 338.91 337.54 337.71 338.11 338.52 338.01 337.22 336.45 336.09 335.95 335.82 335.84 335.97 336.09 336.2 336.29 336.37 336.47 336.59 336.7 336.82 336.92 337.03 337.13 337.18 337.22 337.25 337.13 337.01 336.89 337.3 337.73 338.17 338.19 338.15 338.12 337.94 337.71 337.48 337.37 337.33 337.29 337.16 336.95 336.75 336.46 336.05 335.64 335.24 334.83 334.42 334 333.57 333.15 332.72 332.25 331.79 331.32 330.79 330.26 329.73 329.12 328.5 327.87 327.03 326.15 325.28 324.72 324.27 323.82 323.64 323.62 323.6 323.17 322.4 321.63 320.82 319.96 319.09 318.44 9999 9999 9999 9999 9999 9999 9999 9999 9999 9999 9999 9999 9999 9999 9999 9999 9999 9999 9999 9999 9999 9999 9999 9999 9999 9999 9999 9999 9999 9999 9999 9999 9999 9999 9999 9999 9999 9999 9999 9999 9999 9999 9999 9999 9999 9999 9999 9999 9999 9999 9999 9999 9999 9999 9999 9999 9999 9999 9999 9999 9999 9999 9999 9999 9999 9999 9999 9999 9999 9999 9999 9999 9999 9999 9999 9999 9999 9999 9999 9999
349.18 347.99 346.81 345.58 344.34 343.09 341.85 340.59 339.32 339.39 339.63 339.89 339.3 338.48 337.66 337.25 337.03 336.82 336.82 336.96 337.12 337.22 337.27 337.32 337.39 337.49 337.59 337.68 337.75 337.82 337.91 338 338.09 338.16 338.01 337.87 337.72 338.04 338.38 338.72 338.68 338.59 338.51 338.3 338.06 337.82 337.68 337.6 337.51 337.35 337.14 336.92 336.62 336.23 335.83 335.43 335.02 334.61 334.19 333.75 333.3 332.87 332.48 332.08 331.66 331.07 330.48 329.9 329.35 328.8 328.25 327.37 326.45 325.53 325.02 324.64 324.25 324.14 324.18 324.21 323.84 323.15 322.45 321.76 321.07 320.37 319.74 9999 9999 9999 9999 9999 9999 9999 9999 9999 9999 9999 9999 9999 9999 9999 9999 9999 9999 9999 9999 9999 9999 9999 9999 9999 9999 9999 9999 9999 9999 9999 9999 9999 9999 9999 9999 9999 9999 9999 9999 9999 9999 9999 9999 9999 9999 9999 9999 9999 9999 9999 9999 9999 9999 9999 9999 9999 9999 9999 9999 9999 9999 9999 9999 9999 9999 9999 9999 9999 9999 9999 9999 9999 9999 9999 9999 9999 9999 9999 9999
350.31 348.99 347.72 346.6 345.48 344.35 343.34 342.31 341.27 341.13 341.08 341.04 340.51 339.86 339.2 338.86 338.64 338.42 338.36 338.41 338.46 338.44 338.36 338.3 338.29 338.37 338.45 338.52 338.56 338.59 338.64 338.69 338.75 338.8 338.71 338.61 338.52 338.8 339.07 339.36 339.26 339.13 339.01 338.75 338.46 338.18 338 337.87 337.74 337.55 337.32 337.09 336.79 336.41 336.03 335.64 335.22 334.8 334.38 333.92 333.46 333.03 332.7 332.37 332 331.35 330.7 330.06 329.59 329.12 328.64 327.71 326.74 325.78 325.33 325 324.67 324.64 324.74 324.84 324.51 323.9 323.29 322.72 322.19 321.66 321.03 320.29 319.56 9999 9999 9999 9999 9999 9999 9999 9999 9999 9999 9999 9999 9999 9999 9999 9999 9999 9999 9999 9999 9999 9999 9999 9999 9999 9999 9999 9999 9999 9999 9999 9999 9999 9999 9999 9999 9999 9999 9999 9999 9999 9999 9999 9999 9999 9999 9999 9999 9999 9999 9999 9999 9999 9999 9999 9999 9999 9999 9999 9999 9999 9999 9999 9999 9999 9999 9999 9999 9999 9999 9999 9999 9999 9999 9999 9999 9999 9999
351.43 349.99 348.63 347.63 346.63 345.63 344.84 344.04 343.22 342.84 342.5 342.18 341.73 341.25 340.76 340.47 340.24 340.02 339.9 339.84 339.79 339.65 339.46 339.27 339.19 339.26 339.32 339.36 339.36 339.36 339.36 339.36 339.36 339.36 339.34 339.32 339.3 339.55 339.8 340.05 339.92 339.76 339.61 339.28 338.92 338.57 338.34 338.15 337.97 337.74 337.49 337.24 336.94 336.62 336.29 335.89 335.41 334.94 334.48 334.05 333.62 333.22 332.94 332.66 332.33 331.74 331.14 330.54 330.03 329.53 329.02 328.13 327.21 326.28 325.84 325.52 325.2 325.11 325.11 325.14 324.86 324.39 323.9 323.49 323.15 322.79 322.21 321.32 320.4 319.59 319.01 9999 9999 9999 9999 9999 9999 9999 9999 9999 9999 9999 9999 9999 9999 9999 9999 9999 9999 9999 9999 9999 9999 9999 9999 9999 9999 9999 9999 9999 9999 9999 9999 9999 9999 9999 9999 9999 9999 9999 9999 9999 9999 9999 9999 9999 9999 9999 9999 9999 9999 9999 9999 9999 9999 9999 9999 9999 9999 9999 9999 9999 9999 9999 9999 9999 9999 9999 9999 9999 9999 9999 9999 9999 9999 9999 9999
352.33 350.87 349.47 348.42 347.37 346.37 345.71 345.05 344.39 344 343.6 343.18 342.92 342.66 342.38 342.14 341.93 341.7 341.5 341.32 341.15 340.88 340.54 340.23 340.09 340.14 340.19 340.2 340.16 340.12 340.08 340.01 339.96 339.92 339.98 340.03 340.09 340.31 340.52 340.74 340.57 340.39 340.22 339.81 339.38 338.95 338.67 338.43 338.2 337.94 337.66 337.38 337.1 336.82 336.54 336.14 335.6 335.07 334.59 334.19 333.78 333.42 333.19 332.95 332.67 332.15 331.64 331.11 330.54 329.97 329.41 328.6 327.78 326.95 326.52 326.16 325.81 325.51 325.24 324.98 324.7 324.39 324.07 323.82 323.62 323.41 323.03 322.45 321.84 321.27 320.77 320.26 319.75 9999 9999 9999 9999 9999 9999 9999 9999 9999 9999 9999 9999 9999 9999 9999 9999 9999 9999 9999 9999 9999 9999 9999 9999 9999 9999 9999 9999 9999 9999 9999 9999 9999 9999 9999 9999 9999 9999 9999 9999 9999 9999 9999 9999 9999 9999 9999 9999 9999 9999 9999 9999 9999 9999 9999 9999 9999 9999 9999 9999 9999 9999 9999 9999 9999 9999 9999 9999 9999 9999 9999 9999 9999 9999
353.12 351.67 350.26 348.99 347.74 346.56 345.82 345.09 344.37 344.24 344.09 343.93 344.02 344.11 344.19 344.11 343.99 343.87 343.65 343.38 343.12 342.75 342.3 341.86 341.59 341.48 341.39 341.3 341.2 341.11 341.03 340.99 340.95 340.93 341 341.07 341.15 341.28 341.41 341.55 341.36 341.16 340.97 340.53 340.07 339.6 339.21 338.86 338.52 338.18 337.85 337.53 337.26 337.02 336.78 336.38 335.79 335.2 334.7 334.32 333.95 333.62 333.44 333.24 333 332.57 332.14 331.68 331.04 330.41 329.78 329.07 328.36 327.63 327.2 326.81 326.41 325.89 325.34 324.81 324.55 324.4 324.25 324.15 324.1 324.04 323.87 323.6 323.3 322.95 322.53 322.09 321.54 320.68 319.85 9999 9999 9999 9999 9999 9999 9999 9999 9999 9999 9999 9999 9999 9999 9999 9999 9999 9999 9999 9999 9999 9999 9999 9999 9999 9999 9999 9999 9999 9999 9999 9999 9999 9999 9999 9999 9999 9999 9999 9999 9999 9999 9999 9999 9999 9999 9999 9999 9999 9999 9999 9999 9999 9999 9999 9999 9999 9999 9999 9999 9999 9999 9999 9999 9999 9999 9999 9999 9999 9999 9999 9999
353.91 352.48 351.04 349.56 348.09 346.73 345.93 345.13 344.38 344.5 344.6 344.69 345.14 345.59 346.02 346.08 346.07 346.05 345.78 345.43 345.09 344.61 344.05 343.5 343.12 342.87 342.63 342.44 342.29 342.15 342.06 342.09 342.11 342.14 342.23 342.32 342.4 342.42 342.44 342.47 342.29 342.11 341.93 341.58 341.21 340.83 340.26 339.67 339.09 338.6 338.14 337.69 337.34 337.05 336.76 336.4 335.95 335.49 335.06 334.69 334.32 333.99 333.75 333.51 333.25 332.86 332.46 332.04 331.39 330.74 330.08 329.44 328.78 328.13 327.65 327.19 326.74 326.14 325.49 324.82 324.62 324.6 324.57 324.6 324.66 324.72 324.74 324.74 324.74 324.61 324.29 323.94 323.3 322.07 320.86 319.78 319.15 9999 9999 9999 9999 9999 9999 9999 9999 9999 9999 9999 9999 9999 9999 9999 9999 9999 9999 9999 9999 9999 9999 9999 9999 9999 9999 9999 9999 9999 9999 9999 9999 9999 9999 9999 9999 9999 9999 9999 9999 9999 9999 9999 9999 9999 9999 9999 9999 9999 9999 9999 9999 9999 9999 9999 9999 9999 9999 9999 9999 9999 9999 9999 9999 9999 9999 9999 9999 9999 9999
354.56 353.02 351.5 350.01 348.51 347.11 346.23 345.36 344.57 344.94 345.3 345.63 346.37 347.12 347.86 348.04 348.13 348.22 347.91 347.48 347.05 346.46 345.8 345.14 344.64 344.25 343.87 343.57 343.38 343.19 343.1 343.19 343.27 343.36 343.47 343.57 343.64 343.55 343.47 343.38 343.22 343.06 342.9 342.63 342.35 342.06 341.3 340.47 339.65 339 338.42 337.84 337.42 337.08 336.74 336.42 336.11 335.79 335.44 335.08 334.72 334.38 334.08 333.77 333.46 333.09 332.72 332.3 331.65 330.99 330.33 329.71 329.08 328.45 327.84 327.25 326.67 326.2 325.74 325.26 325.2 325.27 325.33 325.44 325.58 325.71 325.69 325.56 325.43 325.2 324.83 324.46 323.9 322.96 322 321.1 320.48 319.85 9999 9999 9999 9999 9999 9999 9999 9999 9999 9999 9999 9999 9999 9999 9999 9999 9999 9999 9999 9999 9999 9999 9999 9999 9999 9999 9999 9999 9999 9999 9999 9999 9999 9999 9999 9999 9999 9999 9999 9999 9999 9999 9999 9999 9999 9999 9999 9999 9999 9999 9999 9999 9999 9999 9999 9999 9999 9999 9999 9999 9999 9999 9999 9999 9999 9999 9999 9999 9999
355.08 353.28 351.65 350.35 349.05 347.81 346.87 345.94 345.17 345.86 346.54 347.19 348.02 348.84 349.66 349.82 349.9 349.98 349.62 349.15 348.68 348.17 347.63 347.08 346.52 345.95 345.4 344.99 344.71 344.43 344.31 344.43 344.54 344.64 344.71 344.79 344.83 344.69 344.55 344.41 344.22 344.03 343.85 343.58 343.32 343.08 342.17 341.18 340.18 339.41 338.71 338 337.51 337.11 336.72 336.46 336.28 336.09 335.82 335.48 335.13 334.77 334.4 334.03 333.67 333.32 332.97 332.57 331.91 331.24 330.59 329.98 329.37 328.76 328.03 327.3 326.58 326.27 326 325.72 325.78 325.94 326.1 326.29 326.5 326.7 326.63 326.37 326.12 325.79 325.36 324.93 324.44 323.82 323.17 322.54 322.01 321.46 320.87 320.05 9999 9999 9999 9999 9999 9999 9999 9999 9999 9999 9999 9999 9999 9999 9999 9999 9999 9999 9999 9999 9999 9999 9999 9999 9999 9999 9999 9999 9999 9999 9999 9999 9999 9999 9999 9999 9999 9999 9999 9999 9999 9999 9999 9999 9999 9999 9999 9999 9999 9999 9999 9999 9999 9999 9999 9999 9999 9999 9999 9999 9999 9999 9999 9999 9999 9999 9999
355.58 353.54 351.81 350.7 349.59 348.49 347.51 346.52 345.79 346.8 347.8 348.77 349.67 350.57 351.46 351.59 351.66 351.74 351.33 350.81 350.3 349.88 349.48 349.07 348.46 347.73 347.01 346.48 346.12 345.76 345.61 345.74 345.87 345.96 345.96 345.97 345.96 345.85 345.73 345.6 345.31 345.03 344.75 344.26 343.79 343.32 342.44 341.51 340.58 339.85 339.17 338.49 338 337.6 337.2 336.94 336.77 336.61 336.36 336.02 335.69 335.28 334.79 334.3 333.83 333.38 332.95 332.49 331.87 331.25 330.63 330.03 329.43 328.84 328.2 327.54 326.85 326.68 326.56 326.43 326.54 326.72 326.92 327.16 327.42 327.69 327.56 327.18 326.8 326.37 325.88 325.4 325 324.69 324.37 323.99 323.53 323.07 322.47 321.33 320.21 9999 9999 9999 9999 9999 9999 9999 9999 9999 9999 9999 9999 9999 9999 9999 9999 9999 9999 9999 9999 9999 9999 9999 9999 9999 9999 9999 9999 9999 9999 9999 9999 9999 9999 9999 9999 9999 9999 9999 9999 9999 9999 9999 9999 9999 9999 9999 9999 9999 9999 9999 9999 9999 9999 9999 9999 9999 9999 9999 9999 9999 9999 9999 9999 9999 9999
356.04 353.9 352.15 351.11 350.08 349.07 348.11 347.14 346.52 347.85 349.15 350.42 351.36 352.31 353.26 353.37 353.43 353.5 353.03 352.47 351.92 351.59 351.33 351.07 350.39 349.49 348.61 347.97 347.53 347.09 346.92 347.06 347.2 347.27 347.21 347.16 347.09 347.01 346.92 346.78 346.4 346.03 345.65 344.93 344.23 343.55 342.71 341.85 341 340.3 339.63 338.97 338.5 338.1 337.7 337.46 337.31 337.15 336.92 336.61 336.29 335.83 335.19 334.56 333.94 333.34 332.74 332.16 331.6 331.03 330.45 329.82 329.2 328.59 328.38 328.15 327.89 327.94 327.99 328.03 328.02 328.01 328.01 328.15 328.34 328.54 328.45 328.2 327.94 327.55 327.05 326.55 326.11 325.74 325.38 324.99 324.53 324.08 323.49 322.42 321.33 320.27 9999 9999 9999 9999 9999 9999 9999 9999 9999 9999 9999 9999 9999 9999 9999 9999 9999 9999 9999 9999 9999 9999 9999 9999 9999 9999 9999 9999 9999 9999 9999 9999 9999 9999 9999 9999 9999 9999 9999 9999 9999 9999 9999 9999 9999 9999 9999 9999 9999 9999 9999 9999 9999 9999 9999 9999 9999 9999 9999 9999 9999 9999 9999 9999 9999
356.46 354.44 352.75 351.59 350.44 349.41 348.66 347.9 347.58 349.29 350.97 352.56 353.37 354.18 355.01 355.07 355.11 355.15 354.59 353.95 353.31 352.96 352.69 352.42 351.82 351.05 350.27 349.66 349.17 348.69 348.46 348.51 348.56 348.57 348.49 348.41 348.31 348.2 348.08 347.92 347.46 347.01 346.53 345.64 344.75 343.86 343.05 342.24 341.43 340.75 340.1 339.45 338.99 338.59 338.19 337.97 337.84 337.7 337.48 337.19 336.9 336.37 335.59 334.82 334.05 333.28 332.52 331.83 331.32 330.81 330.27 329.62 328.96 328.37 328.59 328.79 328.96 329.2 329.43 329.64 329.49 329.28 329.09 329.14 329.26 329.38 329.35 329.23 329.1 328.78 328.29 327.8 327.31 326.81 326.33 325.83 325.32 324.8 324.22 323.4 322.57 321.73 320.89 9999 9999 9999 9999 9999 9999 9999 9999 9999 9999 9999 9999 9999 9999 9999 9999 9999 9999 9999 9999 9999 9999 9999 9999 9999 9999 9999 9999 9999 9999 9999 9999 9999 9999 9999 9999 9999 9999 9999 9999 9999 9999 9999 9999 9999 9999 9999 9999 9999 9999 9999 9999 9999 9999 9999 9999 9999 9999 9999 9999 9999 9999 9999 9999
