657.0009765625 653.556030273438 650.119384765625 647.325439453125 643.482727050781 639.356140136719 635.7265625 632.157836914062 628.501953125 624.803649902344 620.409301757812 615.6279296875 610.111999511719 605.882019042969 601.820068359375 597.408935546875 594.950622558594 593.350830078125 592.685729980469 590.925659179688 589.473388671875 589.053161621094 586.454162597656 583.507934570312 578.774169921875 571.415344238281 563.440124511719 559.736511230469 555.277282714844 554.439147949219 550.678283691406 547.772583007812 544.096862792969 538.582763671875 534.417297363281 533.908569335938 529.965026855469 527.283142089844 524.89013671875 523.237487792969 517.190490722656 514.929870605469 512.841247558594 509.317840576172 507.765747070312 505.424713134766 501.018798828125 492.785308837891 484.429504394531 474.960205078125 468.108001708984 464.017181396484 462.185699462891 460.993774414062 459.196319580078 457.631530761719 457.106353759766 455.750457763672 453.759368896484 452.200897216797 451.911804199219 451.429595947266 450.159271240234 450.406036376953 448.907348632812 448.304595947266 447.328002929688 446.220977783203 444.486999511719 443.563079833984 443.159423828125 442.545013427734 440.856567382812 439.35546875 439.315582275391 437.250427246094 436.929046630859 436.277008056641 436.110290527344 434.857391357422 433.717163085938 433.842407226562 433.477416992188 432.476654052734 431.835174560547 431.961700439453 431.164672851562 430.307708740234 430.328887939453 430.397491455078 430.187866210938 429.863586425781 429.537963867188 430.169769287109 429.961212158203 430.192504882812 9999 9999 9999 429.394866943359
656.507019042969 653.162292480469 649.635131835938 647.066589355469 643.829284667969 640.305847167969 636.089050292969 632.222839355469 629.13525390625 625.306091308594 621.125915527344 616.662780761719 612.1796875 606.482482910156 601.514404296875 597.819030761719 595.247192382812 594.836730957031 594.75830078125 592.897766113281 591.424499511719 589.000427246094 586.1708984375 582.7724609375 576.822448730469 569.12255859375 562.820129394531 555.805603027344 552.797790527344 549.054016113281 545.936950683594 541.368103027344 536.693176269531 531.717529296875 527.5341796875 527.211486816406 523.403076171875 523.240234375 521.344360351562 517.825988769531 512.448181152344 509.292297363281 506.497741699219 506.874572753906 503.654876708984 500.83837890625 496.904937744141 489.966827392578 477.153381347656 470.352844238281 465.404937744141 463.138977050781 461.051391601562 460.651489257812 458.813415527344 457.149383544922 455.942291259766 454.842559814453 453.706298828125 452.123077392578 450.5498046875 449.663482666016 450.125762939453 448.171264648438 447.859100341797 447.496704101562 446.791564941406 445.320770263672 444.725189208984 442.534210205078 441.211517333984 441.137176513672 440.262298583984 439.069915771484 438.282531738281 437.547912597656 436.810333251953 435.630981445312 435.054229736328 434.507873535156 434.078430175781 433.423095703125 432.870452880859 432.520416259766 431.627746582031 431.332458496094 430.921600341797 430.504333496094 430.324798583984 430.367553710938 430.201049804688 430.666625976562 430.382720947266 430.995788574219 430.371520996094 9999 9999 9999 430.005432128906 432.452331542969
657.2275390625 653.537353515625 650.486755371094 646.928588867188 643.685363769531 640.190734863281 637.437133789062 633.973815917969 629.786071777344 625.545349121094 621.342712402344 616.807922363281 611.941528320312 607.897827148438 603.396118164062 600.062377929688 598.620788574219 597.918762207031 596.425537109375 593.8779296875 592.753540039062 589.939697265625 584.618286132812 579.886352539062 573.551818847656 567.878723144531 561.946655273438 556.687744140625 549.708312988281 545.342468261719 540.725769042969 535.009399414062 530.392822265625 525.529602050781 522.887939453125 520.246948242188 517.091430664062 512.098449707031 512.152404785156 507.971923828125 506.713439941406 503.034027099609 502.84033203125 500.813781738281 498.108367919922 489.319152832031 484.848114013672 479.498992919922 474.341094970703 466.853912353516 464.1171875 463.100982666016 461.397491455078 459.596405029297 458.414367675781 457.044372558594 455.744049072266 454.285766601562 453.161560058594 451.878814697266 450.117492675781 448.934448242188 447.740936279297 446.756256103516 446.184997558594 446.112243652344 444.816680908203 443.81005859375 442.996490478516 442.2978515625 441.061126708984 439.980499267578 439.455200195312 438.472930908203 437.985626220703 436.579223632812 436.222839355469 435.590362548828 435.180358886719 434.787170410156 434.102508544922 433.351745605469 433.149078369141 432.658386230469 431.505340576172 431.607421875 431.108947753906 430.605163574219 430.346466064453 430.695251464844 430.548461914062 430.934173583984 430.966461181641 430.651397705078 9999 9999 9999 430.200500488281 431.439270019531 431.011749267578
658.298034667969 655.467041015625 649.952209472656 646.491394042969 643.910461425781 640.968139648438 637.876220703125 634.860717773438 630.824462890625 625.439880371094 621.027404785156 616.626647949219 612.790649414062 609.10009765625 605.674865722656 603.271545410156 602.086120605469 601.237976074219 599.063293457031 596.787658691406 592.789123535156 589.079162597656 584.407897949219 576.938781738281 572.045288085938 566.014526367188 559.725646972656 554.529541015625 549.571838378906 544.870239257812 539.581970214844 534.116577148438 528.366271972656 522.393920898438 516.558959960938 513.696105957031 510.180847167969 506.527618408203 503.260101318359 500.532623291016 496.401397705078 491.050598144531 490.753112792969 487.814025878906 484.830993652344 482.225982666016 477.695007324219 472.931396484375 469.389007568359 466.279602050781 463.944122314453 461.748168945312 461.225250244141 458.787933349609 458.169342041016 456.568603515625 455.011993408203 453.666564941406 451.327026367188 451.174713134766 449.678436279297 448.475341796875 447.104461669922 446.46044921875 445.835388183594 444.606994628906 443.67138671875 442.332794189453 442.909606933594 442.146209716797 441.110382080078 439.26220703125 438.994873046875 437.911529541016 437.265472412109 436.475952148438 435.730712890625 435.4462890625 434.878601074219 434.480712890625 433.917327880859 433.791870117188 432.595123291016 432.422180175781 432.125213623047 431.227294921875 431.008636474609 429.737701416016 430.102661132812 430.514007568359 430.722595214844 430.860260009766 430.859466552734 9999 9999 9999 9999 431.312255859375 431.161041259766 430.5068359375
658.676086425781 655.183898925781 651.299682617188 647.217163085938 643.844604492188 641.037292480469 638.414489746094 635.21630859375 631.220458984375 626.336730957031 621.19482421875 617.165649414062 612.503051757812 609.010986328125 607.039184570312 606.00830078125 605.64111328125 604.001586914062 600.411926269531 596.736145019531 592.090270996094 587.684692382812 582.599060058594 575.745788574219 569.228271484375 564.730773925781 559.108825683594 554.881958007812 550.688720703125 546.610412597656 542.642883300781 536.557312011719 532.081787109375 526.410949707031 520.384460449219 515.531066894531 509.8193359375 505.3173828125 498.915100097656 494.114898681641 490.715667724609 489.103698730469 485.201080322266 482.756408691406 480.797180175781 476.406951904297 472.444152832031 469.428894042969 468.424377441406 466.564483642578 464.489959716797 463.297607421875 460.726135253906 459.351593017578 457.595184326172 455.996398925781 454.136840820312 452.596435546875 451.216766357422 449.844635009766 449.301330566406 448.766723632812 447.531494140625 447.631744384766 446.940399169922 446.488342285156 444.247802734375 442.537017822266 441.955810546875 440.668212890625 440.251617431641 441.047760009766 438.456420898438 438.480865478516 436.732757568359 437.066314697266 436.419555664062 435.403961181641 434.845245361328 434.874176025391 433.670318603516 433.289855957031 432.747924804688 432.223541259766 432.045074462891 432.314453125 432.042388916016 429.934112548828 429.680969238281 430.182678222656 430.36767578125 430.656311035156 9999 9999 9999 9999 430.460601806641 431.294738769531 430.454620361328 430.223663330078
658.834838867188 655.558532714844 651.9892578125 648.440063476562 644.448974609375 641.738891601562 638.859619140625 634.942565917969 631.414672851562 626.397155761719 622.777954101562 616.436950683594 612.8759765625 610.707824707031 609.096557617188 607.761108398438 606.787048339844 605.475036621094 600.995056152344 596.735412597656 590.765502929688 585.687927246094 580.641235351562 575.263427734375 570.746704101562 564.52587890625 561.137268066406 558.481628417969 554.840026855469 551.464294433594 547.8828125 543.34912109375 537.490417480469 531.287658691406 526.155395507812 523.308166503906 517.074768066406 511.895263671875 505.130981445312 496.992218017578 493.044586181641 489.827972412109 484.711853027344 482.129455566406 478.554565429688 475.214294433594 470.898773193359 468.391479492188 467.243957519531 465.346221923828 463.952270507812 463.033447265625 460.735168457031 459.746368408203 457.568725585938 456.361968994141 455.063568115234 452.697357177734 450.876739501953 450.554473876953 448.698211669922 448.127105712891 447.036224365234 446.361053466797 445.935913085938 445.762268066406 445.154449462891 443.175811767578 441.224578857422 440.432220458984 439.623931884766 439.319946289062 439.006988525391 437.178924560547 437.381256103516 436.660125732422 436.005279541016 435.599517822266 434.955322265625 434.486938476562 433.755706787109 433.227294921875 432.643615722656 432.522369384766 432.250762939453 431.599060058594 431.981536865234 430.717895507812 429.816864013672 429.567749023438 431.166259765625 9999 9999 9999 9999 430.228485107422 432.384918212891 431.588989257812 430.53759765625 430.203735351562
658.643310546875 656.314331054688 652.849182128906 648.935791015625 645.275329589844 641.312805175781 639.066833496094 635.055725097656 631.44677734375 626.702697753906 622.47998046875 618.57177734375 614.853332519531 612.494995117188 610.810607910156 610.253784179688 607.692016601562 604.912475585938 600.877319335938 594.375244140625 588.916564941406 584.8876953125 579.929992675781 575.756042480469 571.919616699219 569.493103027344 565.242248535156 562.280639648438 559.438232421875 554.487915039062 550.794982910156 547.166625976562 543.102355957031 537.921447753906 532.041015625 526.570861816406 520.959716796875 515.884704589844 509.977325439453 505.418365478516 496.520324707031 492.594451904297 488.130676269531 485.082611083984 481.4658203125 477.188385009766 474.483856201172 470.746337890625 466.967742919922 464.452819824219 464.096954345703 461.759918212891 460.641143798828 459.473327636719 456.824523925781 455.319396972656 453.658813476562 452.853912353516 451.865203857422 450.716552734375 449.181091308594 447.877349853516 446.600708007812 445.697845458984 444.420104980469 443.797149658203 443.304351806641 442.444976806641 440.952178955078 439.895965576172 439.961944580078 439.294097900391 438.37451171875 437.783538818359 437.086853027344 436.450500488281 435.827453613281 435.7548828125 434.766387939453 434.404907226562 434.873718261719 434.052551269531 433.145233154297 432.724456787109 431.884796142578 431.820434570312 432.462677001953 430.869903564453 429.480895996094 430.203674316406 430.274047851562 9999 9999 9999 429.451812744141 429.917419433594 431.411285400391 430.938751220703 431.052398681641 430.543731689453
660.133972167969 657.260986328125 654.036499023438 649.971923828125 645.942810058594 643.071472167969 639.005737304688 635.475036621094 631.460510253906 627.444152832031 623.759643554688 620.2197265625 618.132507324219 617.191833496094 614.612548828125 611.5732421875 608.228820800781 605.194946289062 599.711791992188 594.898132324219 588.931396484375 584.614990234375 580.690795898438 577.041198730469 574.092346191406 571.954345703125 569.202819824219 566.647399902344 563.733093261719 560.49560546875 556.557434082031 553.083374023438 547.920837402344 542.371032714844 535.533447265625 530.473205566406 526.53857421875 521.19873046875 515.457153320312 508.947937011719 502.101257324219 494.397003173828 490.098724365234 486.285736083984 483.933624267578 480.270202636719 476.563415527344 473.283233642578 468.901611328125 465.79150390625 462.416412353516 460.561920166016 459.472320556641 457.805419921875 457.503814697266 456.146728515625 454.094543457031 452.069396972656 451.232635498047 449.886566162109 448.680847167969 448.068634033203 446.453002929688 446.35400390625 445.406311035156 444.782867431641 442.991638183594 442.423645019531 441.064056396484 440.486846923828 439.809997558594 439.3056640625 438.603302001953 438.296203613281 437.553314208984 436.944519042969 436.928558349609 436.078186035156 436.192596435547 434.698974609375 434.658538818359 433.609130859375 433.690216064453 432.513336181641 432.319091796875 431.201812744141 431.380493164062 430.917724609375 429.680633544922 429.328277587891 430.684143066406 9999 9999 428.173889160156 429.850463867188 432.732452392578 432.360565185547 430.827178955078 431.56396484375 430.801818847656
661.472229003906 657.36865234375 654.474243164062 651.377502441406 647.127563476562 644.227478027344 640.820983886719 637.626953125 632.512268066406 629.185546875 626.583923339844 623.642517089844 622.207885742188 619.838806152344 616.703063964844 611.993103027344 608.078857421875 602.963012695312 599.280822753906 594.472839355469 590.611511230469 586.843994140625 582.650817871094 579.984924316406 578.082702636719 575.450744628906 574.796691894531 572.918029785156 568.392333984375 564.416931152344 559.75 555.178405761719 550.443237304688 546.944519042969 541.893310546875 536.726440429688 530.109191894531 524.543579101562 518.414184570312 512.758911132812 506.285003662109 501.951995849609 496.179260253906 488.988525390625 485.204437255859 482.217651367188 478.467803955078 474.625518798828 471.536499023438 467.621398925781 465.141998291016 463.024627685547 460.299438476562 456.998474121094 455.552276611328 455.061401367188 453.272827148438 451.132598876953 450.750305175781 450.963897705078 450.157501220703 447.53662109375 446.239532470703 444.940124511719 445.169158935547 443.942108154297 443.132781982422 443.261627197266 441.950286865234 441.141540527344 440.249938964844 439.083770751953 438.471069335938 438.378570556641 437.544342041016 437.583618164062 436.93017578125 436.386871337891 435.342651367188 435.078369140625 434.104583740234 433.446685791016 432.707763671875 433.019866943359 432.217651367188 431.569244384766 431.086700439453 430.291351318359 430.243957519531 429.104949951172 430.006286621094 9999 9999 429.209625244141 430.039978027344 433.334716796875 432.819854736328 431.274078369141 430.894409179688 431.560150146484
663.283874511719 660.158081054688 656.113342285156 652.604858398438 648.208251953125 645.402587890625 642.184814453125 639.111938476562 635.455505371094 631.157836914062 629.115844726562 626.736694335938 623.555969238281 620.570251464844 617.603149414062 613.216186523438 607.439819335938 602.894104003906 598.128601074219 594.755554199219 591.113952636719 588.402954101562 587.527954101562 585.172424316406 583.238403320312 581.394653320312 578.826416015625 576.200134277344 572.338745117188 568.295349121094 564.81884765625 559.446411132812 554.907775878906 549.517944335938 545.231079101562 539.796997070312 533.476196289062 527.598693847656 523.18115234375 517.15234375 510.255432128906 503.736968994141 499.258087158203 492.848968505859 487.168975830078 484.092529296875 480.270446777344 476.011810302734 472.469635009766 469.820190429688 466.58447265625 464.296752929688 461.548980712891 460.038970947266 458.549591064453 456.590515136719 455.320068359375 454.210723876953 452.464752197266 450.156799316406 449.208221435547 447.179870605469 447.091400146484 444.850006103516 444.377197265625 444.181793212891 443.574951171875 443.031188964844 441.399597167969 441.5302734375 440.865447998047 439.568145751953 438.348419189453 438.132659912109 437.867218017578 437.171905517578 436.553802490234 435.652923583984 435.573181152344 434.731597900391 433.909759521484 433.467498779297 433.030120849609 431.996215820312 432.287292480469 431.102630615234 431.249969482422 430.940185546875 429.927093505859 429.470062255859 428.912170410156 9999 9999 429.541961669922 429.743041992188 433.227935791016 431.905059814453 430.772308349609 431.362915039062 431.302642822266
663.346008300781 660.9697265625 657.895385742188 653.774475097656 650.265625 646.890197753906 643.411010742188 640.620788574219 636.663146972656 634.182739257812 630.769470214844 627.3212890625 624.922058105469 621.407531738281 616.788208007812 612.354187011719 607.732177734375 603.083374023438 598.453369140625 595.566040039062 593.197814941406 591.364135742188 590.345397949219 589.94775390625 586.484924316406 585.327209472656 582.885803222656 580.731506347656 575.6953125 572.888610839844 568.74169921875 562.976867675781 557.221130371094 552.329711914062 548.396545410156 543.770874023438 538.137023925781 533.448181152344 525.664306640625 519.854187011719 513.065063476562 506.463592529297 502.642181396484 496.461456298828 491.648742675781 484.958343505859 480.804779052734 477.0791015625 473.602081298828 470.543701171875 467.862182617188 465.634552001953 463.577362060547 461.356048583984 459.567810058594 456.784484863281 454.807952880859 454.001586914062 452.417572021484 450.24267578125 448.856994628906 447.38623046875 446.542083740234 445.109466552734 443.581604003906 442.966094970703 442.177490234375 443.081146240234 442.127044677734 440.946472167969 440.073577880859 439.473083496094 438.708526611328 437.834503173828 437.151184082031 437.011688232422 435.981872558594 435.661468505859 435.005279541016 435.062438964844 434.869110107422 434.015594482422 433.62109375 433.351776123047 432.466064453125 432.207550048828 431.964324951172 431.437316894531 430.241485595703 430.258514404297 429.880035400391 9999 9999 429.443634033203 430.148834228516 432.524871826172 431.036193847656 431.262054443359 431.557983398438 431.372863769531
664.463439941406 662.003479003906 659.289184570312 656.57568359375 651.14990234375 648.10986328125 644.640625 640.910827636719 639.086303710938 636.381164550781 633.838500976562 629.456420898438 625.337036132812 621.715148925781 616.654357910156 612.309020996094 607.660278320312 603.892822265625 600.271179199219 596.78759765625 595.4248046875 594.435668945312 592.870422363281 592.479064941406 591.929016113281 589.618347167969 586.611083984375 583.6103515625 578.697448730469 574.180908203125 569.602294921875 567.389831542969 561.217895507812 556.920959472656 551.152465820312 545.372192382812 540.201293945312 534.502136230469 528.338684082031 522.325805664062 515.796630859375 509.985992431641 503.902679443359 497.597717285156 493.082000732422 488.654724121094 481.922882080078 477.879028320312 475.476776123047 471.784027099609 468.704498291016 465.645477294922 463.427825927734 460.944122314453 457.950317382812 456.79248046875 455.215759277344 453.484710693359 451.839904785156 451.264190673828 447.829772949219 446.339569091797 445.597778320312 444.761627197266 444.042053222656 441.114715576172 441.456512451172 442.880310058594 441.95556640625 440.502258300781 439.850433349609 439.231292724609 439.066589355469 438.101806640625 436.993804931641 437.059020996094 436.212615966797 436.035583496094 435.969390869141 435.464904785156 435.050994873047 433.922088623047 433.275695800781 433.160339355469 433.355499267578 432.919281005859 432.190704345703 431.765960693359 430.879272460938 430.794982910156 429.982147216797 9999 9999 429.38623046875 429.653839111328 433.337432861328 430.710662841797 431.638916015625 431.963104248047 430.590728759766
664.374389648438 662.459777832031 659.748229980469 657.039733886719 653.726257324219 650.51953125 646.815856933594 643.295654296875 640.009948730469 637.71142578125 634.624450683594 632.996154785156 625.819458007812 621.106384277344 616.831970214844 611.465698242188 609.259338378906 604.973449707031 602.212097167969 600.049499511719 598.974426269531 597.986999511719 597.340087890625 595.694763183594 594.258850097656 590.6162109375 588.629272460938 585.78857421875 580.488403320312 576.429748535156 571.371398925781 568.033020019531 563.947814941406 557.930908203125 552.942565917969 546.635803222656 542.979553222656 537.223693847656 531.672241210938 525.023254394531 518.208679199219 512.007690429688 505.192443847656 500.691589355469 495.614776611328 491.346405029297 486.546966552734 480.000640869141 476.415405273438 472.533813476562 468.426147460938 467.170715332031 463.152801513672 460.993591308594 457.558715820312 456.344696044922 453.880126953125 453.265472412109 451.263977050781 448.841400146484 447.313598632812 446.335113525391 445.044372558594 445.226593017578 444.436370849609 442.747375488281 440.325805664062 440.000885009766 441.422729492188 441.24072265625 439.4453125 438.886901855469 438.886810302734 438.245513916016 438.076416015625 436.711090087891 436.050384521484 436.197265625 435.869842529297 435.137786865234 435.52880859375 435.276885986328 434.6005859375 434.062286376953 434.072448730469 433.367218017578 433.021240234375 432.196228027344 433.460418701172 431.089324951172 430.563995361328 429.976531982422 9999 9999 429.681335449219 433.003845214844 431.151550292969 431.721496582031 431.800933837891 430.275909423828
664.963989257812 662.948059082031 660.264892578125 658.064575195312 655.008544921875 652.438354492188 648.866271972656 644.843566894531 641.096923828125 638.282653808594 635.80615234375 634.211059570312 630.2451171875 623.44482421875 617.728332519531 613.023498535156 609.777954101562 607.810485839844 605.715026855469 604.610046386719 604.501708984375 600.811645507812 599.889831542969 598.481201171875 595.763000488281 594.997741699219 592.133422851562 588.955810546875 581.25390625 576.567565917969 571.752990722656 568.686401367188 565.346313476562 561.83544921875 556.939453125 549.411437988281 543.827697753906 539.298950195312 534.019470214844 527.486022949219 523.435302734375 517.23388671875 508.531494140625 503.222991943359 497.360412597656 492.46142578125 487.293884277344 483.688568115234 478.270629882812 474.311157226562 471.215362548828 467.509216308594 463.522552490234 460.645935058594 458.496551513672 455.397674560547 453.509765625 452.308013916016 449.673980712891 448.285675048828 447.098785400391 446.801910400391 444.829010009766 444.466766357422 443.795806884766 443.516387939453 442.719299316406 439.159118652344 439.42724609375 440.888885498047 439.726837158203 439.508941650391 438.912445068359 9999 9999 9999 9999 436.387664794922 435.885467529297 436.489135742188 435.943939208984 436.090454101562 435.017150878906 435.087707519531 434.802734375 434.267150878906 434.561401367188 434.513427734375 434.775970458984 434.535278320312 430.116912841797 429.877990722656 428.303771972656 9999 9999 432.22119140625 430.514495849609 430.785247802734 431.281097412109 430.794677734375
666.267883300781 663.484680175781 660.525268554688 658.776916503906 655.458312988281 653.3671875 650.340576171875 647.712585449219 644.317565917969 639.612915039062 636.621337890625 633.618957519531 628.859680175781 623.865783691406 620.416442871094 614.860473632812 611.883483886719 609.188537597656 607.041076660156 606.419555664062 605.66015625 604.785217285156 603.460693359375 600.825500488281 598.887084960938 595.889892578125 593.258911132812 590.215759277344 584.909057617188 577.902893066406 574.347351074219 570.343505859375 565.495727539062 562.1005859375 558.080749511719 552.3896484375 545.269165039062 540.393920898438 535.216247558594 530.610229492188 524.57666015625 518.731689453125 512.376342773438 505.441864013672 500.580871582031 495.162048339844 490.279754638672 484.898803710938 480.409881591797 476.537841796875 471.733551025391 467.722229003906 464.402801513672 461.232391357422 458.724212646484 457.690307617188 454.247406005859 451.613037109375 450.139221191406 447.718872070312 446.473022460938 445.445465087891 445.112182617188 444.3515625 442.665191650391 443.040344238281 442.512878417969 437.944213867188 9999 9999 9999 9999 9999 9999 9999 9999 9999 9999 436.698516845703 436.505340576172 436.811553955078 436.367889404297 436.214721679688 436.128540039062 435.599365234375 435.722961425781 435.409332275391 434.589111328125 434.973114013672 435.26171875 434.470123291016 430.890106201172 429.539581298828 9999 9999 431.093048095703 430.816223144531 430.778961181641 430.994537353516 431.486602783203
667.34326171875 664.294494628906 661.662292480469 659.327209472656 657.065246582031 655.13134765625 651.76904296875 649.675415039062 645.918823242188 641.123229980469 637.637268066406 633.801391601562 629.078979492188 624.785583496094 620.840942382812 617.110900878906 613.130981445312 610.73779296875 609.670104980469 608.328247070312 607.160461425781 606.021789550781 603.882263183594 601.320373535156 597.901489257812 595.663024902344 590.440185546875 587.771911621094 583.96484375 579.465759277344 574.91064453125 569.826843261719 566.289306640625 562.358947753906 557.627075195312 552.687316894531 547.408996582031 541.146911621094 536.808959960938 532.169067382812 526.660583496094 522.26708984375 516.093627929688 511.214691162109 503.518157958984 498.428741455078 492.617279052734 487.455169677734 482.400085449219 478.990905761719 473.152709960938 469.222412109375 465.227416992188 461.127624511719 458.636016845703 456.552398681641 454.177734375 452.092681884766 449.209167480469 446.788909912109 445.922882080078 445.636993408203 444.590637207031 444.023559570312 443.510620117188 441.473114013672 438.455810546875 9999 9999 9999 9999 9999 9999 9999 9999 9999 9999 9999 437.671081542969 436.797454833984 436.730072021484 436.698211669922 435.931762695312 436.209259033203 436.407775878906 435.560485839844 434.886657714844 434.548217773438 434.68359375 435.127838134766 434.248352050781 432.498199462891 430.364898681641 428.233001708984 9999 430.483734130859 430.849609375 431.264312744141 431.245422363281 430.718231201172
668.837829589844 666.625183105469 663.888549804688 660.677429199219 658.081909179688 655.772705078125 652.751403808594 650.114990234375 646.856262207031 643.250244140625 638.065979003906 633.520263671875 629.657043457031 624.784912109375 621.381774902344 618.234313964844 616.33935546875 613.016906738281 610.926086425781 608.871337890625 607.132629394531 604.965209960938 602.788391113281 600.020751953125 596.85400390625 593.632202148438 589.948120117188 587.3154296875 583.330871582031 579.291442871094 575.743957519531 570.848999023438 567.366149902344 563.636596679688 558.619934082031 553.538635253906 547.620239257812 543.632934570312 536.797058105469 532.300598144531 527.546447753906 522.698974609375 517.770385742188 512.036071777344 507.321990966797 499.469940185547 495.292785644531 490.119964599609 484.492706298828 479.783325195312 474.823974609375 470.723022460938 465.988677978516 461.84716796875 457.558502197266 455.769165039062 453.858093261719 451.216979980469 449.194793701172 447.322387695312 445.045166015625 444.147521972656 444.212951660156 442.911956787109 443.065612792969 441.615234375 9999 9999 9999 9999 9999 9999 9999 9999 9999 9999 9999 9999 436.508972167969 436.632507324219 436.98681640625 436.745513916016 435.985229492188 435.702667236328 435.082397460938 435.212310791016 433.832763671875 434.049407958984 432.984741210938 432.910308837891 432.587066650391 431.263885498047 430.500762939453 429.397216796875 9999 430.617156982422 431.565582275391 431.131469726562 431.078796386719 430.904693603516
670.231567382812 667.742309570312 664.180786132812 662.440246582031 659.093078613281 657.124572753906 653.119934082031 650.384643554688 647.724182128906 644.100036621094 639.356140136719 633.193115234375 629.561340332031 626.503479003906 621.993408203125 619.201599121094 617.263549804688 615.03955078125 612.032470703125 609.506896972656 607.338073730469 605.082763671875 603.154113769531 600.81982421875 598.804992675781 594.453308105469 591.00146484375 589.008728027344 585.386901855469 580.490783691406 578.790405273438 572.786254882812 568.979919433594 564.6943359375 559.258605957031 554.380249023438 549.70751953125 544.479553222656 540.2333984375 533.201293945312 528.576354980469 524.015930175781 519.736694335938 517.126647949219 510.824768066406 505.225616455078 498.546203613281 492.618469238281 486.956512451172 481.591400146484 477.740966796875 471.758239746094 467.629180908203 462.240753173828 457.549011230469 455.117340087891 452.484710693359 450.347137451172 448.814758300781 447.169067382812 444.639862060547 443.112060546875 443.187072753906 441.821563720703 441.373840332031 9999 9999 9999 9999 9999 9999 9999 9999 9999 9999 9999 9999 9999 436.726654052734 436.940093994141 436.25439453125 435.777435302734 435.243011474609 435.320343017578 433.985443115234 433.553009033203 432.474273681641 432.205688476562 431.584289550781 431.313232421875 430.548492431641 430.860046386719 430.575622558594 9999 9999 430.600250244141 431.906524658203 431.349182128906 431.741088867188 430.927703857422
671.196594238281 668.570739746094 666.677856445312 663.488647460938 660.792114257812 658.5693359375 654.336303710938 651.443176269531 647.734069824219 644.403991699219 640.165588378906 635.395568847656 631.622436523438 625.672729492188 623.464782714844 621.520263671875 619.385803222656 619.948608398438 617.805114746094 616.472045898438 611.005065917969 607.616821289062 604.283081054688 602.090637207031 600.049377441406 598.910461425781 597.040588378906 592.533142089844 588.356384277344 582.514099121094 579.549011230469 574.836975097656 571.819152832031 568.223937988281 562.563293457031 557.38134765625 551.549682617188 546.104919433594 541.121032714844 537.288391113281 533.017578125 525.574462890625 521.668029785156 517.629455566406 512.77685546875 507.087585449219 502.252655029297 495.921905517578 491.174835205078 485.360290527344 479.547424316406 473.673217773438 469.099151611328 464.599578857422 458.653472900391 455.330139160156 453.382934570312 450.830108642578 448.80712890625 446.56787109375 444.408813476562 442.942687988281 442.106506347656 442.272399902344 438.892456054688 9999 9999 9999 9999 9999 9999 9999 9999 9999 9999 9999 9999 435.542999267578 437.251525878906 436.305328369141 435.306732177734 435.170867919922 434.070465087891 433.153747558594 432.6875 431.110595703125 431.606079101562 431.474426269531 430.812591552734 430.790283203125 430.858489990234 430.458374023438 430.300659179688 9999 9999 431.5888671875 431.043243408203 431.060546875 431.075744628906 430.928924560547
672.336486816406 669.696716308594 667.169982910156 663.496337890625 661.272583007812 659.2353515625 656.200561523438 652.5283203125 648.520690917969 645.021545410156 640.023498535156 636.290771484375 632.227844238281 628.222717285156 625.283447265625 623.4736328125 622.160217285156 621.002502441406 619.941162109375 619.490112304688 618.023315429688 615.61865234375 612.305480957031 607.902404785156 603.785705566406 601.308166503906 598.876586914062 595.139465332031 590.073852539062 584.528076171875 580.595825195312 577.236938476562 572.411804199219 568.940795898438 564.730041503906 559.250061035156 554.353576660156 549.847351074219 544.120788574219 538.923461914062 533.3740234375 529.127075195312 524.412902832031 519.229370117188 515.755554199219 510.936096191406 505.076385498047 499.434875488281 493.245086669922 485.821594238281 480.183288574219 475.752319335938 470.154998779297 465.52294921875 461.2841796875 457.300903320312 454.168090820312 451.154541015625 449.349548339844 445.733154296875 444.394378662109 442.992095947266 442.012725830078 439.735534667969 436.012542724609 9999 9999 9999 9999 9999 9999 9999 9999 9999 9999 9999 437.033843994141 437.484191894531 436.094665527344 435.430480957031 434.667205810547 433.912811279297 432.13818359375 431.559417724609 431.010833740234 431.458526611328 431.481109619141 431.118621826172 430.807006835938 431.590179443359 430.79736328125 431.030426025391 429.272155761719 9999 9999 430.110992431641 431.053802490234 430.630767822266 431.142852783203 431.112884521484
674.320068359375 670.886840820312 668.136169433594 665.217651367188 662.334411621094 660.507751464844 656.288452148438 653.003845214844 648.507080078125 644.731323242188 641.1328125 636.628540039062 633.356018066406 629.845275878906 627.433288574219 626.19384765625 624.321105957031 622.790954589844 621.944030761719 620.987243652344 619.352966308594 617.121154785156 614.377990722656 611.303527832031 607.584533691406 605.329162597656 600.281921386719 595.884155273438 592.498413085938 586.134582519531 581.30322265625 577.451538085938 573.894470214844 570.7734375 567.490051269531 563.300842285156 556.521789550781 551.591491699219 545.800231933594 538.688659667969 534.010131835938 530.417785644531 526.418151855469 521.451843261719 516.724914550781 512.346923828125 505.766448974609 500.063354492188 492.143463134766 487.184722900391 480.666625976562 475.208862304688 470.999145507812 465.612640380859 461.788940429688 458.409698486328 455.811798095703 451.603088378906 449.627380371094 446.289703369141 444.452697753906 442.468414306641 441.624114990234 439.610290527344 435.194030761719 9999 9999 9999 9999 9999 9999 9999 9999 9999 9999 436.242248535156 437.562683105469 437.015777587891 434.751678466797 433.284088134766 432.066436767578 431.813751220703 431.252197265625 431.210327148438 430.895294189453 431.488220214844 431.142944335938 431.239715576172 431.049499511719 430.874389648438 431.451568603516 430.88623046875 429.202545166016 9999 9999 430.780059814453 430.814849853516 431.098541259766 430.782989501953 430.907012939453
675.32470703125 672.735290527344 668.862670898438 666.445556640625 663.160888671875 661.174987792969 656.541809082031 653.734069824219 649.790283203125 644.696228027344 640.8408203125 637.190124511719 634.138122558594 631.25 629.563659667969 628.503601074219 626.891479492188 626.188720703125 624.389465332031 622.023681640625 620.658325195312 618.183288574219 616.743530273438 613.037170410156 610.214660644531 607.972106933594 603.057556152344 596.911743164062 593.774658203125 588.839111328125 582.278137207031 578.191955566406 574.194091796875 571.080993652344 567.301696777344 563.31494140625 557.700805664062 551.558349609375 544.931274414062 538.504211425781 533.171447753906 529.699523925781 526.726379394531 523.94921875 518.493041992188 513.321228027344 506.594879150391 498.490814208984 492.444458007812 486.486206054688 480.702606201172 475.066009521484 471.044311523438 466.267700195312 462.437744140625 459.208984375 455.663146972656 452.106597900391 448.919281005859 446.050170898438 444.274963378906 442.939392089844 440.600921630859 438.710723876953 9999 9999 9999 9999 9999 9999 9999 9999 9999 435.323028564453 435.641357421875 438.020965576172 436.0419921875 435.732208251953 434.033508300781 432.319274902344 431.830841064453 431.137451171875 431.271759033203 431.222961425781 431.362365722656 431.777954101562 430.929809570312 430.858520507812 430.794525146484 431.081420898438 430.454925537109 430.521453857422 9999 9999 9999 430.926086425781 430.449371337891 430.685485839844 431.167541503906 431.544525146484
675.292846679688 672.89599609375 670.201904296875 667.785888671875 665.090698242188 661.737426757812 657.653991699219 653.793273925781 650.016845703125 646.033630371094 641.360229492188 638.748107910156 636.168884277344 633.445373535156 632.411254882812 630.79443359375 629.35888671875 627.52099609375 626.063293457031 625.101135253906 622.932373046875 621.337646484375 618.651062011719 615.754272460938 610.768005371094 607.570495605469 604.069274902344 599.473815917969 595.843078613281 591.220153808594 583.853149414062 578.514221191406 574.403930664062 571.034545898438 567.165588378906 562.662841796875 557.57666015625 551.057556152344 542.967529296875 538.394470214844 534.235900878906 530.019165039062 528.062194824219 524.853698730469 519.53369140625 513.987731933594 507.714233398438 500.029510498047 493.543487548828 487.833129882812 480.813873291016 475.588287353516 470.730529785156 466.521789550781 462.100708007812 459.324066162109 454.957885742188 452.720001220703 450.046752929688 446.246978759766 443.577270507812 442.340393066406 440.956481933594 437.609497070312 9999 9999 9999 9999 9999 9999 9999 9999 440.285766601562 439.289367675781 438.425659179688 436.999786376953 435.737518310547 434.2919921875 432.861785888672 432.552551269531 431.206298828125 431.072906494141 431.083374023438 431.177368164062 431.151916503906 430.453155517578 430.659973144531 431.090728759766 431.005432128906 430.731475830078 430.986724853516 430.641052246094 9999 9999 9999 430.647277832031 430.990051269531 430.746643066406 431.631561279297 431.406280517578
676.697082519531 674.585144042969 671.816284179688 669.455139160156 666.728942871094 662.690551757812 658.308288574219 654.183288574219 650.553100585938 646.715270996094 644.066955566406 640.821105957031 637.390014648438 636.138671875 634.107849121094 632.677917480469 632.008850097656 630.682006835938 629.183715820312 626.859436035156 624.86962890625 623.020935058594 620.360412597656 618.454284667969 615.757446289062 612.605529785156 607.077758789062 601.5361328125 594.888366699219 590.738830566406 585.372436523438 580.358337402344 576.554016113281 570.93505859375 566.70458984375 562.065856933594 556.2314453125 549.253051757812 543.314880371094 537.349609375 532.919250488281 529.33740234375 527.128723144531 524.063842773438 519.278442382812 514.430786132812 507.295135498047 499.895721435547 493.523712158203 486.752410888672 481.065734863281 475.235076904297 471.187530517578 467.196685791016 461.768463134766 457.774780273438 454.805480957031 451.539184570312 448.567169189453 446.053802490234 444.23974609375 442.207611083984 440.410430908203 436.753601074219 9999 9999 9999 9999 9999 9999 9999 438.445281982422 439.635223388672 438.439056396484 436.93994140625 436.174774169922 433.416229248047 431.950469970703 430.841033935547 431.561920166016 430.758972167969 430.811279296875 431.141265869141 431.203948974609 430.585052490234 431.177398681641 431.190856933594 431.140686035156 430.902160644531 430.969268798828 430.693908691406 430.324157714844 9999 9999 429.9462890625 430.401824951172 431.068023681641 431.118804931641 431.254730224609 430.992401123047
678.490478515625 676.164123535156 673.863830566406 670.742248535156 668.007263183594 664.932495117188 659.093811035156 655.034790039062 651.944885253906 647.729064941406 645.075378417969 641.879577636719 640.011901855469 638.9384765625 637.424682617188 635.611206054688 634.476928710938 632.730224609375 630.490783691406 628.977416992188 626.400268554688 625.037048339844 622.618225097656 619.790649414062 616.740173339844 614.219604492188 610.340881347656 603.332702636719 599.177429199219 594.554260253906 590.181762695312 583.367065429688 576.915100097656 572.304504394531 564.898315429688 560.208435058594 553.760498046875 547.283203125 541.012023925781 536.526184082031 533.292907714844 528.949340820312 525.405395507812 521.305725097656 516.135498046875 510.889556884766 505.639190673828 500.126495361328 492.354156494141 486.185089111328 480.085662841797 474.756286621094 469.781097412109 465.772613525391 461.4755859375 457.214813232422 453.933074951172 450.594635009766 447.495086669922 445.335357666016 443.155456542969 441.957763671875 439.246429443359 437.583923339844 436.222839355469 9999 9999 9999 9999 9999 438.608612060547 438.84375 437.249481201172 436.141784667969 435.590576171875 434.423370361328 432.385040283203 431.466156005859 431.258361816406 431.437042236328 430.867706298828 431.017150878906 431.230804443359 431.195648193359 431.077423095703 431.192230224609 431.691619873047 430.985168457031 430.855529785156 430.610687255859 430.774383544922 430.801177978516 9999 9999 9999 431.083374023438 430.909057617188 431.408538818359 430.914703369141 431.235992431641
680.373840332031 678.0537109375 676.525329589844 673.25927734375 669.548156738281 666.137573242188 662.652221679688 656.729309082031 652.484375 649.677124023438 647.629455566406 645.011413574219 642.578674316406 640.684936523438 638.288208007812 636.990783691406 636.254943847656 635.139465332031 632.890686035156 630.754333496094 627.930297851562 625.577819824219 623.501403808594 621.068542480469 616.783935546875 614.717834472656 610.294982910156 605.275268554688 598.455383300781 594.287414550781 590.130126953125 585.724304199219 580.300415039062 574.06884765625 568.067321777344 557.74072265625 551.168640136719 544.271057128906 539.733154296875 535.405822753906 531.849792480469 528.3193359375 522.849914550781 518.664489746094 514.671508789062 510.218536376953 503.892883300781 498.750091552734 491.983184814453 484.394226074219 479.367950439453 474.365142822266 469.943389892578 465.605499267578 460.794464111328 457.575378417969 452.996795654297 450.096893310547 447.12646484375 444.519744873047 442.286285400391 441.382995605469 440.067138671875 437.853607177734 436.347747802734 9999 9999 9999 9999 437.022674560547 436.864990234375 436.693572998047 435.57421875 435.485992431641 434.458587646484 432.291778564453 431.256164550781 431.645538330078 431.259246826172 431.1201171875 431.002838134766 431.171508789062 430.776123046875 430.892608642578 431.08349609375 431.072204589844 430.730224609375 430.987579345703 430.384857177734 431.065826416016 430.021453857422 429.786682128906 9999 9999 9999 430.51708984375 430.902038574219 431.194030761719 431.039764404297 431.625854492188
683.149169921875 680.649597167969 678.19482421875 674.999389648438 672.124206542969 667.816040039062 664.94482421875 660.421997070312 654.318298339844 652.141357421875 648.225830078125 645.567504882812 643.700317382812 641.763549804688 640.894775390625 639.848754882812 637.155822753906 635.513916015625 633.760070800781 631.304809570312 629.245788574219 626.388000488281 623.4169921875 620.941650390625 617.500183105469 612.996154785156 609.7255859375 605.033386230469 600.457336425781 593.599243164062 587.839721679688 582.353393554688 577.693908691406 573.294982910156 567.56005859375 559.163330078125 548.031616210938 541.370849609375 536.150756835938 534.749816894531 530.948547363281 527.648254394531 523.594177246094 517.501586914062 511.228515625 506.877471923828 501.481964111328 495.655700683594 489.232818603516 485.230590820312 477.439147949219 473.026428222656 469.250122070312 464.863739013672 460.072204589844 456.598175048828 453.519195556641 449.073822021484 446.264007568359 444.045288085938 441.995452880859 440.835723876953 439.241088867188 439.103546142578 438.068878173828 436.078979492188 435.536315917969 436.148040771484 436.173797607422 437.550201416016 436.527160644531 435.489990234375 435.322784423828 433.60546875 432.608215332031 431.150268554688 431.11328125 431.517425537109 430.684326171875 430.782867431641 431.324645996094 431.785522460938 431.378753662109 430.819000244141 431.021545410156 431.323211669922 430.913818359375 430.610534667969 430.826568603516 430.621459960938 430.572418212891 430.464965820312 9999 9999 9999 431.081665039062 431.248992919922 431.260498046875 431.575592041016 431.012634277344
684.285095214844 682.133605957031 679.192504882812 677.010131835938 673.628784179688 670.630737304688 666.960388183594 663.643371582031 658.733215332031 653.130493164062 648.92578125 647.642150878906 644.851013183594 643.0126953125 642.0927734375 640.301513671875 638.807861328125 636.531433105469 633.940490722656 632.286804199219 630.882446289062 627.477661132812 624.130065917969 619.762390136719 617.2109375 612.7177734375 607.480041503906 603.748352050781 598.586608886719 593.801208496094 585.251098632812 579.469299316406 573.918823242188 569.112670898438 561.482482910156 553.448364257812 545.87158203125 538.273864746094 534.937683105469 533.151977539062 530.2353515625 526.796081542969 522.260070800781 517.379821777344 509.979370117188 504.915679931641 499.553771972656 494.270233154297 489.255462646484 483.320434570312 478.140625 471.872406005859 468.908355712891 463.756439208984 459.971466064453 455.540679931641 453.028625488281 449.427795410156 445.939361572266 443.857635498047 442.203796386719 440.045166015625 439.365844726562 439.085113525391 438.238616943359 437.642395019531 437.385223388672 437.489044189453 436.502471923828 436.269409179688 436.125061035156 435.211822509766 432.437652587891 431.661987304688 430.865539550781 430.906951904297 431.188934326172 430.919616699219 431.090789794922 431.007507324219 431.268371582031 431.281372070312 431.122222900391 431.456726074219 430.522277832031 430.727386474609 430.484619140625 431.033477783203 430.475982666016 431.210662841797 430.569854736328 430.892486572266 9999 9999 9999 431.054595947266 430.697387695312 431.342010498047 431.512451171875 430.825103759766
684.634582519531 682.957336425781 681.779541015625 677.960266113281 675.153076171875 672.407348632812 670.225463867188 666.247253417969 665.395385742188 662.082702636719 653.595581054688 647.791442871094 645.797119140625 643.8505859375 642.841125488281 641.527709960938 639.196655273438 635.136901855469 632.706176757812 631.709899902344 629.326843261719 626.173461914062 623.7119140625 619.641845703125 614.118347167969 609.448059082031 603.160583496094 597.316101074219 595.021850585938 590.22265625 579.102966308594 573.43359375 569.589050292969 564.67138671875 558.264282226562 551.194213867188 542.476684570312 537.097351074219 531.903015136719 531.647399902344 528.365417480469 525.012084960938 521.727722167969 516.878723144531 511.343170166016 504.943115234375 496.818023681641 491.340057373047 485.475860595703 481.119384765625 477.03173828125 472.823303222656 468.545379638672 461.738739013672 458.379669189453 454.522644042969 451.2451171875 448.118591308594 446.534423828125 443.819732666016 441.718383789062 439.219940185547 438.638793945312 437.761779785156 437.79931640625 437.227935791016 437.277770996094 436.998046875 435.440643310547 435.541229248047 435.518218994141 433.037841796875 431.714508056641 431.398040771484 431.434173583984 430.826812744141 430.90869140625 431.256286621094 431.002471923828 431.473083496094 431.122344970703 430.805297851562 430.401458740234 431.042663574219 430.290435791016 430.672149658203 430.682403564453 431.105865478516 430.640106201172 430.810028076172 430.529663085938 9999 9999 9999 9999 430.738830566406 431.119262695312 430.948150634766 428.613128662109 9999
685.306518554688 684.115112304688 682.019714355469 679.530456542969 678.84521484375 675.146789550781 672.274963378906 670.253356933594 667.80712890625 664.688842773438 658.926818847656 649.937377929688 646.043090820312 644.495056152344 643.294372558594 641.200134277344 637.583068847656 634.688537597656 632.811401367188 630.284301757812 627.191711425781 625.403869628906 622.460754394531 618.372009277344 613.597473144531 606.172668457031 597.453857421875 586.633972167969 582.605773925781 576.939575195312 572.87890625 571.05322265625 569.7998046875 563.759094238281 555.595520019531 546.74267578125 538.593383789062 533.153076171875 529.316955566406 526.589416503906 526.303466796875 524.275390625 519.334106445312 513.90234375 508.523193359375 502.340423583984 497.376556396484 489.174011230469 483.558349609375 478.988433837891 474.149963378906 471.245880126953 466.901245117188 462.587310791016 457.852142333984 453.647979736328 450.800964355469 448.305053710938 445.753479003906 443.118774414062 441.444091796875 439.515747070312 438.146087646484 437.923736572266 437.253265380859 436.188446044922 436.301147460938 436.285186767578 434.368011474609 434.393341064453 433.611145019531 431.836486816406 430.841125488281 431.215606689453 431.068725585938 430.6708984375 430.371124267578 430.966430664062 430.642913818359 431.113372802734 430.691619873047 430.907135009766 430.608123779297 430.569763183594 430.847961425781 430.509033203125 431.081604003906 430.557037353516 430.38818359375 430.712829589844 429.876678466797 9999 9999 9999 429.769287109375 432.313018798828 431.266174316406 429.879058837891 9999 9999
684.519714355469 683.031860351562 681.8818359375 679.941223144531 678.669799804688 677.0234375 674.115539550781 671.372253417969 668.405456542969 666.663635253906 661.939208984375 654.031921386719 645.434509277344 641.591003417969 640.759216308594 639.99267578125 634.487731933594 632.591674804688 631.056579589844 627.447448730469 622.633544921875 620.218688964844 616.812622070312 610.849426269531 598.620239257812 593.024291992188 588.524108886719 581.418884277344 577.473571777344 573.404296875 571.211486816406 568.427062988281 565.67529296875 563.058288574219 554.648315429688 544.826538085938 537.736511230469 530.458618164062 525.863220214844 520.707458496094 518.379516601562 519.120300292969 517.506652832031 513.059875488281 506.1123046875 500.394561767578 494.496337890625 488.580474853516 481.485565185547 476.833648681641 471.540008544922 468.333435058594 465.037322998047 461.271911621094 456.596862792969 452.821655273438 449.61865234375 447.49951171875 445.37353515625 443.454406738281 441.464752197266 439.426879882812 437.497253417969 436.853912353516 436.027526855469 436.203521728516 435.717803955078 435.724182128906 435.633636474609 433.642486572266 434.015808105469 432.506561279297 431.812713623047 431.0185546875 430.858947753906 431.183410644531 431.089996337891 431.259155273438 430.390655517578 430.364990234375 430.505065917969 430.572937011719 430.583923339844 430.326995849609 430.837615966797 430.408660888672 429.944793701172 430.721649169922 430.458587646484 431.313995361328 9999 9999 9999 9999 430.648315429688 431.036285400391 431.543640136719 9999 9999 9999
682.922729492188 681.7314453125 680.72998046875 679.612365722656 678.376831054688 677.184753417969 675.9892578125 673.243041992188 671.241821289062 667.283813476562 663.729675292969 656.610473632812 645.823181152344 638.203247070312 636.018310546875 634.198974609375 631.344665527344 628.724182128906 628.235290527344 624.890991210938 619.804260253906 609.417114257812 601.596435546875 594.793273925781 588.579345703125 583.824157714844 579.047607421875 576.807800292969 571.809814453125 569.547241210938 567.7421875 566.164794921875 563.475402832031 561.021484375 555.127319335938 544.791259765625 537.388854980469 528.731628417969 521.509826660156 516.394836425781 513.015747070312 512.4404296875 513.008666992188 508.856964111328 501.698333740234 497.157562255859 490.914154052734 485.895111083984 482.078979492188 474.523406982422 470.751892089844 467.181701660156 462.418731689453 460.564880371094 456.476806640625 453.73681640625 449.404846191406 446.532989501953 445.281951904297 442.915466308594 440.716491699219 438.745697021484 437.005004882812 436.148315429688 435.502838134766 434.731719970703 434.430480957031 433.559753417969 432.577392578125 432.017181396484 433.895690917969 432.310028076172 430.746978759766 431.535278320312 431.286102294922 430.943756103516 431.739105224609 430.700012207031 430.241241455078 9999 431.213043212891 430.585327148438 430.237609863281 430.364410400391 430.371826171875 9999 429.422973632812 430.78173828125 431.392974853516 430.217681884766 9999 9999 9999 9999 430.3232421875 430.56201171875 430.824768066406 9999 9999 9999
681.519104003906 679.373291015625 676.729614257812 676.067321777344 676.160705566406 675.850952148438 674.951171875 673.537231445312 669.823974609375 666.117309570312 661.132934570312 656.87158203125 647.073913574219 635.811645507812 632.291320800781 628.630615234375 627.373962402344 624.388854980469 617.004150390625 612.77587890625 610.578247070312 607.797973632812 595.699401855469 588.482360839844 581.41748046875 573.461242675781 569.115661621094 568.684692382812 568.971801757812 567.70654296875 566.642333984375 564.694091796875 561.997192382812 557.542175292969 550.088745117188 544.244445800781 535.065979003906 527.086975097656 519.903259277344 513.693176269531 509.522186279297 505.577514648438 503.124725341797 502.475952148438 498.369293212891 492.489776611328 487.895385742188 483.728240966797 478.169769287109 473.927185058594 468.836334228516 465.926940917969 462.7353515625 459.182830810547 455.511474609375 451.810394287109 447.669189453125 445.5849609375 443.070037841797 441.446533203125 440.268402099609 438.757232666016 436.606384277344 435.270599365234 434.610534667969 433.717254638672 432.691711425781 431.244293212891 430.997192382812 431.230621337891 431.891387939453 430.676086425781 9999 9999 430.377777099609 430.44482421875 430.599731445312 429.408203125 430.895751953125 431.133026123047 430.809417724609 430.314270019531 430.318084716797 9999 9999 9999 9999 430.614990234375 431.069213867188 9999 9999 9999 9999 9999 431.845123291016 431.370452880859 431.648895263672 9999 9999 9999
678.076416015625 677.8740234375 675.291198730469 673.197631835938 671.866394042969 672.280212402344 672.992919921875 670.096618652344 668.294616699219 662.706115722656 657.243591308594 652.454956054688 644.792236328125 634.281555175781 627.294677734375 620.886352539062 619.254333496094 614.966552734375 609.98583984375 605.105285644531 606.833679199219 604.297729492188 593.446838378906 581.665466308594 573.6025390625 567.147705078125 564.642517089844 563.663940429688 566.134094238281 566.973510742188 562.477478027344 561.660339355469 557.961303710938 554.45068359375 547.486511230469 542.745361328125 536.336486816406 523.910949707031 517.322265625 511.769195556641 505.525726318359 501.472351074219 498.211120605469 497.359130859375 494.355773925781 487.536895751953 484.155364990234 478.447540283203 474.610473632812 470.6689453125 468.287017822266 464.805511474609 461.427307128906 458.208770751953 454.697021484375 450.677276611328 446.405883789062 444.649993896484 441.967163085938 440.663391113281 438.243377685547 437.484924316406 436.419769287109 434.831085205078 434.237548828125 432.765960693359 431.781829833984 431.056365966797 430.671234130859 430.7294921875 430.94091796875 430.396697998047 434.708984375 431.173980712891 430.728149414062 430.786437988281 430.093994140625 430.684478759766 430.714416503906 430.217376708984 430.543273925781 430.316101074219 431.052154541016 9999 9999 9999 430.762512207031 430.330688476562 430.855560302734 9999 9999 429.139709472656 9999 9999 9999 430.831512451172 431.375793457031 9999 9999 9999
676.278869628906 675.907409667969 673.797668457031 671.303466796875 666.213439941406 663.856079101562 661.89111328125 662.356262207031 659.982360839844 656.563354492188 651.453186035156 640.781677246094 634.009643554688 627.15380859375 620.762573242188 616.408325195312 612.313232421875 608.857727050781 602.661437988281 598.273193359375 595.989990234375 594.644653320312 589.300537109375 579.080993652344 570.813720703125 562.88720703125 559.341674804688 556.232849121094 557.566040039062 557.733154296875 557.151977539062 556.953430175781 553.928649902344 550.575805664062 543.583435058594 538.819458007812 532.543090820312 525.514221191406 517.734924316406 509.753601074219 503.513946533203 497.930908203125 492.097930908203 490.548126220703 486.931945800781 484.755249023438 480.289520263672 475.753601074219 471.765319824219 466.973724365234 464.113861083984 462.065582275391 460.745056152344 457.299194335938 452.223297119141 447.912506103516 445.565979003906 442.152252197266 440.280059814453 439.154510498047 437.35888671875 435.761260986328 435.265533447266 434.457550048828 433.749725341797 432.273590087891 430.994445800781 430.335266113281 430.216583251953 430.603698730469 430.796203613281 430.797546386719 430.46044921875 430.842712402344 430.508209228516 430.676910400391 430.416748046875 430.968475341797 430.600219726562 430.822814941406 430.885528564453 430.617736816406 430.505706787109 429.794372558594 430.299957275391 430.720703125 430.66943359375 430.529022216797 9999 9999 429.098114013672 430.258850097656 428.950805664062 9999 9999 430.883026123047 431.429107666016 9999 9999 9999
670.871887207031 668.755798339844 666.95458984375 664.01953125 661.890197753906 659.137817382812 656.801818847656 655.206115722656 649.670715332031 644.957153320312 639.881164550781 637.159362792969 628.290649414062 621.357299804688 615.001220703125 610.88134765625 602.825927734375 598.125244140625 593.606506347656 590.989440917969 588.585144042969 586.798034667969 582.787414550781 571.055603027344 563.568908691406 558.174926757812 552.836975097656 550.148254394531 547.236938476562 546.855163574219 547.381591796875 546.490966796875 546.299194335938 541.509460449219 538.476867675781 533.074096679688 526.717163085938 520.026611328125 512.8203125 504.175231933594 499.004089355469 492.523162841797 489.055541992188 487.058258056641 484.696105957031 481.5595703125 475.956604003906 470.634460449219 468.324615478516 465.181243896484 463.078033447266 460.229553222656 457.57275390625 454.614196777344 449.206512451172 446.509704589844 443.725402832031 440.951782226562 439.252593994141 438.605346679688 437.645721435547 435.066528320312 434.260833740234 432.984680175781 432.156982421875 431.183013916016 430.344512939453 430.339447021484 430.435607910156 430.153991699219 430.387512207031 430.308258056641 430.567047119141 430.364379882812 430.749206542969 430.516052246094 430.503479003906 430.287933349609 430.296630859375 430.696838378906 430.372772216797 430.842346191406 430.787017822266 430.852661132812 430.181488037109 430.220672607422 430.018280029297 431.158569335938 9999 428.953491210938 429.850555419922 431.510955810547 431.881439208984 430.924957275391 9999 9999 9999 9999 9999 9999
666.260131835938 665.344360351562 663.141540527344 658.910827636719 655.515502929688 648.333618164062 646.378662109375 641.524230957031 638.577087402344 635.122802734375 633.157348632812 628.227172851562 623.465454101562 614.650451660156 610.369384765625 603.227172851562 595.562744140625 591.246765136719 587.103515625 585.35888671875 578.681518554688 573.904846191406 568.228576660156 563.191467285156 559.805480957031 556.07177734375 551.418212890625 545.306762695312 539.020690917969 536.432250976562 536.225708007812 536.867126464844 538.261657714844 536.286254882812 531.375183105469 521.284362792969 515.682800292969 510.381744384766 503.341339111328 499.065246582031 494.639617919922 489.441864013672 485.823699951172 481.509674072266 478.00048828125 473.84716796875 472.632720947266 469.517883300781 466.440704345703 463.740661621094 461.955261230469 457.81494140625 453.737396240234 452.413665771484 448.493347167969 444.799255371094 442.856506347656 439.768371582031 437.455413818359 436.305145263672 435.237487792969 434.500732421875 432.899353027344 431.473236083984 431.058166503906 429.753265380859 429.596954345703 429.946655273438 430.196075439453 430.212341308594 430.209197998047 430.168609619141 430.371917724609 430.345428466797 430.634338378906 431.331909179688 430.443328857422 430.523406982422 430.211761474609 430.554168701172 430.750457763672 430.225433349609 430.442535400391 430.265930175781 430.329803466797 430.223480224609 430.470306396484 9999 9999 429.515411376953 430.061553955078 430.757720947266 431.23046875 431.501098632812 429.526062011719 9999 9999 9999 9999 9999
662.627502441406 660.226867675781 651.795166015625 648.484558105469 642.22607421875 640.414855957031 637.654174804688 630.485900878906 627.844360351562 619.413146972656 617.1455078125 613.290344238281 609.8173828125 607.055419921875 606.363830566406 597.903686523438 590.069030761719 581.735534667969 579.638122558594 579.664184570312 575.118713378906 568.153442382812 562.11767578125 559.06396484375 556.570983886719 550.051147460938 545.292236328125 540.082458496094 535.712341308594 530.975280761719 528.68994140625 527.014282226562 523.458862304688 523.457458496094 519.883728027344 514.991333007812 509.830657958984 503.787445068359 498.421539306641 494.447479248047 489.250335693359 485.878601074219 481.0185546875 478.292358398438 475.853912353516 472.163757324219 469.718933105469 466.245635986328 463.453308105469 461.020141601562 458.716613769531 456.378051757812 453.880981445312 450.951873779297 447.364715576172 444.692230224609 440.109497070312 438.599731445312 436.502014160156 435.451385498047 434.460479736328 433.518432617188 432.305511474609 430.575256347656 429.780914306641 429.913879394531 429.482177734375 430.162689208984 430.413665771484 430.172637939453 429.965698242188 430.071136474609 430.437164306641 430.133666992188 430.714569091797 430.374603271484 430.321746826172 430.303649902344 430.212158203125 429.828094482422 430.819152832031 430.27685546875 430.590423583984 430.284301757812 430.814453125 430.695739746094 9999 9999 429.178649902344 430.005401611328 430.73876953125 430.368591308594 430.660675048828 430.216888427734 430.278564453125 428.830291748047 428.674835205078 9999 9999 9999
651.15966796875 646.144287109375 640.995178222656 635.949645996094 631.200622558594 627.506591796875 618.432434082031 616.501159667969 612.639892578125 610.573608398438 607.716125488281 605.124267578125 602.492553710938 598.742553710938 590.983093261719 586.724731445312 580.947265625 575.811767578125 575.006164550781 573.4296875 568.101196289062 561.227233886719 555.566040039062 552.341003417969 548.193481445312 544.06103515625 539.0263671875 534.411193847656 531.996520996094 524.61279296875 520.593688964844 517.508117675781 514.556396484375 514.080017089844 511.769348144531 508.700103759766 503.0029296875 495.081573486328 490.933166503906 487.445251464844 484.794219970703 481.192749023438 478.141754150391 473.831329345703 471.290893554688 469.369964599609 466.083801269531 463.714172363281 461.174530029297 459.338745117188 457.217712402344 454.799530029297 450.985260009766 446.572296142578 445.350494384766 442.593139648438 440.265747070312 438.821655273438 435.897857666016 434.914459228516 433.527557373047 431.857635498047 430.451263427734 429.715759277344 9999 429.204895019531 429.593200683594 429.254364013672 429.145416259766 429.664337158203 429.223999023438 429.434204101562 429.788513183594 430.260528564453 429.850982666016 429.971771240234 430.091735839844 430.454467773438 430.126831054688 430.03662109375 430.419189453125 430.128784179688 430.853851318359 431.111267089844 430.227661132812 431.335845947266 9999 429.745727539062 430.183685302734 430.493804931641 429.829345703125 432.068817138672 430.706939697266 9999 432.482849121094 429.541656494141 429.513977050781 429.895599365234 429.702331542969 9999
639.597045898438 634.469055175781 630.304321289062 617.257995605469 611.644836425781 608.502563476562 606.934631347656 606.784301757812 605.026977539062 603.051086425781 600.984130859375 596.239685058594 593.404296875 590.193542480469 585.37548828125 580.375610351562 575.505676269531 569.319580078125 564.036437988281 560.925720214844 559.281005859375 555.286193847656 551.06982421875 547.0849609375 540.164672851562 536.076904296875 528.477722167969 526.217102050781 522.752746582031 519.163452148438 515.968200683594 510.989898681641 507.415496826172 501.344482421875 499.453460693359 496.943023681641 494.005950927734 491.158233642578 486.14453125 482.552185058594 479.753540039062 474.936157226562 472.261108398438 470.741668701172 469.621459960938 466.7275390625 464.477722167969 462.141296386719 459.030883789062 455.566101074219 455.304840087891 451.622894287109 448.055419921875 445.715667724609 443.033813476562 440.994018554688 438.836700439453 436.699249267578 435.526123046875 433.60546875 432.637359619141 431.177764892578 9999 9999 9999 9999 9999 9999 9999 429.021942138672 429.384307861328 431.57080078125 429.953155517578 430.099273681641 429.7373046875 429.571807861328 430.140625 429.9482421875 429.682922363281 430.141082763672 430.359008789062 430.409973144531 430.512542724609 432.089813232422 431.457336425781 9999 9999 430.058776855469 429.439727783203 429.210662841797 431.9189453125 432.646057128906 429.901336669922 9999 431.353973388672 432.456695556641 429.148559570312 430.728546142578 429.822326660156 9999
622.316467285156 618.521606445312 612.416015625 606.002868652344 600.606872558594 598.913940429688 596.279174804688 589.955810546875 590.444458007812 589.657653808594 589.673278808594 590.146240234375 588.193786621094 583.728576660156 580.428588867188 573.34375 568.369750976562 560.871643066406 556.649108886719 552.573547363281 550.2783203125 546.899963378906 543.072265625 535.171997070312 531.295593261719 526.698425292969 522.323608398438 518.344055175781 515.680053710938 513.470825195312 508.215087890625 504.14697265625 499.521087646484 495.786895751953 492.008239746094 490.471313476562 488.131042480469 485.011993408203 479.44482421875 475.659759521484 473.892669677734 472.126739501953 469.990325927734 468.614501953125 466.65185546875 464.866119384766 460.673889160156 459.438232421875 456.264007568359 454.352081298828 452.110809326172 449.871917724609 447.5751953125 443.699066162109 441.350433349609 439.187408447266 437.060424804688 436.024047851562 435.186584472656 433.958740234375 431.28369140625 9999 9999 9999 9999 9999 9999 9999 9999 429.262512207031 9999 429.226257324219 430.908355712891 432.192657470703 430.506713867188 430.157836914062 430.718536376953 430.127868652344 430.14404296875 430.845123291016 432.281799316406 432.092864990234 432.996124267578 429.825134277344 429.334045410156 9999 429.416412353516 430.057922363281 429.282531738281 432.969757080078 432.979614257812 430.404632568359 9999 9999 430.141571044922 433.055328369141 429.578216552734 430.049133300781 428.137237548828 9999
610.2197265625 606.465942382812 600.50390625 594.681274414062 587.190856933594 582.412719726562 580.401977539062 579.090698242188 579.461791992188 578.850524902344 581.461242675781 582.484252929688 573.008483886719 571.416931152344 569.119506835938 564.792297363281 560.2314453125 555.021057128906 550.940185546875 545.643432617188 536.241149902344 533.398559570312 530.963317871094 528.213134765625 524.057373046875 521.232299804688 517.193908691406 511.580108642578 509.217102050781 507.051147460938 502.881652832031 498.672607421875 495.015502929688 490.145111083984 487.2626953125 482.377593994141 479.456024169922 476.806549072266 474.493133544922 471.884613037109 469.699645996094 468.256378173828 465.673889160156 463.299713134766 462.371185302734 462.249176025391 460.106781005859 457.857208251953 454.859802246094 451.743713378906 448.60302734375 447.225952148438 444.274108886719 441.928466796875 439.932830810547 438.189636230469 436.027648925781 435.076690673828 433.501678466797 432.339935302734 430.999114990234 9999 430.184844970703 429.516296386719 429.410583496094 430.048828125 9999 9999 9999 9999 9999 9999 9999 429.303436279297 429.255126953125 430.316986083984 430.747100830078 430.071472167969 430.988708496094 431.314025878906 431.907867431641 430.854766845703 429.292358398438 431.407836914062 9999 9999 429.524993896484 429.183410644531 432.834594726562 432.421752929688 431.7412109375 9999 9999 9999 429.143493652344 431.050140380859 431.413330078125 429.859100341797 429.138671875 9999
599.708190917969 588.809692382812 583.149291992188 579.307495117188 575.960693359375 572.80322265625 569.72900390625 569.283630371094 568.855224609375 563.964111328125 565.155822753906 563.938903808594 561.85986328125 559.925903320312 559.517211914062 556.239501953125 546.801574707031 543.592163085938 540.60595703125 535.790588378906 529.58984375 525.24853515625 521.774597167969 519.723327636719 512.9140625 511.200042724609 508.957794189453 506.624633789062 504.820434570312 501.065277099609 496.170104980469 492.352935791016 487.752685546875 483.809783935547 480.840942382812 478.363067626953 475.796417236328 473.220642089844 471.815399169922 467.545471191406 466.324401855469 464.218139648438 463.446716308594 462.006744384766 460.359649658203 459.041778564453 458.196014404297 455.533386230469 451.813446044922 449.015045166016 447.472747802734 445.708709716797 442.604309082031 441.423126220703 438.715942382812 437.451202392578 435.852386474609 434.614410400391 432.813110351562 431.472045898438 9999 427.541748046875 431.026092529297 429.866455078125 430.138458251953 430.938446044922 429.606811523438 428.724273681641 9999 9999 9999 9999 9999 9999 429.920074462891 429.797973632812 430.673583984375 430.751129150391 430.486968994141 430.644256591797 429.803649902344 429.749267578125 429.760711669922 9999 9999 9999 430.24560546875 431.69677734375 431.303344726562 431.158782958984 430.661834716797 428.557647705078 9999 429.235931396484 429.873718261719 430.905639648438 431.464263916016 431.497680664062 431.280151367188 430.571014404297
581.463623046875 577.303649902344 572.253967285156 567.854125976562 565.290649414062 563.043579101562 555.639770507812 554.489807128906 554.594665527344 554.770202636719 554.990478515625 554.361999511719 553.755493164062 547.50439453125 545.054260253906 542.241760253906 537.851440429688 533.853698730469 530.323425292969 527.683959960938 523.977844238281 514.911437988281 511.611602783203 509.282257080078 507.21728515625 504.628295898438 501.306091308594 499.05078125 492.191802978516 488.588836669922 486.495941162109 484.048370361328 483.103454589844 480.309020996094 477.727508544922 474.616302490234 470.207458496094 467.883666992188 466.778442382812 464.850921630859 463.201782226562 461.428527832031 460.797424316406 459.798492431641 457.299041748047 455.192047119141 453.819152832031 452.449615478516 450.678192138672 448.640686035156 445.718078613281 442.467926025391 440.662048339844 439.765960693359 437.980010986328 436.829071044922 436.043792724609 434.325622558594 431.658264160156 428.487518310547 9999 429.602294921875 430.84423828125 430.393829345703 430.636840820312 430.580871582031 430.709014892578 431.569793701172 432.010009765625 430.931793212891 428.772033691406 9999 9999 9999 9999 9999 9999 9999 9999 9999 429.680999755859 429.513397216797 9999 9999 9999 431.003204345703 431.394348144531 430.907653808594 431.166198730469 432.040954589844 431.472503662109 431.325134277344 430.881286621094 430.409606933594 430.89892578125 430.856323242188 430.237976074219 431.171661376953 430.725860595703 430.74072265625
570.646789550781 566.660949707031 555.282348632812 552.985656738281 550.756530761719 550.098083496094 546.221618652344 545.360534667969 544.592590332031 544.2978515625 539.264282226562 538.292236328125 538.188171386719 537.637634277344 536.870910644531 536.4892578125 531.001708984375 526.244323730469 518.69580078125 516.614318847656 514.361450195312 509.380889892578 506.109405517578 503.259704589844 500.254333496094 493.776458740234 490.452026367188 488.365814208984 485.641998291016 484.264099121094 480.657257080078 479.731903076172 478.404144287109 474.435882568359 471.718139648438 469.317657470703 467.511322021484 465.263305664062 463.538238525391 462.715606689453 460.330902099609 458.6845703125 457.083251953125 456.176300048828 454.135223388672 453.110168457031 451.011138916016 450.333618164062 448.082580566406 445.552886962891 443.938171386719 441.131652832031 440.071899414062 438.483551025391 436.582702636719 435.8134765625 434.079498291016 432.212585449219 429.994750976562 9999 9999 430.1357421875 430.535583496094 431.258361816406 431.819976806641 431.359893798828 431.703857421875 432.6875 433.595550537109 432.954315185547 432.904235839844 433.257934570312 431.079345703125 428.692749023438 9999 9999 9999 9999 9999 9999 9999 9999 9999 429.364227294922 429.980834960938 431.136505126953 430.758636474609 431.028411865234 430.574615478516 9999 9999 9999 430.951873779297 430.631286621094 431.247192382812 430.669342041016 430.889312744141 430.887664794922 431.383453369141 431.168487548828
554.542053222656 549.974182128906 545.708435058594 542.144714355469 541.679138183594 540.732727050781 537.696166992188 531.710021972656 531.008666992188 530.210693359375 529.357849121094 528.841125488281 528.465026855469 530.009704589844 525.754211425781 524.042053222656 519.915893554688 516.120910644531 513.168579101562 510.574493408203 508.490600585938 503.667694091797 498.228332519531 494.781280517578 491.524475097656 487.244049072266 484.197631835938 481.93359375 480.339202880859 478.786956787109 474.050933837891 473.894927978516 472.809295654297 470.112457275391 468.767181396484 466.662994384766 465.578125 462.660278320312 459.69384765625 459.070159912109 457.661834716797 457.445617675781 456.382507324219 454.727996826172 452.584045410156 449.843017578125 448.071472167969 446.451049804688 445.354370117188 444.664733886719 442.706634521484 441.419311523438 438.738006591797 437.102966308594 435.97021484375 434.577056884766 433.125671386719 431.087829589844 9999 9999 429.214202880859 430.495758056641 430.853851318359 431.009735107422 431.443908691406 432.312530517578 432.047332763672 433.219818115234 434.027465820312 434.371734619141 434.326080322266 433.837463378906 434.076568603516 434.237640380859 430.208465576172 430.141540527344 430.903686523438 429.171478271484 9999 9999 9999 428.480804443359 429.581878662109 430.842559814453 431.056549072266 431.016571044922 9999 9999 9999 9999 9999 9999 431.291229248047 431.257904052734 430.464813232422 430.899475097656 430.625305175781 431.004150390625 431.107727050781 431.113403320312
544.697448730469 540.266235351562 536.10009765625 533.817504882812 528.040710449219 526.197326660156 523.818176269531 522.785339355469 521.8740234375 521.129150390625 519.14453125 514.117797851562 515.734619140625 515.786743164062 514.967346191406 514.729919433594 513.778503417969 511.420532226562 507.763061523438 503.095733642578 499.821166992188 496.630187988281 492.461029052734 489.774047851562 487.098266601562 482.847839355469 477.174682617188 474.276184082031 473.250213623047 471.125457763672 470.959045410156 469.865356445312 468.496002197266 467.61669921875 465.496185302734 463.232116699219 461.355773925781 460.246520996094 458.532165527344 456.80126953125 455.746307373047 454.540313720703 453.149017333984 451.290100097656 450.227905273438 447.800476074219 445.918273925781 444.837188720703 443.280242919922 442.308807373047 441.106292724609 439.589782714844 437.985687255859 437.180877685547 435.318389892578 433.996826171875 432.567626953125 429.947296142578 9999 9999 429.639068603516 430.792541503906 430.343627929688 431.599029541016 433.831970214844 434.866363525391 434.393432617188 435.123229980469 434.300231933594 434.488006591797 434.197937011719 433.536315917969 433.945526123047 434.692474365234 433.676391601562 432.450256347656 431.5419921875 431.623077392578 430.184997558594 431.067657470703 431.311096191406 431.739105224609 431.03466796875 431.469329833984 431.175903320312 430.24462890625 9999 9999 9999 9999 9999 9999 431.263427734375 430.927307128906 430.690216064453 431.283477783203 430.751373291016 430.610015869141 430.794799804688 431.10791015625
529.359069824219 528.525756835938 525.878479003906 522.679504394531 520.816589355469 519.032348632812 517.0703125 515.428649902344 511.185668945312 509.468505859375 507.979888916016 507.073028564453 507.323303222656 506.281494140625 505.496856689453 505.943908691406 500.790710449219 500.481872558594 497.915771484375 495.979339599609 492.459411621094 490.283660888672 487.199279785156 482.910736083984 480.783905029297 477.335388183594 472.659942626953 470.368865966797 469.037139892578 468.107025146484 467.324676513672 464.714141845703 464.112091064453 463.3232421875 462.261474609375 459.577606201172 458.812927246094 457.420867919922 456.297912597656 453.448852539062 452.437286376953 451.955413818359 451.646514892578 449.583862304688 448.365509033203 445.871734619141 443.63720703125 443.137390136719 441.739227294922 440.579345703125 439.185760498047 438.110565185547 436.776428222656 435.436737060547 433.805999755859 431.805450439453 431.112396240234 9999 9999 429.281890869141 429.112030029297 430.453552246094 431.02783203125 431.231018066406 431.38330078125 433.889770507812 434.905426025391 434.798736572266 434.887786865234 434.408020019531 433.895690917969 432.815765380859 432.159515380859 432.184692382812 432.004119873047 431.707611083984 431.82958984375 431.761016845703 431.191314697266 431.252075195312 431.239990234375 431.084197998047 431.064666748047 431.314727783203 431.508911132812 430.788757324219 9999 9999 9999 9999 9999 430.197967529297 431.085235595703 430.759094238281 431.344635009766 431.025970458984 9999 431.215423583984 431.096588134766 431.161987304688
520.944885253906 519.580444335938 517.270202636719 515.253173828125 513.092956542969 509.149627685547 506.816680908203 505.245880126953 505.407897949219 503.260803222656 501.602386474609 500.966369628906 496.501251220703 495.348266601562 494.026550292969 494.539703369141 494.082305908203 493.495239257812 490.755676269531 488.689910888672 483.319946289062 482.279144287109 479.555358886719 478.294250488281 476.878479003906 473.676300048828 470.628387451172 467.595336914062 463.988067626953 462.815002441406 463.399475097656 462.335296630859 461.849426269531 461.220062255859 459.724060058594 456.647003173828 454.552185058594 453.228332519531 452.200836181641 450.791717529297 450.180847167969 449.17529296875 449.519561767578 446.641204833984 444.724548339844 444.119049072266 442.451629638672 441.599212646484 440.691619873047 439.451568603516 437.816528320312 435.470886230469 435.111511230469 433.496887207031 432.776092529297 431.321258544922 9999 9999 9999 429.271118164062 430.36962890625 430.579315185547 431.404327392578 431.714965820312 431.282165527344 431.518890380859 432.135375976562 434.513214111328 434.583557128906 432.771087646484 432.562286376953 431.838500976562 432.491058349609 433.498565673828 433.146850585938 432.867645263672 432.578582763672 433.14794921875 433.887268066406 434.43115234375 434.736450195312 432.173187255859 9999 9999 9999 9999 9999 9999 9999 9999 9999 431.448547363281 431.516662597656 430.756011962891 431.116546630859 430.793731689453 430.918762207031 431.242156982422 430.964019775391 431.38671875
514.358825683594 512.149597167969 506.783660888672 504.919799804688 503.539184570312 502.809020996094 500.661987304688 499.587829589844 498.351715087891 494.661254882812 492.798736572266 491.88037109375 490.610870361328 489.749816894531 489.752288818359 488.227081298828 488.488189697266 483.868316650391 480.729705810547 479.108245849609 478.438812255859 478.427734375 476.554107666016 474.477630615234 472.935028076172 468.552062988281 465.392608642578 463.266357421875 461.648101806641 460.671356201172 460.397583007812 458.867401123047 456.343536376953 455.485595703125 455.326995849609 453.537078857422 451.112182617188 449.805358886719 449.097351074219 448.232635498047 446.082916259766 445.358673095703 444.689880371094 443.619110107422 442.600280761719 442.112182617188 440.874176025391 439.060546875 438.565826416016 437.956298828125 435.986297607422 434.433959960938 433.485809326172 432.431274414062 431.310241699219 9999 9999 9999 429.370574951172 429.933929443359 430.614685058594 431.054718017578 431.577362060547 431.311767578125 430.978698730469 431.109436035156 431.509002685547 431.845123291016 431.729858398438 431.637115478516 432.098175048828 433.494079589844 434.373718261719 434.436218261719 435.576416015625 435.476684570312 435.436553955078 435.277709960938 433.433715820312 9999 9999 9999 9999 9999 9999 9999 9999 9999 9999 9999 9999 430.606048583984 431.131744384766 430.709045410156 430.874298095703 431.158935546875 430.700836181641 9999 430.746795654297 430.757904052734
503.788665771484 502.630523681641 500.813293457031 499.622497558594 497.013580322266 496.212005615234 493.632843017578 491.225769042969 490.105072021484 489.276977539062 487.673889160156 485.514770507812 485.517272949219 484.449401855469 480.88427734375 479.761291503906 478.21630859375 477.536834716797 476.438903808594 474.493377685547 473.634704589844 472.185699462891 471.346374511719 468.466857910156 467.146697998047 465.237731933594 463.253570556641 461.201477050781 460.441619873047 458.373687744141 456.701538085938 454.4111328125 453.549346923828 453.567260742188 451.432952880859 450.350708007812 449.051239013672 445.6015625 445.381072998047 444.390258789062 443.518432617188 442.408874511719 442.530029296875 441.681518554688 439.941680908203 439.388488769531 437.744903564453 437.938781738281 437.002258300781 436.149139404297 435.620391845703 433.249176025391 430.907043457031 430.342468261719 9999 9999 9999 9999 429.057220458984 430.454437255859 430.919372558594 431.129852294922 431.285186767578 431.379364013672 431.571228027344 431.671813964844 431.166381835938 431.464019775391 431.614776611328 431.685180664062 431.78515625 431.825744628906 432.503509521484 433.357208251953 432.763732910156 432.694641113281 432.38916015625 432.39990234375 432.262847900391 9999 9999 9999 9999 9999 9999 9999 9999 9999 9999 9999 431.360046386719 430.957397460938 430.034118652344 430.773498535156 431.937438964844 430.641143798828 431.324798583984 430.943328857422 431.369201660156 431.466949462891
498.3271484375 497.052795410156 496.066253662109 490.252990722656 489.467010498047 488.246276855469 487.156066894531 485.597137451172 485.453735351562 484.712524414062 483.974243164062 478.841094970703 477.209991455078 475.578216552734 475.844055175781 474.489135742188 474.240753173828 472.598937988281 469.024383544922 467.688659667969 467.929656982422 467.193969726562 467.075531005859 465.866394042969 463.125335693359 461.503601074219 458.899230957031 457.593780517578 456.605377197266 456.546142578125 454.076141357422 450.477142333984 450.311737060547 447.424957275391 445.338989257812 445.611755371094 445.423645019531 444.313110351562 443.900695800781 443.064544677734 441.559936523438 438.958160400391 438.890869140625 439.370544433594 437.814422607422 437.532775878906 436.500762939453 436.368194580078 435.861267089844 433.766510009766 432.631927490234 431.977478027344 429.903015136719 9999 9999 9999 9999 428.510284423828 430.028198242188 430.36865234375 431.065032958984 431.358459472656 431.276062011719 431.614074707031 431.209075927734 431.27099609375 429.687561035156 431.019714355469 431.976806640625 431.274475097656 431.416534423828 431.801513671875 431.356353759766 431.842987060547 431.227722167969 431.473602294922 431.647552490234 431.679931640625 432.09912109375 430.364990234375 9999 9999 9999 9999 9999 9999 9999 9999 9999 9999 431.901885986328 431.323425292969 431.469665527344 430.796417236328 431.741516113281 430.788879394531 430.687561035156 431.401336669922 431.145904541016 431.088317871094
490.753631591797 488.977294921875 487.940032958984 486.729736328125 483.745971679688 483.363983154297 481.849182128906 479.29833984375 479.166290283203 478.499328613281 476.471588134766 474.797180175781 472.634735107422 471.322937011719 472.007751464844 468.768829345703 467.462432861328 466.535583496094 465.55615234375 464.375823974609 465.026672363281 463.560882568359 463.778350830078 460.764465332031 460.256103515625 458.454437255859 456.383178710938 455.063690185547 454.682220458984 453.611206054688 449.452362060547 447.326354980469 445.029022216797 444.359680175781 441.327209472656 442.154998779297 442.735900878906 442.165161132812 440.432800292969 438.972961425781 439.065277099609 437.674865722656 436.970367431641 438.165161132812 436.526947021484 434.813140869141 435.308013916016 433.844177246094 432.455017089844 432.194213867188 430.979583740234 9999 9999 9999 430.557281494141 430.611145019531 9999 9999 429.374542236328 430.6435546875 431.445739746094 431.097015380859 431.155151367188 431.07421875 431.356384277344 431.122650146484 430.787506103516 431.272857666016 431.395050048828 431.029113769531 431.305236816406 431.896453857422 431.236541748047 431.557220458984 431.636413574219 431.319885253906 431.014190673828 431.120941162109 431.120330810547 431.424224853516 431.043243408203 9999 9999 9999 9999 9999 9999 9999 9999 9999 431.925506591797 432.321075439453 431.614593505859 431.007476806641 431.187316894531 431.635681152344 430.911651611328 431.452514648438 430.754150390625 431.554168701172
486.250366210938 485.333953857422 482.768646240234 481.164947509766 478.442352294922 476.675537109375 475.432037353516 474.001312255859 474.037689208984 474.795593261719 472.814270019531 471.012573242188 466.701263427734 466.506225585938 465.557495117188 463.968017578125 464.080108642578 462.080047607422 461.851135253906 458.94482421875 458.685089111328 457.454528808594 458.161682128906 458.752105712891 458.181915283203 456.422210693359 453.9296875 451.48193359375 449.6240234375 447.701721191406 446.505432128906 444.196655273438 443.142517089844 440.699432373047 439.912750244141 438.886993408203 438.765380859375 438.340759277344 437.933013916016 437.182159423828 436.993011474609 436.444274902344 434.720733642578 434.462036132812 433.210052490234 433.657257080078 433.137481689453 432.411743164062 430.967132568359 429.913604736328 9999 9999 9999 430.742431640625 430.506896972656 431.033630371094 428.606842041016 9999 430.918975830078 430.559692382812 431.140899658203 431.2763671875 431.753021240234 430.853912353516 431.402038574219 431.550720214844 431.349365234375 431.408142089844 430.9560546875 431.392669677734 431.031372070312 430.796203613281 430.958984375 430.837982177734 430.765563964844 430.850799560547 430.732299804688 432.072540283203 432.028045654297 433.028381347656 434.334228515625 433.934631347656 431.400024414062 9999 9999 9999 9999 9999 9999 431.485443115234 432.627075195312 432.318542480469 431.199737548828 430.872985839844 430.803405761719 430.845520019531 431.227783203125 431.532836914062 431.212738037109 431.378631591797
482.730224609375 478.385284423828 477.841522216797 476.762969970703 474.811553955078 474.0224609375 472.701232910156 470.448822021484 470.385803222656 468.339416503906 467.504577636719 465.696197509766 463.644775390625 463.249298095703 462.475616455078 461.291473388672 458.1650390625 457.687561035156 457.308319091797 456.394317626953 455.409332275391 455.090362548828 454.771636962891 455.110382080078 454.106292724609 453.518157958984 451.226013183594 448.97021484375 444.988189697266 444.281951904297 444.153106689453 439.996185302734 439.493133544922 437.956878662109 437.213043212891 436.797119140625 436.756195068359 435.792205810547 435.593505859375 434.414825439453 433.285675048828 432.694274902344 432.333282470703 432.68603515625 431.889129638672 432.204742431641 431.086120605469 430.588592529297 429.445434570312 9999 9999 428.723754882812 430.435729980469 429.945007324219 431.165313720703 431.605865478516 427.929443359375 9999 431.690795898438 430.509246826172 431.016693115234 430.592926025391 431.182891845703 431.20166015625 431.171112060547 431.229736328125 430.881164550781 430.890991210938 430.900634765625 430.938842773438 430.859283447266 431.0546875 430.843444824219 430.523895263672 430.603363037109 430.965179443359 430.837158203125 430.532989501953 431.138641357422 433.454498291016 434.980255126953 434.741455078125 434.539184570312 434.075988769531 434.408355712891 433.061737060547 432.775054931641 433.532806396484 433.759735107422 434.043884277344 432.825134277344 432.273498535156 432.520141601562 431.097412109375 430.520965576172 430.773193359375 430.564758300781 431.37646484375 431.385589599609 431.259552001953
476.563262939453 474.803283691406 472.884033203125 472.540466308594 471.243682861328 469.396026611328 467.576354980469 466.778167724609 464.702453613281 465.197814941406 464.193908691406 462.806945800781 460.649780273438 458.55859375 458.266723632812 456.239379882812 455.415466308594 454.537475585938 453.848968505859 453.396423339844 452.341430664062 450.367523193359 450.876739501953 450.3681640625 450.145294189453 447.964263916016 445.944244384766 445.03125 440.826141357422 438.969970703125 438.255798339844 437.241241455078 435.566467285156 435.319641113281 434.972137451172 433.658935546875 433.642364501953 433.553283691406 432.9814453125 431.905944824219 431.968933105469 431.006439208984 430.735778808594 430.69873046875 430.057006835938 430.107482910156 430.392578125 9999 9999 9999 428.960296630859 430.351654052734 430.538421630859 430.940093994141 430.724578857422 431.096557617188 431.727813720703 9999 430.439880371094 430.383361816406 431.096435546875 430.889251708984 431.296447753906 431.111663818359 431.164733886719 431.659240722656 431.328918457031 430.731903076172 9999 430.788391113281 430.940155029297 430.984252929688 431.059295654297 430.848358154297 430.516662597656 430.301696777344 9999 430.277374267578 430.591339111328 431.365173339844 433.607299804688 433.968627929688 436.032196044922 434.653350830078 434.696929931641 434.630828857422 434.945831298828 434.126708984375 434.540496826172 434.041961669922 433.652465820312 433.159973144531 431.630981445312 431.307922363281 431.577331542969 430.603698730469 430.907623291016 430.597869873047 430.988220214844 431.119079589844
472.986480712891 470.987701416016 467.528015136719 466.76708984375 465.665679931641 464.611938476562 464.247283935547 464.389984130859 462.154144287109 460.636901855469 459.358367919922 458.672027587891 457.139312744141 455.738006591797 455.732238769531 454.178649902344 452.926055908203 452.232604980469 449.724731445312 448.356475830078 448.10693359375 448.305572509766 447.429626464844 446.459167480469 444.603790283203 440.616943359375 439.550415039062 438.881530761719 437.650268554688 435.794006347656 435.208374023438 433.812835693359 433.540283203125 431.10888671875 431.792297363281 432.399139404297 432.514984130859 431.848297119141 431.619140625 431.0771484375 430.623596191406 430.496215820312 430.340484619141 430.746551513672 430.527740478516 9999 9999 9999 9999 430.318328857422 431.910736083984 431.510467529297 430.780242919922 430.575286865234 431.203857421875 431.08056640625 429.342987060547 9999 430.354187011719 430.640380859375 430.851898193359 430.802490234375 430.84033203125 430.977416992188 430.990936279297 430.605987548828 9999 9999 430.656921386719 431.206939697266 431.406829833984 430.652252197266 430.99072265625 430.378387451172 430.37939453125 429.707122802734 431.296630859375 430.494018554688 430.380249023438 431.0341796875 430.450134277344 431.449920654297 433.777282714844 435.046203613281 435.421783447266 434.974060058594 434.643493652344 433.999786376953 434.196014404297 434.337860107422 433.536682128906 432.713165283203 432.89306640625 432.2216796875 431.645812988281 431.354278564453 431.658142089844 430.974151611328 430.619262695312 430.539276123047
468.2314453125 466.912628173828 465.274444580078 463.250854492188 462.772644042969 460.925262451172 461.063018798828 459.379791259766 458.287078857422 457.013427734375 456.050628662109 455.121765136719 454.612640380859 452.496765136719 450.704071044922 449.754974365234 449.182464599609 447.789367675781 447.043701171875 446.275482177734 445.801727294922 444.476684570312 442.078308105469 440.858856201172 439.143890380859 436.483703613281 436.130828857422 436.112640380859 434.186065673828 433.782409667969 431.616668701172 430.911926269531 430.808929443359 430.519866943359 431.419891357422 431.133148193359 431.05029296875 429.351898193359 430.468292236328 430.728576660156 430.545104980469 430.554534912109 430.648742675781 430.282745361328 9999 9999 9999 428.876800537109 430.489379882812 430.539916992188 431.192077636719 430.731109619141 430.417175292969 430.718811035156 430.400421142578 430.646881103516 431.262603759766 9999 430.655242919922 430.484069824219 430.571075439453 430.484649658203 430.700836181641 430.611663818359 430.962707519531 430.54052734375 431.190643310547 430.955993652344 431.080444335938 430.585144042969 430.620391845703 9999 9999 9999 430.957183837891 430.910491943359 430.191223144531 430.901702880859 429.668212890625 430.263610839844 430.813720703125 430.872497558594 430.911590576172 430.862670898438 432.488128662109 434.8037109375 434.730987548828 434.674896240234 434.414367675781 434.067718505859 434.328796386719 434.068023681641 433.576965332031 432.907775878906 432.559753417969 431.655212402344 430.855773925781 431.301635742188 431.268157958984 430.768157958984
464.441711425781 463.036437988281 460.789764404297 458.476806640625 456.376190185547 456.258331298828 455.605560302734 456.046691894531 455.222900390625 454.200317382812 452.999633789062 450.574249267578 448.862854003906 447.657989501953 447.844146728516 447.045501708984 446.281188964844 445.423675537109 444.315002441406 441.807159423828 441.632507324219 440.949737548828 438.818328857422 436.956146240234 436.321594238281 433.749542236328 431.142761230469 432.636505126953 432.763488769531 431.789367675781 430.641540527344 9999 9999 9999 9999 9999 430.927490234375 430.287384033203 430.394012451172 430.656005859375 430.301696777344 430.174652099609 429.182220458984 9999 9999 9999 429.135192871094 429.263763427734 429.811798095703 430.111511230469 430.575042724609 430.922790527344 430.5263671875 431.243499755859 430.788909912109 430.996002197266 9999 9999 429.733673095703 430.599243164062 430.395629882812 431.182373046875 431.194610595703 430.794921875 430.955657958984 430.885925292969 430.619934082031 430.627349853516 430.458465576172 430.481750488281 9999 9999 9999 9999 430.265258789062 430.841064453125 430.234436035156 430.854095458984 430.444091796875 430.490081787109 431.202484130859 432.259063720703 433.484222412109 432.023529052734 430.820648193359 430.686096191406 430.273498535156 429.595794677734 429.652618408203 431.771820068359 432.812957763672 434.415161132812 433.636962890625 433.030364990234 432.337646484375 432.071166992188 431.496215820312 431.104461669922 431.369873046875 431.011810302734
458.902648925781 457.599395751953 456.336181640625 454.592163085938 454.231506347656 453.282409667969 452.582763671875 452.997589111328 450.705627441406 449.212310791016 447.897216796875 448.134613037109 446.840515136719 445.468597412109 445.186676025391 444.236755371094 442.382232666016 441.6474609375 441.256042480469 440.366546630859 438.716369628906 437.388153076172 436.143096923828 433.215972900391 432.389465332031 431.171997070312 430.597259521484 431.275848388672 430.352752685547 430.767486572266 430.326477050781 9999 9999 9999 9999 9999 9999 430.170623779297 430.294708251953 430.317413330078 430.786071777344 429.433898925781 9999 9999 428.510772705078 429.268737792969 430.504577636719 430.667816162109 429.855865478516 430.810882568359 430.788269042969 431.142059326172 430.413299560547 430.931579589844 431.028381347656 429.992340087891 428.655975341797 9999 429.72314453125 430.309265136719 430.78662109375 430.871948242188 430.973663330078 431.28857421875 430.934295654297 430.915832519531 430.647277832031 430.500732421875 9999 9999 9999 9999 9999 9999 430.51904296875 430.467163085938 430.563140869141 430.427215576172 431.653472900391 433.426605224609 431.706970214844 9999 9999 9999 9999 9999 9999 9999 9999 9999 9999 9999 430.018585205078 431.796447753906 432.290008544922 431.898010253906 431.754241943359 431.291381835938 431.033874511719 431.563629150391
