252.51 252.81 253.07 252.76 252.1 251.45 250.82 250.17 249.5 248.81 248.74 248.84 249.55 250.87 252.53 255.58 258.63 261.25 263.84 266.22 268.5 270.69 272.72 274.72 276.37 278.03 279.44 280.8 281.99 283.04 283.98 284.64 285.3 285.95 286.6 286.9 287.06 287.2 287.31 287.38 287.21 287.04 286.7 286.33 286.01 285.71 285.39 284.97 284.6 286.39 288.17 290.49 292.97 295.82 299.08 302.47 306.45 310.44 313.9 317.32 320.42 323.35 325.83 327.5 329.11 330.13 331.14 331.72 332.22 332.56 332.75 332.83 332.64 332.45 332.03 331.61 330.71 329.6 328.39 327.02 325.57 323.58 321.59 319.58 317.56 314.92 311.82 308.93 306.48 304.07 304.07 304.04 304.48 305.08 306.53 308.95 311.4 313.94 316.48 319.09 321.71 324.63 327.73 330.69 333.36 336.04 338.62 341.2 343.73 346.24 348.75 351.26 353.76 356.19 358.62 361.09 363.55 365.94 368.3 370.76 373.37 375.95 378.41 380.87 383.32 385.77 387.93 389.86 391.84 393.98 396.11 398.84 401.57 404.25 406.92 409.25 411.14 413.05 415.16 417.26 419.37 421.5 424.29 427.53 430.63 433.46 436.21 437.85 439.48 441.03 442.57 444.17 445.86 447.51 449.1 450.68 453.09 455.58 457.28 458.54 458.72 457.1 455.35 452.76 450.16 448.05 446.04
254.74 255.09 255.42 255.26 254.75 254.17 253.41 252.64 251.7 250.75 250.46 250.38 250.6 251.16 252.18 255.41 258.66 261.41 264.13 266.75 269.32 271.73 273.81 275.88 277.72 279.57 281.01 282.35 283.6 284.76 285.83 286.57 287.33 288.01 288.68 289.09 289.38 289.63 289.81 289.96 289.8 289.65 289.38 289.11 288.91 288.78 288.51 287.88 287.27 288.73 290.16 292.24 294.56 297.2 300.23 303.39 307.27 311.13 314.72 318.28 321.51 324.53 327.16 329.02 330.86 332.08 333.31 334.13 334.83 335.18 335.15 335.1 335.02 334.94 334.58 334.21 333.39 332.36 331.2 329.82 328.37 326.39 324.41 322.31 320.18 317.61 314.68 311.86 309.33 306.78 306.42 306.07 306.46 307.15 308.59 311 313.45 316.08 318.72 321.28 323.83 326.65 329.66 332.59 335.37 338.15 340.75 343.34 345.86 348.36 350.88 353.4 355.91 358.36 360.8 363.16 365.5 367.93 370.43 372.98 375.61 378.23 380.73 383.24 385.67 388.09 390.24 392.15 394.08 396.05 398.01 400.81 403.63 406.37 409.05 411.34 413.06 414.82 416.85 418.89 421.08 423.3 426.23 429.67 432.86 435.46 438.02 439.36 440.69 442.04 443.39 444.83 446.36 447.86 449.26 450.65 453.01 455.45 456.8 457.5 457.12 454.78 452.41 449.74 447.07 444.64 442.25
257.06 257.41 257.77 257.72 257.33 256.82 255.94 255.06 253.91 252.76 252.29 252.07 252.01 252.13 252.69 255.52 258.3 261.18 264.09 266.91 269.68 272.26 274.43 276.6 278.5 280.4 281.98 283.46 284.85 286.12 287.34 288.32 289.31 289.98 290.62 291.05 291.38 291.72 292.08 292.4 292.27 292.14 292.03 291.92 291.86 291.82 291.68 291.22 290.78 291.75 292.72 294.53 296.71 299.12 301.86 304.7 308.3 311.87 315.53 319.21 322.55 325.65 328.43 330.52 332.59 334.03 335.48 336.52 337.43 337.81 337.57 337.37 337.39 337.42 337.13 336.8 336.08 335.12 334.01 332.61 331.17 329.2 327.23 325.05 322.81 320.29 317.53 314.81 312.17 309.54 308.8 308.12 308.43 309.22 310.66 313.06 315.5 318.23 320.96 323.48 325.95 328.68 331.59 334.49 337.37 340.26 342.87 345.47 348 350.49 353.01 355.55 358.07 360.52 362.98 365.26 367.52 369.98 372.57 375.16 377.78 380.39 382.9 385.4 387.82 390.21 392.34 394.21 396.09 398.03 399.98 402.88 405.85 408.53 411.04 413.19 414.78 416.41 418.43 420.44 422.59 424.75 427.44 430.54 433.37 435.54 437.7 438.95 440.19 441.53 442.9 444.33 445.83 447.26 448.33 449.39 451.17 453.02 453.84 453.98 453.28 450.85 448.42 445.93 443.46 440.92 438.34
259.71 259.93 260.12 260.05 259.78 259.34 258.35 257.36 256.11 254.86 254.25 253.92 253.73 253.7 253.93 255.87 257.75 260.71 263.88 266.92 269.85 272.6 274.9 277.2 279.16 281.13 282.86 284.53 286.07 287.47 288.83 290.05 291.28 291.95 292.56 293.01 293.37 293.8 294.34 294.84 294.74 294.63 294.66 294.73 294.8 294.85 294.83 294.56 294.29 294.78 295.29 296.83 298.87 301.06 303.5 306.03 309.34 312.63 316.34 320.14 323.59 326.76 329.7 332 334.31 335.97 337.64 338.9 340.02 340.45 339.99 339.65 339.82 339.99 339.77 339.5 338.85 337.95 336.89 335.49 334.06 332.07 330.07 327.86 325.59 323.17 320.6 318.02 315.34 312.65 311.69 310.85 311.06 311.83 313.2 315.59 318.01 320.72 323.41 325.94 328.44 331.12 333.95 336.78 339.62 342.45 345 347.54 350.13 352.75 355.3 357.74 360.18 362.67 365.17 367.48 369.77 372.2 374.73 377.26 379.79 382.32 384.78 387.25 389.67 392.08 394.21 396.02 397.87 399.93 402 405.03 408.15 410.73 412.98 414.95 416.43 417.95 419.96 421.97 424.06 426.16 428.59 431.31 433.79 435.58 437.36 438.54 439.7 441.02 442.41 443.83 445.3 446.67 447.42 448.14 449.35 450.62 450.91 450.5 449.44 446.92 444.41 442.12 439.85 437.21 434.44
262.36 262.45 262.47 262.39 262.22 261.86 260.76 259.66 258.32 256.96 256.21 255.79 255.45 255.28 255.22 256.26 257.25 260.23 263.66 266.91 270.02 272.95 275.37 277.81 279.83 281.85 283.74 285.58 287.28 288.8 290.32 291.77 293.24 293.93 294.51 294.98 295.37 295.87 296.57 297.24 297.19 297.15 297.32 297.55 297.75 297.9 298.01 297.91 297.81 298.08 298.38 299.66 301.46 303.4 305.63 307.92 310.98 314.03 317.67 321.44 324.93 328.19 331.25 333.71 336.17 338.13 340.09 341.57 342.83 343.55 343.49 343.48 343.62 343.76 343.41 342.98 342.19 341.16 340.01 338.63 337.23 335.1 332.97 330.8 328.62 326.36 323.99 321.56 318.85 316.14 315.06 314.14 314.19 314.81 316.03 318.38 320.75 323.35 325.96 328.49 331.02 333.66 336.4 339.14 341.9 344.65 347.13 349.6 352.25 355 357.59 359.93 362.29 364.82 367.35 369.71 372.02 374.43 376.9 379.37 381.81 384.25 386.68 389.1 391.53 393.96 396.09 397.83 399.65 401.83 404.01 407.17 410.45 412.94 414.93 416.71 418.09 419.5 421.5 423.51 425.54 427.57 429.76 432.1 434.22 435.64 437.04 438.13 439.21 440.51 441.91 443.29 444.68 445.95 446.32 446.67 447.24 447.82 447.53 446.53 445.09 442.48 439.88 437.64 435.4 432.78 430.04
264.99 264.98 264.84 264.72 264.61 264.29 263.13 261.97 260.57 259.15 258.29 257.74 257.28 257.02 256.8 257.19 257.55 260.24 263.49 266.63 269.67 272.58 275.07 277.57 279.76 281.96 284.03 286.06 287.94 289.6 291.26 292.87 294.49 295.48 296.37 297.01 297.45 297.97 298.7 299.41 299.59 299.78 300.09 300.44 300.75 301.01 301.24 301.3 301.37 301.71 302.07 303.09 304.49 306.1 308.14 310.22 313.02 315.81 319.27 322.91 326.39 329.72 332.88 335.47 338.07 340.32 342.57 344.25 345.66 346.64 346.98 347.31 347.43 347.54 347.06 346.46 345.54 344.37 343.14 341.77 340.4 338.14 335.87 333.73 331.65 329.53 327.36 325.11 322.36 319.62 318.43 317.44 317.33 317.8 318.86 321.17 323.49 326 328.5 331.04 333.6 336.2 338.85 341.5 344.18 346.85 349.27 351.67 354.37 357.25 359.89 362.13 364.4 366.97 369.53 371.92 374.26 376.64 379.06 381.46 383.83 386.21 388.59 390.97 393.38 395.81 397.92 399.58 401.34 403.71 406.09 409.16 412.32 414.66 416.42 418.07 419.46 420.87 422.59 424.28 426 427.71 429.48 431.31 432.99 434.16 435.33 436.32 437.3 438.49 439.8 441.08 442.34 443.48 443.53 443.55 443.39 443.15 442.3 440.92 439.24 436.73 434.23 431.87 429.52 427.19 424.89
267.46 267.42 267.29 267.09 266.8 266.37 265.32 264.28 262.92 261.52 260.55 259.83 259.26 258.96 258.69 258.65 258.6 260.69 263.4 266.17 269.03 271.83 274.41 277 279.43 281.86 284.17 286.4 288.49 290.32 292.15 293.92 295.71 297 298.21 299.03 299.52 300.08 300.82 301.57 301.98 302.4 302.85 303.31 303.74 304.1 304.45 304.68 304.92 305.33 305.76 306.55 307.55 308.81 310.66 312.54 315.07 317.6 320.88 324.4 327.85 331.25 334.51 337.23 339.95 342.49 345.04 346.93 348.47 349.71 350.45 351.15 351.23 351.32 350.72 349.95 348.9 347.61 346.31 344.96 343.6 341.27 338.92 336.81 334.79 332.75 330.69 328.53 325.76 322.99 321.62 320.46 320.19 320.57 321.51 323.77 326.04 328.6 331.16 333.68 336.17 338.69 341.23 343.8 346.49 349.18 351.63 354.06 356.69 359.44 362.02 364.3 366.61 369.13 371.64 374.02 376.36 378.73 381.12 383.5 385.86 388.22 390.56 392.89 395.25 397.62 399.66 401.22 402.9 405.56 408.23 411.03 413.84 415.98 417.59 419.17 420.67 422.18 423.49 424.77 426.13 427.49 428.85 430.19 431.46 432.47 433.47 434.4 435.32 436.44 437.69 438.89 440 441.03 440.75 440.45 439.58 438.52 437.1 435.32 433.39 430.98 428.57 426.11 423.63 421.57 419.73
269.93 269.86 269.74 269.47 268.99 268.45 267.51 266.58 265.27 263.9 262.82 261.94 261.23 260.91 260.59 260.14 259.66 261.17 263.34 265.73 268.41 271.07 273.75 276.43 279.09 281.76 284.29 286.74 289.03 291.02 293.02 294.96 296.91 298.51 300.04 301.06 301.59 302.18 302.95 303.7 304.32 304.94 305.54 306.15 306.71 307.19 307.67 308.06 308.46 308.95 309.46 310.13 310.9 311.95 313.68 315.41 317.69 319.95 323.11 326.6 330.07 333.53 336.85 339.58 342.3 344.85 347.38 349.4 351.13 352.56 353.39 354.19 354.32 354.45 353.94 353.25 352.31 351.11 349.87 348.46 347.04 344.8 342.52 340.35 338.23 336.1 333.95 331.73 328.96 326.19 324.57 323.17 322.74 323.11 323.99 326.22 328.46 331.16 333.87 336.36 338.75 341.16 343.59 346.07 348.8 351.53 354.02 356.49 359.03 361.63 364.13 366.48 368.82 371.29 373.75 376.12 378.46 380.82 383.18 385.55 387.89 390.24 392.53 394.82 397.12 399.43 401.42 402.87 404.45 407.39 410.36 412.92 415.39 417.31 418.77 420.26 421.88 423.49 424.41 425.29 426.27 427.29 428.24 429.1 429.94 430.78 431.61 432.48 433.34 434.4 435.58 436.7 437.68 438.6 437.98 437.31 435.77 433.94 431.98 429.87 427.71 425.4 423.08 420.63 418.17 416.36 414.92
272.41 272.3 272.18 271.85 271.21 270.55 269.72 268.89 267.63 266.3 265.17 264.2 263.39 263.02 262.64 261.9 261.14 262.08 263.65 265.6 268.05 270.53 273.25 275.98 278.79 281.63 284.31 286.9 289.35 291.54 293.72 295.75 297.79 299.55 301.24 302.5 303.32 304.12 304.81 305.49 306.23 306.99 307.85 308.8 309.63 310.25 310.88 311.44 312.01 312.6 313.19 313.88 314.68 315.68 317.29 318.89 320.85 322.81 325.83 329.3 332.77 336.22 339.56 342.2 344.83 347.28 349.69 351.81 353.76 355.38 356.27 357.15 357.35 357.56 357.16 356.55 355.71 354.61 353.44 351.96 350.49 348.32 346.1 343.89 341.68 339.46 337.22 334.93 332.16 329.38 327.53 325.9 325.3 325.66 326.47 328.68 330.88 333.71 336.58 339.05 341.33 343.63 345.96 348.34 351.1 353.87 356.41 358.92 361.39 363.83 366.25 368.64 371.04 373.45 375.86 378.22 380.57 382.91 385.25 387.58 389.91 392.23 394.48 396.7 398.91 401.1 403.01 404.46 406.03 409.11 412.19 414.52 416.66 418.32 419.53 420.79 422.22 423.63 424.22 424.77 425.44 426.17 426.82 427.37 427.92 428.57 429.22 429.87 430.5 431.21 431.96 432.65 433.23 433.78 433.17 432.57 431.15 429.41 427.44 425.18 422.9 420.57 418.24 416.04 413.86 412.22 410.92
275.11 274.86 274.55 274.13 273.54 272.92 272.09 271.26 270.08 268.81 267.72 266.81 265.99 265.45 264.91 264.05 263.17 263.52 264.39 265.77 267.93 270.15 272.88 275.61 278.53 281.49 284.29 286.99 289.6 291.99 294.38 296.49 298.6 300.52 302.36 303.88 305.01 306.06 306.67 307.28 308.13 309.02 310.15 311.43 312.54 313.31 314.08 314.81 315.56 316.24 316.9 317.64 318.45 319.41 320.9 322.38 324.03 325.68 328.54 332 335.46 338.91 342.26 344.82 347.37 349.71 352.01 354.21 356.37 358.19 359.15 360.1 360.38 360.67 360.37 359.84 359.1 358.1 357.01 355.46 353.9 351.8 349.64 347.4 345.1 342.8 340.48 338.13 335.37 332.62 330.6 328.8 328.07 328.42 329.18 331.37 333.57 336.39 339.24 341.69 343.95 346.24 348.58 350.96 353.65 356.34 358.87 361.37 363.83 366.26 368.68 371.08 373.47 375.87 378.27 380.57 382.83 385.07 387.28 389.5 391.8 394.1 396.28 398.43 400.43 402.31 404.14 405.9 407.72 410.65 413.56 415.69 417.56 418.96 419.86 420.78 421.84 422.88 423.27 423.6 424.06 424.59 425.05 425.39 425.73 426.22 426.7 427.12 427.51 427.88 428.2 428.49 428.7 428.89 428.37 427.84 426.52 424.88 422.91 420.5 418.09 415.75 413.41 411.43 409.53 408.06 406.91
277.81 277.44 276.93 276.41 275.86 275.3 274.47 273.64 272.52 271.31 270.28 269.41 268.59 267.89 267.19 266.21 265.21 265 265.17 265.97 267.83 269.77 272.5 275.24 278.26 281.33 284.27 287.08 289.83 292.43 295.03 297.23 299.42 301.48 303.49 305.25 306.69 308.01 308.54 309.07 310.02 311.05 312.42 314.02 315.41 316.33 317.26 318.14 319.03 319.82 320.59 321.39 322.24 323.2 324.62 326.03 327.47 328.91 331.61 334.99 338.4 341.84 345.21 347.77 350.34 352.64 354.89 357.04 359.1 360.85 361.68 362.51 362.96 363.41 363.23 362.78 362.08 361.06 359.97 358.41 356.85 354.84 352.77 350.59 348.35 346.06 343.69 341.31 338.62 335.93 333.87 332.01 331.18 331.51 332.19 334.36 336.54 339.19 341.87 344.3 346.59 348.92 351.33 353.75 356.31 358.86 361.35 363.83 366.29 368.74 371.17 373.54 375.92 378.31 380.7 382.94 385.1 387.23 389.32 391.43 393.7 395.97 398.08 400.16 401.96 403.55 405.26 407.32 409.41 412.19 414.95 416.87 418.47 419.61 420.2 420.79 421.48 422.15 422.33 422.45 422.7 423.03 423.29 423.42 423.56 423.88 424.19 424.38 424.54 424.57 424.46 424.34 424.18 424.01 423.56 423.09 421.89 420.34 418.38 415.82 413.3 410.98 408.68 406.93 405.29 403.98 402.92
280.52 280.02 279.32 278.68 278.18 277.67 276.85 276.03 274.97 273.83 272.85 272.04 271.23 270.4 269.56 268.5 267.4 266.81 266.49 266.83 268.34 269.89 272.39 274.85 277.87 281.03 284.08 287.03 289.94 292.68 295.43 297.76 300.08 302.24 304.32 306.22 307.85 309.38 310.18 311 312.09 313.24 314.7 316.4 317.94 319.12 320.31 321.29 322.27 323.23 324.18 325.13 326.07 327.09 328.52 329.94 331.28 332.59 335.09 338.29 341.56 344.98 348.34 350.95 353.56 355.84 358.03 360.05 361.89 363.46 364.14 364.81 365.45 366.1 366.05 365.68 365.04 364.02 362.93 361.36 359.8 357.88 355.89 353.79 351.59 349.33 346.91 344.49 341.86 339.24 337.14 335.23 334.3 334.59 335.2 337.35 339.51 341.99 344.52 346.91 349.23 351.6 354.08 356.55 358.97 361.39 363.84 366.3 368.76 371.22 373.66 376.01 378.37 380.75 383.13 385.3 387.37 389.4 391.37 393.36 395.59 397.82 399.84 401.82 403.45 404.81 406.44 408.8 411.18 413.68 416.16 417.76 419 419.82 420.11 420.4 420.75 421.08 421.06 420.98 421.01 421.11 421.14 421.05 420.96 421.05 421.12 421.02 420.86 420.46 419.81 419.15 418.56 417.94 417.36 416.78 415.73 414.43 412.84 410.75 408.69 406.72 404.77 403.13 401.56 400.21 399.03
283.09 282.66 282.06 281.45 280.82 280.18 279.38 278.59 277.57 276.46 275.52 274.78 274.02 273.11 272.2 271.07 269.92 269.17 268.69 268.69 269.65 270.64 272.56 274.45 277.37 280.61 283.79 286.91 289.98 292.84 295.71 298.21 300.7 302.95 305.09 307.11 308.92 310.66 311.78 312.92 314.16 315.43 316.98 318.76 320.45 321.89 323.35 324.43 325.51 326.63 327.77 328.86 329.89 330.98 332.42 333.86 335.09 336.29 338.57 341.6 344.73 348.11 351.46 354.12 356.78 359.04 361.18 363.07 364.7 366.09 366.61 367.12 367.93 368.77 368.87 368.57 368.01 366.97 365.89 364.32 362.75 360.91 359.01 356.98 354.82 352.58 350.09 347.6 345.05 342.51 340.4 338.48 337.48 337.75 338.29 340.43 342.56 344.95 347.39 349.76 352.08 354.45 356.92 359.39 361.7 364 366.4 368.83 371.26 373.69 376.1 378.4 380.69 382.98 385.26 387.38 389.4 391.36 393.18 395.01 397.09 399.16 401.05 402.89 404.58 406.14 407.96 410.53 413.12 415.05 416.92 418.02 418.76 419.23 419.33 419.43 419.52 419.59 419.43 419.23 419.06 418.92 418.72 418.43 418.13 417.99 417.83 417.44 416.95 416.14 414.95 413.78 412.76 411.72 411.03 410.36 409.49 408.49 407.29 405.66 404.06 402.45 400.85 399.33 397.83 396.44 395.15
285.65 285.29 284.81 284.25 283.47 282.68 281.91 281.14 280.16 279.08 278.18 277.52 276.82 275.83 274.84 273.65 272.43 271.55 270.9 270.58 271 271.42 272.77 274.08 276.88 280.19 283.49 286.78 290.01 293 295.99 298.66 301.3 303.66 305.86 307.98 309.97 311.93 313.37 314.82 316.22 317.62 319.26 321.13 322.96 324.65 326.35 327.54 328.72 330 331.32 332.57 333.7 334.88 336.35 337.83 339.02 340.16 342.25 345.05 347.97 351.24 354.49 357.07 359.65 361.86 363.94 365.75 367.25 368.63 369.52 370.44 371.33 372.21 372.25 371.74 371.05 370.01 368.94 367.41 365.88 364.05 362.14 360.1 357.92 355.64 353.03 350.41 348.01 345.63 343.63 341.81 340.81 341.08 341.55 343.65 345.75 348.12 350.54 352.88 355.15 357.46 359.85 362.24 364.46 366.67 369 371.38 373.77 376.17 378.53 380.76 382.98 385.17 387.35 389.42 391.42 393.32 394.99 396.67 398.6 400.52 402.27 403.97 405.7 407.47 409.46 412.26 415.06 416.45 417.72 418.31 418.54 418.64 418.56 418.47 418.3 418.12 417.82 417.48 417.12 416.74 416.32 415.82 415.32 414.94 414.55 413.87 413.06 411.85 410.12 408.42 406.99 405.53 404.7 403.95 403.23 402.54 401.7 400.55 399.42 398.15 396.9 395.51 394.07 392.64 391.2
288.21 287.92 287.55 287.06 286.13 285.19 284.43 283.69 282.75 281.72 280.87 280.28 279.63 278.57 277.52 276.31 275.08 274.12 273.38 272.84 272.81 272.76 273.6 274.42 276.91 280.03 283.23 286.54 289.81 292.94 296.07 298.91 301.72 304.27 306.66 309.01 311.26 313.49 315.16 316.83 318.39 319.91 321.62 323.52 325.39 327.14 328.89 330.32 331.74 333.22 334.73 336.17 337.48 338.82 340.38 341.95 343.2 344.38 346.26 348.71 351.31 354.36 357.41 359.82 362.21 364.37 366.42 368.21 369.66 371.11 372.6 374.13 375.06 375.9 375.77 374.98 374.1 373.06 372 370.51 369.02 367.2 365.28 363.22 361.02 358.71 355.97 353.22 350.95 348.74 346.85 345.14 344.15 344.41 344.81 346.88 348.94 351.28 353.7 356.01 358.23 360.47 362.78 365.1 367.22 369.34 371.61 373.95 376.29 378.64 380.97 383.12 385.28 387.37 389.44 391.46 393.44 395.28 396.81 398.34 400.11 401.88 403.5 405.05 406.81 408.77 410.9 413.79 416.65 417.51 418.15 418.25 418.04 417.8 417.53 417.24 416.83 416.42 415.95 415.46 414.92 414.32 413.68 412.96 412.22 411.55 410.87 409.89 408.76 407.34 405.5 403.71 402.22 400.73 399.92 399.23 398.56 397.9 397.13 396.13 395.14 393.98 392.82 391.42 389.93 388.36 386.7
291.14 290.87 290.47 289.99 289.18 288.38 287.58 286.78 285.89 284.95 284.08 283.32 282.52 281.47 280.42 279.3 278.16 277.25 276.53 275.91 275.51 275.1 275.42 275.75 277.63 280.2 283.01 286.21 289.41 292.71 296.02 299.05 302.04 304.83 307.47 310.09 312.6 315.12 316.99 318.86 320.56 322.21 323.98 325.91 327.82 329.62 331.42 333.09 334.75 336.43 338.13 339.76 341.24 342.74 344.4 346.07 347.38 348.6 350.28 352.39 354.66 357.5 360.33 362.58 364.79 366.87 368.9 370.67 372.07 373.55 375.65 377.79 378.79 379.58 379.32 378.24 377.16 376.11 375.05 373.6 372.15 370.35 368.41 366.34 364.12 361.78 358.93 356.09 353.95 351.9 350.12 348.5 347.51 347.79 348.18 350.21 352.24 354.55 356.93 359.2 361.35 363.52 365.73 367.92 369.99 372.04 374.23 376.48 378.75 381.03 383.28 385.33 387.37 389.33 391.26 393.16 395.04 396.85 398.52 400.2 401.99 403.78 405.28 406.65 408.19 409.93 411.74 413.92 416.06 416.58 416.89 416.83 416.56 416.24 415.83 415.41 414.86 414.29 413.69 413.06 412.38 411.62 410.81 409.85 408.88 407.92 406.93 405.67 404.25 402.7 400.95 399.24 397.77 396.31 395.51 394.85 394.15 393.43 392.65 391.76 390.86 389.8 388.73 387.33 385.78 384.09 382.22
294.18 293.89 293.44 292.94 292.28 291.63 290.77 289.88 289.02 288.18 287.31 286.37 285.41 284.37 283.32 282.28 281.24 280.37 279.69 278.99 278.23 277.45 277.27 277.1 278.39 280.4 282.8 285.89 289.01 292.48 295.95 299.18 302.35 305.38 308.27 311.14 313.93 316.74 318.8 320.87 322.72 324.5 326.35 328.3 330.24 332.09 333.95 335.84 337.74 339.64 341.52 343.32 344.96 346.61 348.33 350.05 351.4 352.64 354.19 356.06 358.1 360.71 363.3 365.44 367.54 369.65 371.77 373.69 375.27 376.94 379.26 381.57 382.39 382.85 382.45 381.32 380.22 379.14 378.06 376.6 375.14 373.38 371.5 369.48 367.26 364.98 362.41 359.85 357.7 355.62 353.75 352.03 350.97 351.38 351.85 353.84 355.83 358.04 360.31 362.49 364.56 366.63 368.68 370.72 372.74 374.76 376.86 379.01 381.17 383.36 385.53 387.46 389.38 391.2 392.99 394.77 396.55 398.34 400.2 402.07 403.89 405.7 407.08 408.26 409.58 411.1 412.61 414.07 415.51 415.68 415.64 415.42 415.08 414.68 414.14 413.59 412.88 412.17 411.43 410.67 409.84 408.92 407.95 406.76 405.56 404.3 403.01 401.46 399.76 398.07 396.4 394.76 393.32 391.89 391.09 390.46 389.75 388.96 388.17 387.37 386.58 385.61 384.64 383.24 381.64 379.84 377.72
297.22 296.92 296.4 295.88 295.37 294.87 293.97 292.99 292.14 291.39 290.54 289.42 288.31 287.28 286.24 285.27 284.32 283.51 282.85 282.11 281.09 280.07 279.53 279.03 279.77 281.18 283.08 285.9 288.75 292.3 295.85 299.22 302.55 305.77 308.9 312 315.01 318.02 320.29 322.55 324.57 326.51 328.44 330.36 332.3 334.35 336.42 338.6 340.8 342.85 344.77 346.63 348.38 350.12 351.82 353.51 354.88 356.14 357.73 359.68 361.71 364.04 366.35 368.43 370.5 372.72 375.04 377.23 379.13 381.07 383.27 385.46 385.93 385.94 385.39 384.34 383.27 382.16 381.05 379.59 378.11 376.4 374.59 372.62 370.4 368.17 365.88 363.6 361.46 359.34 357.39 355.57 354.41 354.97 355.54 357.48 359.42 361.53 363.69 365.78 367.77 369.74 371.64 373.53 375.5 377.49 379.5 381.54 383.6 385.7 387.79 389.6 391.41 393.09 394.73 396.39 398.06 399.81 401.87 403.94 405.79 407.63 408.9 409.87 410.98 412.28 413.52 414.26 414.95 414.75 414.37 413.97 413.55 413.05 412.37 411.68 410.84 409.98 409.09 408.18 407.19 406.12 404.98 403.58 402.16 400.66 399.15 397.42 395.55 393.73 392.03 390.34 388.93 387.51 386.53 385.66 384.76 383.83 382.89 381.95 380.99 379.79 378.56 377.03 375.35 373.62 371.83
300.28 299.99 299.45 298.92 298.34 297.76 296.84 295.84 295.04 294.39 293.63 292.56 291.49 290.44 289.39 288.43 287.5 286.69 286.04 285.33 284.34 283.36 282.74 282.17 282.33 282.94 284.09 286.37 288.68 292.2 295.71 299.18 302.65 306.06 309.42 312.75 315.96 319.17 321.66 324.1 326.33 328.44 330.48 332.37 334.3 336.58 338.88 341.34 343.85 346.06 348.02 349.94 351.79 353.64 355.3 356.96 358.36 359.65 361.26 363.3 365.34 367.38 369.4 371.43 373.46 375.78 378.31 380.75 382.98 385.22 387.29 389.35 389.5 389.05 388.33 387.34 386.33 385.19 384.05 382.58 381.08 379.42 377.67 375.75 373.54 371.35 369.33 367.33 365.21 363.07 361.04 359.13 357.9 358.59 359.29 361.15 363.02 365.01 367.05 369.02 370.92 372.79 374.57 376.33 378.23 380.15 382.06 383.99 385.91 387.85 389.77 391.46 393.13 394.91 396.74 398.72 400.88 402.98 404.75 406.49 407.78 409 409.8 410.37 411.02 411.85 412.61 413 413.37 413.09 412.67 412.18 411.64 411.02 410.23 409.44 408.52 407.6 406.55 405.44 404.29 403.1 401.86 400.26 398.66 397.01 395.34 393.5 391.54 389.62 387.79 385.97 384.56 383.16 381.92 380.73 379.59 378.52 377.44 376.33 375.21 373.78 372.32 370.7 369 367.38 365.93
303.35 303.06 302.54 302 301.3 300.58 299.64 298.65 297.9 297.37 296.72 295.69 294.67 293.61 292.54 291.59 290.68 289.87 289.23 288.54 287.59 286.64 285.96 285.31 284.94 284.75 285.12 286.86 288.61 292.09 295.57 299.14 302.75 306.34 309.93 313.49 316.89 320.31 323.01 325.65 328.07 330.37 332.52 334.38 336.29 338.8 341.32 344.07 346.88 349.27 351.26 353.24 355.19 357.13 358.77 360.41 361.82 363.13 364.76 366.86 368.92 370.76 372.59 374.57 376.58 378.95 381.61 384.21 386.64 389.07 390.97 392.85 392.83 392.13 391.3 390.32 389.33 388.26 387.19 385.77 384.3 382.64 380.86 378.99 376.95 374.93 373 371.08 368.97 366.82 364.87 363.11 361.93 362.62 363.31 364.98 366.68 368.47 370.29 372.1 373.92 375.72 377.42 379.12 380.92 382.72 384.53 386.35 388.13 389.84 391.53 393.11 394.67 396.68 398.87 401.34 404.17 406.76 408.01 409.23 409.83 410.31 410.59 410.76 410.99 411.36 411.7 411.75 411.8 411.44 410.97 410.4 409.73 409 408.1 407.2 406.21 405.22 404.02 402.71 401.4 400.1 398.74 396.96 395.17 393.36 391.54 389.59 387.55 385.52 383.56 381.59 380.2 378.81 377.33 375.81 374.42 373.22 372 370.72 369.43 367.79 366.09 364.38 362.65 361.13 360.02
306.42 306.14 305.62 305.09 304.25 303.41 302.45 301.46 300.76 300.34 299.81 298.83 297.85 296.78 295.7 294.74 293.85 293.06 292.43 291.77 290.86 289.96 289.23 288.54 287.82 287.06 286.85 288.08 289.28 292.46 295.59 299.14 302.86 306.61 310.4 314.16 317.73 321.32 324.22 327.04 329.63 332.07 334.43 336.62 338.86 341.65 344.45 347.41 350.42 352.89 354.77 356.65 358.48 360.3 362.02 363.73 365.18 366.49 368.1 370.19 372.27 374.18 376.09 378.05 380.01 382.35 385 387.6 390.09 392.58 394.3 396 395.95 395.18 394.3 393.29 392.28 391.33 390.39 389.02 387.6 385.92 384.08 382.23 380.39 378.56 376.69 374.82 372.73 370.57 368.68 367.08 365.96 366.65 367.34 368.82 370.35 371.94 373.54 375.18 376.92 378.64 380.28 381.92 383.61 385.31 387.01 388.71 390.36 391.84 393.3 394.77 396.22 398.43 400.97 403.92 407.42 410.56 411.3 412.01 411.91 411.65 411.41 411.18 410.98 410.9 410.79 410.53 410.24 409.79 409.28 408.63 407.81 406.96 405.95 404.93 403.86 402.78 401.45 399.97 398.5 397.07 395.6 393.68 391.76 389.83 387.9 385.9 383.82 381.76 379.74 377.71 376.22 374.74 373.13 371.48 369.95 368.59 367.22 365.83 364.43 362.74 360.99 359.29 357.61 356.1 354.95
309.41 309.15 308.71 308.27 307.49 306.71 305.74 304.7 303.9 303.38 302.77 301.9 301.03 299.93 298.82 297.89 297.08 296.36 295.8 295.21 294.33 293.46 292.76 292.11 291.39 290.59 290.15 290.76 291.33 293.6 295.87 299.19 303.01 306.88 310.84 314.77 318.5 322.24 325.34 328.34 331.09 333.67 336.27 338.91 341.58 344.63 347.7 350.84 354.01 356.54 358.31 360.06 361.77 363.48 365.25 367.04 368.53 369.85 371.44 373.53 375.61 377.59 379.58 381.52 383.45 385.75 388.38 391 393.54 396.08 397.65 399.17 399.08 398.23 397.31 396.25 395.23 394.4 393.58 392.28 390.89 389.21 387.29 385.46 383.82 382.19 380.37 378.56 376.49 374.33 372.49 371.04 369.98 370.68 371.36 372.66 374.01 375.39 376.78 378.25 379.88 381.49 383.04 384.58 386.14 387.7 389.26 390.81 392.31 393.61 394.92 396.52 398.15 400.52 403.24 406.09 409.1 411.73 411.88 412.02 411.6 411.08 410.61 410.17 409.77 409.48 409.17 408.78 408.38 407.8 407.13 406.37 405.51 404.6 403.51 402.41 401.25 400.08 398.67 397.13 395.57 393.99 392.37 390.43 388.49 386.5 384.51 382.48 380.41 378.36 376.31 374.25 372.56 370.87 369.17 367.48 365.83 364.26 362.69 361.18 359.67 357.93 356.14 354.42 352.76 351.22 349.96
312.34 312.12 311.8 311.48 310.83 310.19 309.19 308.06 307.13 306.43 305.71 304.96 304.21 303.1 301.94 301.04 300.31 299.66 299.16 298.64 297.8 296.95 296.28 295.67 294.96 294.13 293.49 293.47 293.42 294.78 296.19 299.24 303.14 307.13 311.26 315.37 319.25 323.15 326.44 329.62 332.55 335.26 338.08 341.17 344.29 347.6 350.93 354.26 357.6 360.2 361.84 363.48 365.07 366.66 368.49 370.35 371.88 373.2 374.77 376.85 378.93 380.96 382.99 384.91 386.8 389.02 391.58 394.12 396.57 399.01 400.48 401.87 401.89 401.2 400.41 399.41 398.43 397.56 396.67 395.4 394.05 392.41 390.51 388.71 387.15 385.6 383.88 382.17 380.26 378.28 376.6 375.3 374.28 374.74 375.19 376.27 377.43 378.64 379.88 381.18 382.64 384.08 385.49 386.89 388.29 389.69 391.09 392.48 393.84 395.1 396.35 398.34 400.41 402.91 405.64 408.05 409.89 411.47 411.17 410.84 410.37 409.86 409.35 408.82 408.32 407.89 407.46 406.99 406.5 405.8 404.98 404.12 403.2 402.24 401.08 399.9 398.65 397.37 395.91 394.3 392.65 390.9 389.14 387.18 385.21 383.18 381.11 379.06 377.01 374.95 372.88 370.8 368.9 367.01 365.22 363.48 361.72 359.94 358.16 356.54 354.92 353.12 351.29 349.56 347.92 346.34 344.97
315.28 315.07 314.87 314.68 314.17 313.65 312.65 311.43 310.36 309.49 308.65 308.01 307.38 306.26 305.06 304.18 303.53 302.95 302.52 302.08 301.26 300.44 299.8 299.24 298.55 297.74 297 296.47 295.94 296.57 297.28 299.92 303.65 307.52 311.71 315.89 319.94 324 327.54 330.94 334.12 337.07 340.15 343.58 347.03 350.56 354.1 357.46 360.74 363.37 365.1 366.81 368.35 369.88 371.58 373.32 374.89 376.35 377.99 380.02 382.05 384.07 386.09 387.99 389.86 391.97 394.33 396.66 398.83 400.99 402.49 403.92 404.3 404.06 403.61 402.74 401.86 400.79 399.72 398.45 397.15 395.57 393.73 391.97 390.46 388.95 387.34 385.74 384.02 382.24 380.72 379.57 378.6 378.82 379.04 379.89 380.85 381.89 382.99 384.13 385.4 386.67 387.94 389.2 390.45 391.69 392.93 394.16 395.37 396.58 397.79 400.14 402.64 405.3 408.03 410.07 410.73 411.24 410.47 409.68 409.13 408.65 408.1 407.48 406.87 406.32 405.75 405.19 404.63 403.8 402.84 401.88 400.9 399.89 398.65 397.39 396.04 394.65 393.11 391.44 389.72 387.85 385.97 383.98 381.97 379.9 377.8 375.73 373.68 371.63 369.57 367.52 365.51 363.51 361.63 359.82 357.99 356.14 354.29 352.58 350.87 349.06 347.22 345.47 343.81 342.18 340.68
318.4 318.18 318 317.81 317.34 316.85 315.92 314.78 313.73 312.82 311.94 311.25 310.55 309.58 308.57 307.77 307.14 306.53 305.97 305.41 304.63 303.86 303.29 302.8 302.26 301.67 301.07 300.35 299.61 299.76 299.99 301.88 304.82 308.11 312.21 316.3 320.55 324.8 328.6 332.29 335.75 339 342.35 346.06 349.78 353.51 357.25 360.62 363.78 366.44 368.31 370.14 371.62 373.1 374.68 376.28 377.89 379.5 381.21 383.19 385.17 387.17 389.18 391.08 392.92 394.92 397.09 399.22 401.11 402.99 404.5 405.98 406.68 406.89 406.81 406.06 405.29 404.03 402.77 401.5 400.24 398.72 396.94 395.23 393.76 392.3 390.8 389.31 387.76 386.19 384.84 383.83 382.92 382.91 382.89 383.52 384.29 385.15 386.09 387.07 388.14 389.2 390.31 391.42 392.5 393.58 394.64 395.66 396.69 397.83 398.97 401.3 403.78 406.18 408.5 410.05 410.03 409.97 409.07 408.19 407.58 407.05 406.45 405.77 405.08 404.39 403.7 403.05 402.4 401.49 400.43 399.39 398.34 397.27 395.96 394.64 393.14 391.58 389.98 388.34 386.66 384.85 383.05 380.94 378.82 376.73 374.66 372.58 370.49 368.42 366.44 364.48 362.43 360.36 358.38 356.46 354.55 352.68 350.81 349 347.18 345.32 343.44 341.64 339.92 338.21 336.54
321.73 321.44 321.17 320.9 320.4 319.89 319.07 318.1 317.15 316.24 315.35 314.55 313.74 312.93 312.13 311.41 310.78 310.13 309.43 308.73 308 307.28 306.77 306.36 305.96 305.59 305.16 304.24 303.3 302.98 302.73 303.89 306.03 308.71 312.71 316.71 321.14 325.59 329.66 333.61 337.37 340.91 344.54 348.52 352.51 356.45 360.39 363.78 366.82 369.5 371.5 373.47 374.9 376.32 377.79 379.26 380.88 382.63 384.44 386.37 388.29 390.27 392.26 394.12 395.94 397.82 399.81 401.75 403.42 405.09 406.58 408.03 408.91 409.38 409.53 408.92 408.3 406.95 405.61 404.34 403.11 401.64 399.92 398.25 396.85 395.45 394.03 392.62 391.17 389.7 388.43 387.52 386.67 386.5 386.33 386.73 387.28 387.98 388.85 389.7 390.49 391.27 392.19 393.11 394.08 395.08 395.97 396.73 397.51 398.61 399.7 401.51 403.42 405.18 406.81 407.92 407.89 407.84 407.13 406.44 405.83 405.25 404.61 403.9 403.17 402.37 401.56 400.82 400.09 399.12 398 396.88 395.77 394.64 393.27 391.89 390.24 388.52 386.85 385.24 383.6 381.86 380.12 377.91 375.68 373.57 371.52 369.44 367.31 365.2 363.31 361.43 359.34 357.22 355.15 353.11 351.11 349.23 347.35 345.42 343.5 341.58 339.67 337.82 336.03 334.24 332.42
325.06 324.7 324.35 323.99 323.47 322.93 322.22 321.41 320.57 319.67 318.76 317.85 316.93 316.26 315.67 315.06 314.41 313.73 312.9 312.07 311.37 310.7 310.24 309.92 309.65 309.48 309.21 308.11 307.01 306.32 305.71 306.26 307.73 309.81 313.52 317.19 321.76 326.34 330.64 334.84 338.86 342.64 346.48 350.57 354.66 358.64 362.61 366.03 369.09 371.81 373.82 375.81 377.27 378.74 380.42 382.19 383.95 385.7 387.47 389.37 391.26 393.17 395.09 396.9 398.65 400.45 402.31 404.14 405.8 407.45 408.81 410.09 410.9 411.33 411.55 411.17 410.8 409.52 408.23 407 405.81 404.41 402.74 401.14 399.83 398.52 397.18 395.84 394.47 393.09 391.91 391.11 390.34 390.05 389.75 389.94 390.27 390.82 391.61 392.34 392.86 393.36 394.09 394.82 395.67 396.58 397.32 397.8 398.33 399.39 400.44 401.75 403.09 404.22 405.15 405.8 405.74 405.69 405.18 404.68 404.09 403.46 402.78 402.04 401.27 400.35 399.42 398.6 397.8 396.76 395.56 394.37 393.2 392.02 390.58 389.14 387.36 385.46 383.72 382.14 380.54 378.85 377.16 374.9 372.6 370.48 368.45 366.38 364.25 362.15 360.29 358.43 356.38 354.28 352.19 350.1 348.06 346.11 344.16 342.15 340.13 338.12 336.12 334.18 332.35 330.47 328.38
328.39 328.05 327.66 327.28 326.74 326.18 325.51 324.78 324.01 323.15 322.3 321.43 320.56 319.88 319.26 318.64 318.02 317.37 316.55 315.73 315.04 314.35 313.92 313.63 313.36 313.12 312.82 311.8 310.79 310.08 309.45 309.69 310.68 312.13 315.02 317.86 322.43 327.05 331.53 335.96 340.21 344.2 348.21 352.31 356.41 360.38 364.33 367.83 371.01 373.84 375.86 377.87 379.43 381 382.97 385.1 387.04 388.76 390.5 392.37 394.23 396.08 397.92 399.67 401.38 403.08 404.81 406.52 408.17 409.82 411.04 412.15 412.89 413.29 413.55 413.4 413.27 412.08 410.84 409.66 408.5 407.17 405.57 404.02 402.8 401.58 400.32 399.05 397.77 396.48 395.38 394.69 394.02 393.6 393.18 393.16 393.27 393.66 394.38 395.01 395.24 395.44 395.94 396.47 397.16 397.95 398.54 398.77 399.05 399.96 400.85 401.68 402.48 403.07 403.48 403.77 403.69 403.61 403.2 402.78 402.18 401.51 400.79 400.02 399.22 398.21 397.21 396.26 395.31 394.16 392.86 391.59 390.4 389.22 387.74 386.27 384.44 382.49 380.69 379.07 377.43 375.71 374 371.93 369.83 367.74 365.66 363.59 361.54 359.49 357.54 355.57 353.6 351.64 349.62 347.54 345.45 343.35 341.24 339.12 337 334.86 332.71 330.66 328.76 326.79 324.38
331.71 331.49 331.14 330.79 330.22 329.61 328.93 328.19 327.44 326.67 325.9 325.12 324.35 323.61 322.88 322.21 321.62 321 320.22 319.43 318.72 318.02 317.59 317.35 317.08 316.77 316.42 315.48 314.55 313.85 313.2 313.14 313.66 314.5 316.57 318.59 323.09 327.76 332.41 337.06 341.55 345.75 349.95 354.06 358.16 362.12 366.05 369.63 372.93 375.88 377.9 379.93 381.59 383.25 385.5 387.99 390.13 391.82 393.53 395.37 397.2 398.99 400.76 402.45 404.1 405.73 407.32 408.91 410.54 412.17 413.3 414.28 414.96 415.33 415.6 415.57 415.52 414.41 413.23 412.08 410.94 409.64 408.1 406.59 405.4 404.2 402.97 401.74 400.5 399.27 398.18 397.48 396.77 396.24 395.7 395.52 395.47 395.63 396.04 396.39 396.53 396.65 396.98 397.32 397.84 398.47 398.97 399.18 399.4 399.89 400.36 400.79 401.2 401.52 401.76 401.91 401.78 401.64 401.2 400.74 400.12 399.42 398.69 397.9 397.09 396.02 394.96 393.87 392.76 391.5 390.09 388.74 387.56 386.38 384.89 383.39 381.53 379.52 377.66 375.99 374.32 372.57 370.83 368.94 367.05 365.01 362.88 360.79 358.82 356.84 354.78 352.71 350.82 349 347.05 344.97 342.86 340.6 338.33 336.1 333.87 331.6 329.31 327.13 325.17 323.13 320.4
335.01 334.93 334.61 334.29 333.71 333.06 332.35 331.61 330.88 330.18 329.49 328.81 328.13 327.34 326.5 325.77 325.22 324.64 323.88 323.13 322.41 321.68 321.26 321.06 320.8 320.42 320.02 319.17 318.32 317.62 316.97 316.68 316.76 317.08 318.45 319.79 324.07 328.59 333.29 338.11 342.78 347.17 351.55 355.65 359.75 363.68 367.57 371.17 374.51 377.55 379.7 381.86 383.83 385.8 388.28 391 393.28 394.93 396.59 398.27 399.95 401.7 403.47 405.17 406.81 408.4 409.86 411.32 412.9 414.47 415.61 416.6 417.27 417.58 417.8 417.6 417.41 416.39 415.3 414.19 413.07 411.83 410.36 408.91 407.72 406.53 405.33 404.13 402.96 401.8 400.75 400.01 399.26 398.66 398.05 397.75 397.58 397.53 397.65 397.75 397.82 397.88 398.02 398.17 398.52 399.01 399.4 399.59 399.77 399.84 399.89 399.93 399.95 399.98 400.04 400.05 399.86 399.67 399.21 398.71 398.07 397.34 396.58 395.78 394.96 393.83 392.71 391.48 390.23 388.84 387.33 385.9 384.72 383.54 382.03 380.5 378.61 376.55 374.63 372.92 371.21 369.44 367.67 365.96 364.25 362.28 360.11 358.03 356.14 354.25 352.12 350 348.18 346.46 344.58 342.49 340.34 337.99 335.64 333.34 331.03 328.65 326.21 323.88 321.76 319.57 316.66
338.28 338.3 338.03 337.76 337.21 336.58 335.89 335.14 334.41 333.76 333.11 332.52 331.93 331.14 330.25 329.48 328.9 328.3 327.61 326.92 326.23 325.54 325.11 324.87 324.58 324.15 323.71 322.9 322.09 321.46 320.91 320.54 320.39 320.41 321.38 322.33 325.89 329.74 334.21 339.08 343.85 348.43 352.99 357.08 361.17 365.07 368.92 372.52 375.87 379.01 381.37 383.74 386.08 388.43 391.14 394.03 396.44 398.05 399.65 401.17 402.68 404.4 406.18 407.88 409.52 411.08 412.41 413.73 415.26 416.78 417.92 418.91 419.58 419.84 420 419.65 419.3 418.37 417.37 416.3 415.2 414.01 412.61 411.23 410.04 408.86 407.69 406.53 405.41 404.33 403.32 402.54 401.76 401.08 400.41 399.99 399.7 399.45 399.28 399.11 399.11 399.1 399.08 399.04 399.2 399.52 399.79 399.92 400.03 399.7 399.36 399.05 398.76 398.54 398.42 398.26 397.99 397.7 397.19 396.64 395.95 395.16 394.35 393.5 392.63 391.47 390.3 389.01 387.69 386.24 384.68 383.17 381.9 380.63 379.06 377.47 375.59 373.58 371.71 370.08 368.43 366.67 364.91 363.15 361.39 359.49 357.49 355.54 353.69 351.84 349.77 347.71 345.92 344.22 342.32 340.14 337.94 335.6 333.25 330.89 328.52 326.01 323.4 320.87 318.49 316.07 313.07
341.43 341.52 341.35 341.19 340.74 340.21 339.56 338.8 338.05 337.41 336.77 336.24 335.73 334.97 334.07 333.26 332.61 331.97 331.35 330.73 330.09 329.43 328.98 328.7 328.37 327.88 327.39 326.62 325.86 325.3 324.84 324.41 324.02 323.76 324.33 324.88 327.74 330.93 335.12 340.04 344.91 349.67 354.43 358.51 362.59 366.47 370.27 373.87 377.24 380.45 383.03 385.61 388.31 391.04 393.99 397.06 399.6 401.17 402.73 404.08 405.42 407.11 408.88 410.59 412.23 413.76 414.96 416.16 417.6 419.05 420.16 421.14 421.79 421.99 422.11 421.64 421.19 420.3 419.34 418.29 417.18 415.99 414.61 413.24 412.01 410.78 409.58 408.39 407.25 406.17 405.12 404.24 403.35 402.54 401.74 401.17 400.74 400.35 400.05 399.75 399.62 399.47 399.32 399.17 399.18 399.34 399.44 399.36 399.28 398.86 398.42 398.05 397.71 397.37 397.03 396.66 396.19 395.72 395.13 394.52 393.76 392.87 391.98 391.06 390.14 388.96 387.77 386.48 385.15 383.69 382.08 380.51 379.1 377.69 376.06 374.4 372.56 370.61 368.81 367.25 365.67 363.91 362.16 360.35 358.53 356.7 354.87 353.05 351.23 349.42 347.42 345.42 343.65 341.98 340.07 337.81 335.53 333.2 330.86 328.44 326.01 323.38 320.6 317.87 315.24 312.58 309.48
344.58 344.74 344.67 344.6 344.27 343.83 343.24 342.45 341.69 341.05 340.42 339.96 339.52 338.79 337.88 337.04 336.33 335.63 335.08 334.54 333.94 333.32 332.85 332.53 332.16 331.62 331.07 330.35 329.63 329.14 328.77 328.3 327.7 327.2 327.45 327.69 329.94 332.57 336.44 341.31 346.16 351.02 355.88 359.99 364.1 367.98 371.76 375.37 378.75 382.03 384.77 387.51 390.38 393.26 396.21 399.19 401.71 403.3 404.9 406.41 407.94 409.64 411.39 413.07 414.69 416.2 417.33 418.46 419.66 420.84 421.83 422.73 423.38 423.65 423.85 423.45 423.05 422.14 421.13 420.04 418.89 417.67 416.28 414.88 413.59 412.3 411.05 409.82 408.65 407.56 406.49 405.52 404.54 403.62 402.71 402.04 401.51 401.03 400.66 400.3 400.04 399.77 399.53 399.29 399.17 399.16 399.1 398.82 398.54 398.02 397.48 397.05 396.67 396.21 395.65 395.06 394.41 393.75 393.08 392.41 391.57 390.59 389.61 388.62 387.64 386.45 385.25 383.95 382.61 381.13 379.48 377.84 376.31 374.76 373.06 371.33 369.52 367.64 365.9 364.41 362.91 361.16 359.4 357.55 355.68 353.9 352.24 350.55 348.79 347.02 345.1 343.17 341.43 339.77 337.87 335.58 333.29 330.98 328.66 326.21 323.73 321.03 318.16 315.29 312.47 309.63 306.41
347.69 347.9 347.89 347.88 347.64 347.31 346.81 346.09 345.38 344.74 344.09 343.64 343.21 342.5 341.6 340.76 340.08 339.41 338.94 338.47 337.9 337.3 336.81 336.44 336.02 335.43 334.83 334.13 333.42 332.95 332.62 332.25 331.78 331.37 331.57 331.78 333.6 335.79 339.13 343.47 347.89 352.62 357.33 361.54 365.75 369.65 373.41 377.02 380.41 383.73 386.58 389.44 392.35 395.27 398.13 400.95 403.42 405.1 406.79 408.59 410.4 412.15 413.87 415.54 417.14 418.63 419.7 420.77 421.72 422.65 423.5 424.33 424.97 425.3 425.58 425.24 424.91 423.99 422.92 421.78 420.6 419.35 417.94 416.53 415.18 413.82 412.53 411.26 410.06 408.96 407.86 406.79 405.73 404.71 403.69 402.91 402.29 401.72 401.28 400.85 400.47 400.09 399.74 399.41 399.16 398.99 398.76 398.29 397.8 397.17 396.52 396 395.55 394.97 394.2 393.41 392.6 391.78 391 390.23 389.3 388.24 387.17 386.11 385.05 383.84 382.63 381.33 379.99 378.51 376.83 375.16 373.56 371.97 370.29 368.6 366.83 365.02 363.3 361.8 360.29 358.6 356.91 355.11 353.27 351.51 349.86 348.19 346.47 344.76 342.96 341.17 339.42 337.7 335.82 333.65 331.48 329.17 326.86 324.37 321.84 319.1 316.18 313.24 310.22 307.2 303.8
350.64 350.89 350.86 350.81 350.67 350.5 350.19 349.69 349.17 348.48 347.79 347.28 346.8 346.1 345.24 344.44 343.84 343.25 342.84 342.44 341.9 341.31 340.8 340.37 339.9 339.26 338.61 337.91 337.21 336.76 336.48 336.18 335.84 335.54 335.7 335.87 337.29 339.05 341.84 345.66 349.64 354.22 358.79 363.1 367.39 371.32 375.06 378.67 382.07 385.42 388.39 391.37 394.32 397.27 400.06 402.71 405.12 406.89 408.67 410.75 412.84 414.65 416.35 418 419.58 421.07 422.08 423.09 423.8 424.47 425.18 425.98 426.64 427.01 427.31 426.97 426.6 425.6 424.43 423.2 421.92 420.6 419.15 417.7 416.26 414.82 413.46 412.15 410.89 409.74 408.58 407.43 406.29 405.2 404.12 403.25 402.53 401.86 401.32 400.78 400.29 399.8 399.32 398.84 398.42 398.07 397.67 397.1 396.53 395.83 395.11 394.47 393.87 393.19 392.35 391.5 390.64 389.79 388.87 387.92 386.88 385.76 384.63 383.49 382.35 381.14 379.91 378.62 377.31 375.84 374.15 372.46 370.84 369.23 367.6 365.98 364.27 362.5 360.79 359.24 357.69 356.07 354.44 352.68 350.87 349.13 347.48 345.83 344.16 342.49 340.82 339.15 337.42 335.64 333.77 331.73 329.68 327.37 325.06 322.54 319.95 317.18 314.21 311.19 307.99 304.77 301.2
353.58 353.89 353.83 353.74 353.69 353.67 353.56 353.27 352.96 352.23 351.5 350.93 350.39 349.7 348.87 348.12 347.6 347.08 346.74 346.41 345.9 345.33 344.79 344.3 343.78 343.08 342.39 341.7 341 340.57 340.34 340.11 339.9 339.71 339.84 339.98 341.05 342.42 344.74 348.09 351.64 356.05 360.45 364.78 369.1 373.03 376.74 380.34 383.73 387.08 390.1 393.12 396.04 398.94 401.66 404.2 406.59 408.52 410.47 412.68 414.9 416.7 418.32 419.91 421.45 422.92 423.96 425.01 426.16 427.36 428.34 429.16 429.65 429.37 429.04 428.24 427.42 426.24 424.93 423.59 422.21 420.82 419.4 417.97 416.51 415.04 413.68 412.38 411.12 409.93 408.74 407.57 406.41 405.32 404.25 403.33 402.54 401.79 401.17 400.55 399.97 399.39 398.8 398.19 397.61 397.09 396.55 395.91 395.27 394.5 393.7 392.94 392.2 391.41 390.5 389.59 388.69 387.8 386.74 385.62 384.46 383.28 382.09 380.88 379.66 378.43 377.19 375.92 374.62 373.18 371.47 369.76 368.12 366.49 364.91 363.35 361.7 359.97 358.28 356.68 355.09 353.53 351.98 350.26 348.47 346.75 345.11 343.47 341.84 340.22 338.67 337.13 335.42 333.59 331.72 329.79 327.85 325.57 323.3 320.78 318.18 315.42 312.46 309.45 306.15 302.86 299.16
356.51 356.87 356.81 356.69 356.73 356.86 356.92 356.81 356.67 355.95 355.23 354.64 354.09 353.44 352.69 352.01 351.51 351.02 350.66 350.3 349.81 349.25 348.72 348.23 347.71 346.99 346.28 345.61 344.95 344.58 344.43 344.28 344.11 343.94 344.16 344.38 345.37 346.66 348.68 351.61 354.71 358.73 362.73 366.86 370.98 374.82 378.47 382.02 385.37 388.71 391.7 394.69 397.55 400.35 403 405.5 407.91 410.06 412.22 414.51 416.82 418.61 420.15 421.69 423.21 424.69 425.79 426.89 428.5 430.24 431.49 432.34 432.7 431.76 430.79 429.54 428.27 426.88 425.44 423.99 422.51 421.04 419.64 418.24 416.76 415.27 413.9 412.62 411.35 410.12 408.9 407.71 406.53 405.44 404.37 403.41 402.56 401.73 401.03 400.32 399.65 398.99 398.28 397.54 396.82 396.13 395.44 394.73 394.01 393.17 392.3 391.43 390.53 389.61 388.62 387.63 386.67 385.71 384.51 383.23 381.97 380.73 379.48 378.21 376.93 375.69 374.46 373.21 371.94 370.54 368.88 367.21 365.56 363.91 362.38 360.88 359.29 357.6 355.91 354.25 352.58 351.02 349.47 347.87 346.25 344.63 342.96 341.31 339.79 338.27 336.69 335.1 333.4 331.62 329.8 327.88 325.96 323.82 321.69 319.26 316.72 314.03 311.16 308.23 304.96 301.69 297.86
359.42 359.81 359.81 359.75 359.87 360.12 360.29 360.27 360.23 359.62 359.02 358.46 357.92 357.34 356.71 356.1 355.57 355.04 354.6 354.16 353.66 353.14 352.63 352.15 351.65 350.92 350.19 349.55 348.93 348.6 348.54 348.46 348.32 348.18 348.47 348.77 349.7 350.9 352.65 355.15 357.8 361.43 365.03 368.94 372.88 376.61 380.2 383.7 387.02 390.33 393.3 396.27 399.05 401.77 404.35 406.8 409.22 411.59 413.96 416.34 418.73 420.53 421.99 423.47 424.97 426.45 427.61 428.77 430.81 433.1 434.65 435.52 435.78 434.19 432.54 430.8 429.05 427.41 425.82 424.23 422.63 421.06 419.63 418.2 416.7 415.19 413.79 412.46 411.14 409.87 408.61 407.4 406.19 405.05 403.92 402.88 401.92 400.98 400.15 399.31 398.53 397.75 396.91 396.05 395.21 394.4 393.58 392.78 391.97 391.07 390.14 389.21 388.28 387.31 386.27 385.22 384.15 383.07 381.82 380.5 379.2 377.95 376.7 375.41 374.12 372.91 371.7 370.48 369.26 367.94 366.37 364.81 363.13 361.44 359.94 358.5 356.95 355.29 353.61 351.86 350.1 348.52 346.95 345.48 344.05 342.54 340.84 339.17 337.73 336.3 334.71 333.07 331.38 329.65 327.88 325.96 324.05 322.06 320.08 317.74 315.26 312.65 309.86 307.01 303.76 300.52 296.56
362.32 362.74 362.81 362.81 363.01 363.38 363.66 363.72 363.78 363.29 362.8 362.28 361.76 361.23 360.72 360.2 359.63 359.06 358.54 358.02 357.51 357.02 356.54 356.08 355.6 354.85 354.11 353.49 352.9 352.62 352.64 352.64 352.53 352.41 352.77 353.16 354.04 355.14 356.64 358.73 360.95 364.19 367.41 371.09 374.83 378.46 381.98 385.43 388.7 391.96 394.88 397.8 400.5 403.1 405.61 408.02 410.43 412.9 415.36 417.72 420.06 421.89 423.42 424.96 426.5 428.06 429.85 431.68 434.29 437.14 438.39 437.97 437.05 434.56 432.04 430.24 428.48 426.8 425.16 423.52 421.88 420.25 418.74 417.23 415.81 414.42 413.01 411.6 410.23 408.98 407.74 406.56 405.39 404.2 403 401.87 400.84 399.82 398.89 397.95 397.07 396.19 395.28 394.34 393.41 392.52 391.62 390.74 389.86 388.92 387.96 387 386.03 385.03 383.92 382.82 381.63 380.44 379.13 377.76 376.44 375.18 373.91 372.62 371.32 370.12 368.94 367.76 366.58 365.32 363.87 362.41 360.7 358.98 357.5 356.11 354.62 352.98 351.32 349.47 347.62 346.01 344.44 343.07 341.84 340.45 338.73 337.02 335.68 334.34 332.73 331.04 329.35 327.68 325.96 324.06 322.17 320.32 318.48 316.26 313.87 311.36 308.66 305.9 302.69 299.49 295.53
365.23 365.67 365.8 365.86 366.15 366.62 367 367.11 367.22 366.83 366.43 365.94 365.42 364.92 364.47 364 363.46 362.93 362.4 361.86 361.37 360.91 360.47 360.06 359.65 358.88 358.11 357.52 357 356.74 356.75 356.74 356.68 356.62 356.97 357.35 358.18 359.25 360.62 362.51 364.48 367.32 370.14 373.52 377.02 380.47 383.9 387.26 390.43 393.59 396.44 399.27 401.85 404.33 406.76 409.16 411.57 414.04 416.51 418.8 421.05 422.97 424.65 426.32 427.94 429.59 432.16 434.78 437.95 441.32 442.26 440.44 438.28 434.95 431.57 429.68 427.91 426.19 424.51 422.82 421.13 419.45 417.86 416.27 414.92 413.63 412.24 410.74 409.31 408.09 406.87 405.72 404.58 403.35 402.08 400.87 399.76 398.66 397.63 396.59 395.62 394.64 393.65 392.63 391.62 390.64 389.65 388.7 387.75 386.77 385.78 384.78 383.78 382.74 381.58 380.42 379.12 377.81 376.45 375.05 373.71 372.45 371.18 369.87 368.56 367.38 366.23 365.07 363.91 362.7 361.36 360.03 358.34 356.66 355.2 353.84 352.36 350.73 349.07 347.28 345.5 343.91 342.34 340.97 339.74 338.39 336.81 335.25 333.89 332.52 330.9 329.19 327.52 325.91 324.25 322.41 320.56 318.81 317.06 315.01 312.81 310.45 307.82 305.14 301.96 298.77 294.99
367.96 368.33 368.61 368.86 369.26 369.78 370.2 370.24 370.29 369.99 369.68 369.23 368.72 368.24 367.8 367.36 366.99 366.62 366.16 365.68 365.24 364.82 364.43 364.09 363.75 362.95 362.14 361.59 361.14 360.88 360.85 360.82 360.82 360.82 361.16 361.53 362.32 363.35 364.61 366.31 368.04 370.48 372.9 375.97 379.21 382.5 385.83 389.1 392.17 395.23 398 400.74 403.22 405.56 407.92 410.3 412.7 415.18 417.66 419.88 422.05 424.03 425.88 427.69 429.38 431.08 434.44 437.84 441.58 445.47 446.2 442.99 439.56 435.38 431.16 429.12 427.34 425.59 423.84 422.08 420.32 418.56 416.89 415.22 413.91 412.7 411.3 409.72 408.21 406.97 405.73 404.52 403.3 401.99 400.62 399.33 398.16 396.99 395.85 394.71 393.64 392.58 391.52 390.44 389.38 388.34 387.31 386.34 385.38 384.39 383.38 382.36 381.31 380.24 379.05 377.86 376.54 375.21 373.87 372.51 371.19 369.93 368.67 367.31 365.95 364.77 363.64 362.48 361.28 360.07 358.87 357.67 356.08 354.48 353.03 351.66 350.17 348.51 346.85 345.2 343.55 341.98 340.42 338.99 337.66 336.31 334.93 333.56 332.14 330.73 329.08 327.35 325.7 324.14 322.54 320.75 318.95 317.29 315.63 313.76 311.74 309.55 306.98 304.39 301.22 298.06 294.45
370.71 371 371.41 371.85 372.37 372.94 373.4 373.38 373.36 373.15 372.92 372.52 372.03 371.55 371.12 370.71 370.5 370.3 369.92 369.5 369.1 368.72 368.37 368.1 367.83 367.02 366.18 365.66 365.27 365.02 364.95 364.9 364.96 365.02 365.35 365.72 366.46 367.46 368.61 370.11 371.62 373.66 375.69 378.47 381.48 384.59 387.8 390.96 393.92 396.88 399.56 402.21 404.58 406.81 409.07 411.4 413.73 416.18 418.62 420.76 422.82 424.82 426.77 428.76 430.9 433.07 436.84 440.65 443.73 446.42 446.16 441.94 437.71 433.7 429.71 427.67 425.92 424.14 422.34 420.53 418.68 416.85 415.27 413.7 412.4 411.19 409.8 408.19 406.65 405.36 404.06 402.69 401.32 399.92 398.51 397.19 396.03 394.87 393.66 392.46 391.33 390.22 389.12 388.03 386.95 385.9 384.86 383.9 382.94 381.96 380.95 379.92 378.83 377.73 376.52 375.3 373.97 372.62 371.29 369.97 368.67 367.42 366.16 364.76 363.35 362.17 361.06 359.89 358.65 357.44 356.36 355.29 353.81 352.29 350.86 349.48 347.98 346.3 344.63 343.11 341.59 340.05 338.5 337.02 335.6 334.23 333.04 331.86 330.4 328.94 327.27 325.52 323.87 322.37 320.83 319.09 317.34 315.76 314.21 312.49 310.67 308.63 306.15 303.65 300.55 297.47 294.05
373.45 373.68 374.19 374.83 375.47 376.1 376.62 376.56 376.49 376.35 376.2 375.84 375.36 374.92 374.55 374.2 374.11 374.02 373.7 373.32 372.96 372.61 372.28 371.98 371.68 370.91 370.13 369.63 369.26 369 368.88 368.79 368.89 368.99 369.28 369.6 370.29 371.24 372.33 373.72 375.11 377.05 378.98 381.53 384.28 387.1 390 392.87 395.73 398.58 401.13 403.63 405.92 408.08 410.24 412.42 414.6 416.99 419.38 421.44 423.41 425.4 427.42 429.62 432.43 435.28 439.29 443.38 445.48 446.54 445.17 440.19 435.33 431.73 428.14 426.15 424.47 422.69 420.84 418.97 417.05 415.13 413.65 412.17 410.89 409.69 408.29 406.67 405.09 403.74 402.39 400.88 399.34 397.85 396.4 395.05 393.9 392.75 391.48 390.21 389.03 387.87 386.73 385.62 384.52 383.46 382.4 381.45 380.51 379.53 378.53 377.48 376.35 375.22 373.98 372.75 371.4 370.02 368.7 367.42 366.14 364.88 363.62 362.18 360.74 359.55 358.45 357.27 356.02 354.82 353.83 352.83 351.45 350.03 348.65 347.29 345.83 344.17 342.53 341.06 339.58 338.05 336.5 335 333.54 332.14 330.98 329.81 328.48 327.15 325.56 323.84 322.2 320.68 319.15 317.59 316.03 314.51 312.98 311.33 309.58 307.66 305.34 303.01 300.17 297.35 294.14
375.86 376.44 377.14 377.88 378.62 379.38 380.03 380.01 380 379.83 379.63 379.27 378.81 378.43 378.23 378.04 377.94 377.83 377.53 377.15 376.8 376.48 376.14 375.74 375.34 374.68 374.01 373.54 373.18 372.9 372.75 372.62 372.75 372.89 373.16 373.45 374.08 375 376.02 377.32 378.62 380.45 382.28 384.59 387.1 389.64 392.21 394.79 397.54 400.28 402.7 405.06 407.26 409.35 411.42 413.44 415.48 417.81 420.14 422.13 423.99 425.97 428.07 430.45 433.93 437.45 441.73 446.09 447.32 446.74 444.23 438.48 432.92 429.73 426.55 424.64 423.02 421.25 419.35 417.42 415.43 413.43 412.01 410.61 409.33 408.1 406.67 404.99 403.35 401.91 400.47 398.82 397.15 395.57 394.06 392.65 391.47 390.28 388.97 387.66 386.45 385.26 384.1 382.95 381.81 380.75 379.69 378.72 377.76 376.77 375.77 374.72 373.6 372.46 371.19 369.93 368.59 367.24 365.92 364.62 363.33 362.08 360.83 359.43 358.03 356.84 355.72 354.59 353.42 352.28 351.24 350.2 348.94 347.65 346.37 345.09 343.72 342.14 340.58 339.06 337.54 336 334.45 332.94 331.47 330.06 328.85 327.64 326.49 325.36 323.87 322.19 320.56 319 317.45 316.08 314.72 313.25 311.75 310.16 308.49 306.68 304.52 302.36 299.79 297.21 294.22
378.2 379.2 380.09 380.92 381.77 382.64 383.43 383.46 383.5 383.31 383.06 382.7 382.26 381.93 381.9 381.88 381.76 381.65 381.35 380.99 380.65 380.34 380 379.5 379 378.44 377.88 377.45 377.1 376.81 376.61 376.44 376.62 376.8 377.04 377.29 377.87 378.76 379.73 380.93 382.13 383.85 385.58 387.68 389.94 392.19 394.45 396.74 399.37 401.98 404.26 406.48 408.57 410.56 412.52 414.4 416.27 418.51 420.73 422.65 424.45 426.38 428.46 430.85 434.79 438.75 442.28 445.67 445.73 443.71 440.51 435.16 430.01 427.18 424.37 422.5 420.88 419.15 417.32 415.47 413.52 411.57 410.11 408.66 407.24 405.81 404.25 402.51 400.78 399.27 397.76 396.1 394.43 392.82 391.27 389.81 388.58 387.35 386.07 384.79 383.6 382.44 381.27 380.08 378.92 377.88 376.84 375.86 374.88 373.9 372.92 371.89 370.78 369.65 368.37 367.08 365.77 364.45 363.13 361.82 360.53 359.28 358.03 356.68 355.32 354.12 353 351.9 350.82 349.74 348.65 347.57 346.42 345.26 344.08 342.88 341.6 340.11 338.62 337.06 335.49 333.95 332.41 330.89 329.41 327.98 326.72 325.47 324.5 323.56 322.18 320.54 318.92 317.32 315.75 314.57 313.4 311.99 310.52 308.98 307.39 305.7 303.69 301.69 299.37 297.04 294.26
380.52 381.93 383.03 383.95 384.9 385.9 386.82 386.91 387.01 386.83 386.59 386.29 385.91 385.65 385.75 385.83 385.69 385.53 385.19 384.75 384.37 384.09 383.77 383.21 382.65 382.16 381.68 381.29 380.97 380.67 380.44 380.22 380.41 380.6 380.83 381.06 381.53 382.24 383.03 384.17 385.31 386.86 388.43 390.39 392.56 394.71 396.82 398.94 401.29 403.63 405.73 407.78 409.74 411.61 413.44 415.18 416.9 418.98 421.05 422.93 424.74 426.62 428.57 430.86 435.13 439.42 441.63 443.45 442.33 439.18 435.59 431.19 426.92 424.47 422.04 420.24 418.64 416.97 415.24 413.48 411.6 409.71 408.2 406.71 405.15 403.53 401.84 400.02 398.23 396.64 395.05 393.39 391.71 390.08 388.49 386.98 385.7 384.42 383.16 381.91 380.75 379.62 378.45 377.22 376.02 375.01 373.99 373 372.01 371.03 370.07 369.06 367.96 366.85 365.55 364.24 362.94 361.65 360.35 359.02 357.72 356.48 355.24 353.92 352.61 351.42 350.28 349.2 348.19 347.19 346.08 344.98 343.93 342.89 341.81 340.7 339.51 338.14 336.78 335.24 333.71 332.2 330.7 329.22 327.77 326.33 325 323.66 322.65 321.67 320.38 318.91 317.41 315.85 314.31 313.11 311.9 310.52 309.1 307.65 306.19 304.65 302.8 300.96 298.81 296.65 294.14
382.53 384.2 385.58 386.78 387.98 389.12 390.23 390.64 391.07 391.26 391.39 391.3 390.96 390.66 390.47 390.25 389.95 389.63 389.07 388.38 387.87 387.65 387.39 386.83 386.28 385.83 385.41 385.07 384.78 384.51 384.25 383.98 384.17 384.37 384.58 384.8 385.16 385.67 386.27 387.36 388.46 389.84 391.26 393.1 395.2 397.25 399.2 401.16 403.23 405.28 407.21 409.1 410.91 412.66 414.36 415.96 417.55 419.45 421.37 423.21 425.03 426.86 428.7 430.86 435.45 440.06 441.07 441.32 439 434.7 430.61 427.18 423.82 421.74 419.69 417.98 416.39 414.79 413.16 411.5 409.67 407.85 406.3 404.77 403.07 401.26 399.42 397.52 395.63 393.95 392.26 390.56 388.86 387.2 385.56 384 382.67 381.33 380.09 378.87 377.72 376.61 375.45 374.23 373.04 372.04 371.04 370.05 369.06 368.09 367.11 366.1 365.03 363.96 362.72 361.49 360.2 358.88 357.57 356.29 355.02 353.8 352.57 351.3 350.03 348.79 347.56 346.44 345.51 344.58 343.54 342.5 341.53 340.58 339.59 338.56 337.48 336.29 335.1 333.66 332.22 330.77 329.32 327.88 326.44 325 323.53 322.06 320.88 319.74 318.53 317.27 315.94 314.43 312.93 311.66 310.38 309.03 307.66 306.31 304.98 303.6 301.91 300.23 298.25 296.26 293.99
384.46 386.35 388.03 389.57 391.04 392.34 393.62 394.35 395.1 395.66 396.18 396.31 396.02 395.69 395.2 394.69 394.22 393.74 392.97 392.02 391.36 391.2 391.01 390.45 389.9 389.5 389.14 388.84 388.6 388.35 388.05 387.76 387.94 388.13 388.34 388.55 388.8 389.1 389.5 390.55 391.6 392.84 394.1 395.81 397.83 399.79 401.59 403.39 405.18 406.95 408.69 410.41 412.08 413.69 415.26 416.72 418.17 419.92 421.7 423.43 425.13 426.77 428.35 430.14 434.13 438.03 438.13 437.37 434.71 430.46 426.64 423.9 421.2 419.36 417.55 415.91 414.33 412.71 411.01 409.29 407.46 405.63 403.95 402.29 400.48 398.56 396.61 394.61 392.61 390.81 389.01 387.25 385.49 383.81 382.2 380.65 379.29 377.93 376.73 375.54 374.43 373.36 372.26 371.1 369.97 368.99 368.01 367.04 366.08 365.09 364.1 363.09 362.06 361.03 359.89 358.76 357.47 356.11 354.8 353.57 352.33 351.12 349.91 348.68 347.45 346.17 344.85 343.68 342.83 341.98 340.99 340.01 339.13 338.27 337.36 336.41 335.45 334.42 333.41 332.08 330.73 329.34 327.94 326.53 325.11 323.67 322.07 320.47 319.12 317.82 316.66 315.62 314.47 313.01 311.56 310.21 308.86 307.53 306.22 304.96 303.77 302.53 301 299.48 297.68 295.85 293.82
386.37 388.49 390.47 392.34 394.1 395.54 397 398.05 399.12 400.05 400.94 401.32 401 400.6 399.78 398.96 398.3 397.67 396.72 395.59 394.8 394.68 394.53 393.97 393.41 393.02 392.68 392.36 392.05 391.74 391.47 391.2 391.36 391.54 391.73 391.92 392.11 392.32 392.62 393.52 394.41 395.54 396.72 398.27 400.11 401.9 403.57 405.24 406.87 408.49 410.05 411.59 413.09 414.56 416.01 417.35 418.69 420.34 422.04 423.52 424.86 426.13 427.29 428.52 430.85 433.08 432.76 431.76 429.58 426.32 423.32 421.05 418.81 417.14 415.5 413.91 412.32 410.66 408.86 407.05 405.21 403.36 401.58 399.8 397.88 395.86 393.81 391.71 389.59 387.68 385.77 383.93 382.13 380.42 378.85 377.3 375.92 374.53 373.36 372.2 371.13 370.11 369.06 367.97 366.89 365.93 364.98 364.03 363.08 362.1 361.09 360.08 359.09 358.1 357.06 356.03 354.74 353.35 352.03 350.84 349.64 348.44 347.24 346.05 344.87 343.56 342.14 340.91 340.14 339.36 338.44 337.52 336.7 335.92 335.1 334.23 333.38 332.52 331.67 330.46 329.22 327.91 326.56 325.2 323.83 322.45 320.79 319.14 317.7 316.31 315.09 314.03 312.88 311.47 310.06 308.7 307.36 306 304.65 303.42 302.37 301.29 299.89 298.51 296.83 295.11 293.21
387.95 390.11 392.17 394.15 396.03 397.6 399.17 400.27 401.36 402.37 403.35 403.85 403.68 403.42 402.62 401.83 401.22 400.64 399.82 398.84 398.13 398 397.85 397.28 396.7 396.3 395.96 395.55 395.08 394.67 394.51 394.37 394.53 394.73 394.91 395.09 395.27 395.46 395.69 396.42 397.13 398.18 399.3 400.71 402.36 403.99 405.54 407.09 408.57 410.04 411.43 412.77 414.11 415.44 416.76 417.99 419.21 420.77 422.38 423.63 424.61 425.51 426.26 426.98 427.65 428.23 427.41 426.16 424.39 422.12 419.97 418.17 416.39 414.9 413.44 411.9 410.32 408.61 406.71 404.81 402.96 401.1 399.21 397.31 395.29 393.17 391.02 388.81 386.59 384.56 382.52 380.62 378.76 377.03 375.46 373.92 372.53 371.14 369.99 368.88 367.84 366.87 365.87 364.84 363.81 362.9 361.99 361.04 360.08 359.08 358.04 357.02 356.04 355.05 354.02 352.99 351.78 350.5 349.26 348.09 346.91 345.65 344.38 343.2 342.04 340.77 339.42 338.23 337.46 336.69 335.84 334.99 334.19 333.42 332.67 331.95 331.24 330.53 329.83 328.79 327.71 326.49 325.18 323.89 322.61 321.32 319.68 318.04 316.53 315.06 313.72 312.49 311.23 309.87 308.5 307.18 305.85 304.47 303.06 301.84 300.95 300.02 298.76 297.52 295.97 294.36 292.59
389.4 391.54 393.64 395.7 397.69 399.42 401.15 402.3 403.43 404.56 405.7 406.38 406.34 406.23 405.46 404.69 404.13 403.6 402.91 402.08 401.46 401.31 401.16 400.58 400 399.58 399.23 398.76 398.13 397.59 397.55 397.53 397.71 397.91 398.09 398.27 398.44 398.6 398.78 399.33 399.87 400.82 401.88 403.16 404.63 406.08 407.52 408.94 410.28 411.6 412.81 413.96 415.13 416.33 417.51 418.61 419.71 421.14 422.61 423.61 424.26 424.82 425.16 425.47 425.01 424.55 423.46 422.14 420.68 419.03 417.41 415.87 414.33 412.92 411.51 409.95 408.29 406.54 404.64 402.73 400.74 398.74 396.7 394.66 392.54 390.36 388.16 385.87 383.57 381.39 379.21 377.25 375.4 373.63 371.97 370.35 369.06 367.76 366.64 365.55 364.56 363.64 362.7 361.71 360.73 359.9 359.07 358.09 357.06 356.02 354.97 353.94 352.94 351.95 350.89 349.82 348.73 347.62 346.5 345.35 344.18 342.84 341.5 340.33 339.19 337.98 336.7 335.55 334.78 334.02 333.23 332.45 331.68 330.92 330.23 329.66 329.1 328.54 327.98 327.11 326.19 325.07 323.81 322.57 321.38 320.19 318.56 316.93 315.37 313.82 312.35 310.96 309.58 308.26 306.95 305.65 304.35 302.94 301.47 300.26 299.51 298.74 297.63 296.52 295.1 293.61 291.97
390.84 392.97 395.1 397.25 399.35 401.23 403.12 404.34 405.5 406.74 408.03 408.89 409 409.03 408.3 407.55 407.02 406.53 405.92 405.21 404.64 404.45 404.26 403.71 403.17 402.77 402.44 401.99 401.38 400.88 400.91 400.93 400.97 400.99 401.06 401.16 401.26 401.35 401.45 401.87 402.27 403.12 404.09 405.23 406.52 407.81 409.09 410.37 411.53 412.67 413.78 414.87 415.96 417.04 418.1 419.08 420.06 421.18 422.32 423.09 423.55 423.88 423.86 423.82 423.27 422.7 421.58 420.22 418.76 417.18 415.61 414.08 412.56 411.11 409.67 408.03 406.27 404.46 402.58 400.7 398.53 396.35 394.17 391.98 389.77 387.54 385.29 382.93 380.56 378.23 375.9 373.88 372.04 370.23 368.48 366.79 365.58 364.38 363.29 362.23 361.28 360.41 359.52 358.58 357.64 356.89 356.14 355.14 354.04 352.96 351.9 350.85 349.85 348.84 347.76 346.66 345.66 344.73 343.74 342.6 341.45 340.04 338.63 337.45 336.34 335.18 333.97 332.86 332.1 331.34 330.62 329.91 329.18 328.45 327.83 327.41 326.99 326.53 326.08 325.34 324.55 323.54 322.36 321.2 320.07 318.94 317.42 315.91 314.4 312.88 311.39 309.94 308.51 307.22 305.92 304.55 303.17 301.73 300.26 298.97 298.03 297.07 296.11 295.15 293.87 292.5 290.94
391.96 394.07 396.21 398.37 400.49 402.4 404.31 405.63 406.89 408.19 409.53 410.51 410.79 411.03 410.49 409.96 409.44 408.92 408.3 407.59 406.99 406.77 406.55 406.25 405.97 405.72 405.48 405.23 404.97 404.74 404.69 404.64 404.35 403.99 403.83 403.83 403.84 403.87 403.89 404.22 404.53 405.28 406.18 407.19 408.33 409.46 410.61 411.75 412.75 413.72 414.74 415.79 416.8 417.76 418.7 419.56 420.4 421.24 422.05 422.59 422.86 422.97 422.59 422.19 421.53 420.86 419.7 418.3 416.85 415.33 413.81 412.3 410.79 409.31 407.83 406.12 404.25 402.37 400.53 398.68 396.33 393.98 391.64 389.3 387 384.73 382.43 379.99 377.55 375.08 372.6 370.51 368.67 366.84 365.01 363.23 362.11 360.98 359.93 358.9 357.99 357.18 356.35 355.44 354.53 353.85 353.18 352.19 351.04 349.95 348.91 347.88 346.85 345.82 344.73 343.63 342.65 341.77 340.81 339.69 338.56 337.2 335.85 334.75 333.74 332.68 331.54 330.48 329.69 328.91 328.26 327.63 326.98 326.33 325.78 325.43 325.06 324.52 323.98 323.31 322.61 321.76 320.77 319.75 318.64 317.52 316.26 315 313.64 312.22 310.79 309.32 307.87 306.54 305.21 303.7 302.15 300.65 299.19 297.8 296.55 295.31 294.51 293.72 292.59 291.36 289.88
392.86 394.99 397.13 399.29 401.42 403.34 405.27 406.72 408.11 409.5 410.9 412.02 412.51 412.99 412.66 412.35 411.86 411.3 410.67 409.96 409.34 409.09 408.83 408.78 408.76 408.67 408.53 408.46 408.54 408.61 408.49 408.36 407.75 407.02 406.61 406.51 406.42 406.38 406.35 406.57 406.8 407.45 408.28 409.17 410.14 411.12 412.13 413.14 413.98 414.79 415.7 416.7 417.65 418.48 419.31 420.03 420.74 421.28 421.78 422.07 422.16 422.08 421.38 420.68 419.93 419.17 417.99 416.59 415.15 413.63 412.11 410.61 409.11 407.57 406.02 404.25 402.31 400.37 398.44 396.51 394.09 391.67 389.25 386.83 384.42 382.04 379.63 377.13 374.63 372.17 369.72 367.54 365.55 363.59 361.74 359.92 358.72 357.52 356.49 355.53 354.68 353.97 353.21 352.29 351.38 350.76 350.18 349.22 348.07 346.99 346 345.01 343.94 342.88 341.78 340.68 339.69 338.77 337.81 336.71 335.62 334.35 333.08 332.08 331.19 330.22 329.14 328.12 327.3 326.48 325.89 325.34 324.77 324.2 323.73 323.44 323.14 322.51 321.88 321.27 320.66 319.96 319.16 318.3 317.2 316.1 315.08 314.08 312.87 311.56 310.18 308.71 307.24 305.87 304.51 302.85 301.14 299.57 298.12 296.64 295.09 293.54 292.91 292.28 291.3 290.2 288.82
393.75 395.9 398.05 400.21 402.35 404.29 406.23 407.81 409.33 410.81 412.27 413.51 414.22 414.93 414.82 414.73 414.28 413.69 413.05 412.32 411.67 411.37 411.06 411.22 411.43 411.56 411.66 411.91 412.41 412.89 412.74 412.59 411.73 410.66 409.92 409.48 409.06 408.82 408.56 408.66 408.77 409.27 409.94 410.68 411.54 412.4 413.32 414.23 414.93 415.59 416.34 417.16 417.94 418.64 419.34 419.89 420.44 420.86 421.24 421.43 421.39 421.21 420.38 419.55 418.7 417.85 416.67 415.3 413.84 412.2 410.56 409.05 407.53 405.9 404.24 402.41 400.43 398.42 396.34 394.25 391.82 389.38 386.9 384.42 381.91 379.38 376.85 374.29 371.72 369.28 366.86 364.59 362.43 360.35 358.48 356.62 355.34 354.06 353.06 352.15 351.38 350.75 350.07 349.15 348.23 347.68 347.17 346.25 345.1 344.02 343.09 342.15 341.04 339.93 338.83 337.73 336.72 335.78 334.8 333.74 332.67 331.49 330.32 329.41 328.63 327.75 326.74 325.76 324.91 324.06 323.52 323.04 322.56 322.08 321.67 321.45 321.2 320.5 319.8 319.24 318.74 318.16 317.51 316.77 315.71 314.66 313.8 312.95 311.86 310.65 309.37 307.95 306.54 305.14 303.75 302.04 300.25 298.59 297.01 295.39 293.66 291.91 291.2 290.49 289.58 288.6 287.38
394.43 396.56 398.69 400.81 402.9 404.82 406.73 408.34 409.87 411.34 412.75 413.98 414.73 415.47 415.53 415.59 415.36 415.02 414.61 414.11 413.64 413.24 412.84 413.12 413.52 414.21 415.11 416.08 417.12 418.13 417.94 417.75 416.63 415.19 413.92 412.8 411.77 411.19 410.6 410.55 410.55 410.87 411.37 411.97 412.76 413.55 414.4 415.24 415.82 416.35 416.94 417.58 418.2 418.78 419.35 419.75 420.14 420.44 420.71 420.79 420.63 420.34 419.39 418.43 417.48 416.54 415.35 414.01 412.54 410.77 409.01 407.48 405.95 404.24 402.47 400.57 398.55 396.48 394.25 392.01 389.55 387.09 384.56 382.01 379.41 376.74 374.07 371.44 368.82 366.39 364 361.65 359.32 357.1 355.21 353.32 351.96 350.61 349.63 348.78 348.07 347.51 346.89 345.98 345.08 344.56 344.08 343.22 342.12 341.1 340.19 339.26 338.16 337.07 335.95 334.82 333.79 332.87 331.92 330.92 329.91 328.87 327.83 327.01 326.28 325.46 324.5 323.55 322.69 321.84 321.3 320.83 320.36 319.9 319.5 319.26 319.02 318.4 317.78 317.32 316.91 316.39 315.74 315.03 314.11 313.19 312.32 311.44 310.45 309.38 308.25 307.01 305.77 304.36 302.94 301.24 299.46 297.68 295.9 294.09 292.23 290.36 289.46 288.61 287.74 286.88 285.85
394.88 397.01 399.11 401.17 403.22 405.11 407.01 408.62 410.16 411.61 412.97 414.2 414.99 415.79 416.05 416.29 416.34 416.29 416.16 415.89 415.61 415.12 414.62 415.02 415.61 416.81 418.52 420.22 421.79 423.38 423.15 422.92 421.55 419.75 417.95 416.16 414.5 413.58 412.65 412.45 412.33 412.49 412.82 413.27 413.99 414.7 415.48 416.25 416.72 417.11 417.54 418.01 418.47 418.93 419.38 419.63 419.86 420.03 420.18 420.14 419.85 419.45 418.37 417.29 416.26 415.23 414.03 412.71 411.23 409.38 407.53 405.97 404.41 402.61 400.72 398.75 396.68 394.55 392.21 389.86 387.41 384.94 382.39 379.79 377.15 374.43 371.72 368.97 366.22 363.65 361.12 358.67 356.31 354.06 352.12 350.18 348.76 347.34 346.34 345.52 344.78 344.15 343.49 342.72 341.97 341.37 340.8 340.03 339.14 338.24 337.3 336.36 335.32 334.3 333.14 331.94 330.89 330.02 329.13 328.19 327.26 326.36 325.47 324.7 324 323.22 322.29 321.37 320.51 319.65 319.1 318.62 318.16 317.72 317.33 317.08 316.83 316.3 315.76 315.39 315.08 314.63 313.97 313.29 312.5 311.72 310.84 309.94 309.02 308.09 307.13 306.07 305.01 303.57 302.14 300.44 298.66 296.78 294.8 292.8 290.81 288.8 287.74 286.73 285.9 285.16 284.31
395.33 397.45 399.54 401.54 403.53 405.41 407.28 408.91 410.45 411.89 413.2 414.42 415.26 416.1 416.56 416.99 417.3 417.55 417.7 417.66 417.59 417 416.39 416.85 417.58 419.21 421.64 423.97 425.95 427.93 427.61 427.24 425.54 423.25 420.95 418.64 416.52 415.4 414.28 413.93 413.68 413.69 413.88 414.2 414.79 415.38 415.99 416.59 416.97 417.28 417.62 417.99 418.33 418.64 418.93 419.04 419.13 419.13 419.09 418.91 418.53 418.07 417.05 416.03 414.98 413.93 412.72 411.38 409.91 408.06 406.21 404.56 402.91 401.01 399.01 396.95 394.8 392.62 390.21 387.8 385.34 382.87 380.3 377.66 374.99 372.26 369.52 366.62 363.71 360.95 358.24 355.69 353.32 351.03 349.04 347.06 345.55 344.07 343.05 342.26 341.5 340.78 340.07 339.45 338.84 338.19 337.53 336.84 336.14 335.38 334.41 333.44 332.48 331.52 330.34 329.07 327.99 327.16 326.33 325.46 324.6 323.84 323.09 322.4 321.73 320.98 320.08 319.18 318.32 317.46 316.9 316.41 315.96 315.54 315.15 314.89 314.63 314.19 313.74 313.44 313.22 312.83 312.17 311.51 310.83 310.14 309.28 308.39 307.54 306.7 305.83 304.88 303.93 302.53 301.13 299.49 297.75 295.9 293.89 291.89 289.86 287.84 286.44 285.09 284.1 283.33 282.52
395.61 397.72 399.78 401.7 403.63 405.46 407.28 408.86 410.33 411.67 412.83 413.91 414.68 415.45 415.91 416.34 416.63 416.85 417 417.03 417.04 416.68 416.33 417 417.94 419.91 422.86 425.63 427.71 429.8 429.52 429.12 427.14 424.39 421.82 419.54 417.41 416.38 415.37 414.93 414.6 414.52 414.64 414.86 415.33 415.8 416.22 416.64 416.96 417.25 417.55 417.85 418.12 418.28 418.42 418.41 418.37 418.22 418 417.69 417.21 416.69 415.73 414.77 413.71 412.62 411.4 410.06 408.59 406.74 404.88 403.15 401.42 399.43 397.3 395.14 392.93 390.69 388.22 385.75 383.28 380.81 378.22 375.54 372.84 370.09 367.33 364.28 361.21 358.27 355.37 352.71 350.32 348.01 345.97 343.93 342.35 340.81 339.76 339 338.23 337.43 336.67 336.2 335.73 335.05 334.32 333.7 333.16 332.52 331.55 330.59 329.66 328.73 327.58 326.33 325.28 324.5 323.72 322.9 322.09 321.38 320.68 320.03 319.41 318.74 317.99 317.24 316.35 315.46 314.87 314.39 313.92 313.47 313.06 312.77 312.47 312.06 311.64 311.32 311.05 310.68 310.15 309.62 308.91 308.2 307.44 306.68 305.89 305.06 304.21 303.28 302.34 301.1 299.85 298.35 296.74 295.02 293.14 291.25 289.24 287.23 285.41 283.58 282.33 281.46 280.63
395.62 397.74 399.8 401.65 403.51 405.29 407.07 408.58 409.97 411.2 412.18 413.11 413.8 414.49 414.95 415.38 415.67 415.87 416.05 416.2 416.34 416.29 416.26 417.14 418.3 420.57 424.05 427.29 429.47 431.66 431.42 430.99 428.77 425.56 422.69 420.43 418.29 417.37 416.45 415.94 415.52 415.35 415.39 415.52 415.88 416.23 416.47 416.7 416.95 417.22 417.48 417.72 417.92 417.93 417.93 417.78 417.62 417.31 416.92 416.46 415.89 415.3 414.4 413.48 412.41 411.29 410.05 408.67 407.19 405.34 403.5 401.69 399.89 397.82 395.61 393.39 391.13 388.84 386.34 383.84 381.35 378.84 376.23 373.53 370.8 368.04 365.27 362.22 359.18 356.17 353.18 350.42 347.96 345.55 343.4 341.25 339.51 337.81 336.63 335.78 334.97 334.26 333.57 333.16 332.75 332.11 331.42 330.8 330.26 329.63 328.75 327.87 326.91 325.93 324.86 323.75 322.79 322.06 321.32 320.51 319.69 318.96 318.25 317.62 317.07 316.51 315.95 315.39 314.45 313.51 312.89 312.4 311.91 311.42 310.97 310.64 310.32 309.93 309.54 309.19 308.87 308.52 308.13 307.72 306.99 306.26 305.6 304.97 304.24 303.42 302.58 301.67 300.75 299.66 298.57 297.2 295.72 294.13 292.38 290.61 288.62 286.63 284.39 282.1 280.56 279.59 278.74
395.63 397.77 399.82 401.61 403.39 405.12 406.85 408.31 409.62 410.73 411.54 412.31 412.93 413.55 414 414.42 414.7 414.88 415.09 415.36 415.63 415.9 416.18 417.26 418.64 421.21 425.12 428.63 430.72 432.79 432.42 431.79 429.33 425.79 422.74 420.56 418.51 417.68 416.87 416.32 415.84 415.6 415.58 415.61 415.82 416.03 416.15 416.27 416.41 416.56 416.7 416.85 416.96 416.9 416.84 416.62 416.38 415.99 415.48 414.94 414.28 413.62 412.65 411.69 410.64 409.58 408.33 406.89 405.38 403.63 401.88 400.05 398.2 396.14 393.94 391.71 389.42 387.1 384.61 382.12 379.56 376.99 374.32 371.59 368.84 366.05 363.26 360.3 357.34 354.3 351.22 348.34 345.76 343.21 340.92 338.63 336.71 334.85 333.52 332.57 331.72 331.08 330.46 330.11 329.76 329.18 328.52 327.91 327.35 326.75 325.94 325.15 324.15 323.14 322.14 321.17 320.31 319.62 318.92 318.11 317.3 316.55 315.82 315.22 314.72 314.26 313.89 313.54 312.56 311.56 310.91 310.41 309.9 309.38 308.88 308.52 308.17 307.8 307.44 307.07 306.7 306.36 306.1 305.83 305.08 304.35 303.77 303.24 302.57 301.76 300.94 300.04 299.15 298.15 297.15 295.91 294.56 293.11 291.49 289.84 287.93 286.01 283.7 281.31 279.59 278.38 277.34
395.57 397.66 399.67 401.34 403.01 404.59 406.16 407.5 408.72 409.75 410.44 411.11 411.64 412.17 412.6 413.01 413.3 413.47 413.66 413.88 414.1 414.38 414.66 415.42 416.38 418.17 421.08 423.79 425.61 427.41 427.23 426.76 424.99 422.37 420.12 418.58 417.11 416.58 416.06 415.65 415.28 415.09 415.07 415.09 415.2 415.31 415.41 415.5 415.55 415.55 415.58 415.66 415.72 415.65 415.58 415.33 415.05 414.6 414.01 413.38 412.66 411.93 410.91 409.89 408.87 407.86 406.63 405.1 403.56 401.91 400.26 398.41 396.52 394.45 392.27 390.03 387.71 385.37 382.88 380.4 377.78 375.13 372.42 369.66 366.88 364.07 361.26 358.38 355.51 352.44 349.26 346.27 343.56 340.88 338.45 336.02 333.93 331.89 330.41 329.36 328.46 327.9 327.35 327.06 326.78 326.24 325.61 325.01 324.45 323.87 323.13 322.4 321.4 320.37 319.45 318.59 317.81 317.14 316.47 315.71 314.96 314.23 313.51 312.92 312.45 312.02 311.69 311.37 310.47 309.56 308.92 308.41 307.92 307.45 306.99 306.54 306.08 305.72 305.38 305.01 304.61 304.26 304.05 303.83 303.23 302.64 302.07 301.5 300.82 300.02 299.21 298.37 297.53 296.51 295.47 294.35 293.18 291.91 290.42 288.92 287.15 285.39 283.26 281.04 279.17 277.59 276.22
395.33 397.31 399.21 400.73 402.25 403.6 404.93 406.16 407.33 408.33 409 409.66 410.12 410.58 411.01 411.44 411.74 411.94 412.12 412.28 412.42 412.71 412.99 413.48 414.03 415.15 417.1 418.95 420.51 422.04 422.02 421.72 420.61 418.91 417.47 416.56 415.7 415.46 415.23 414.98 414.72 414.57 414.57 414.57 414.58 414.59 414.66 414.74 414.69 414.55 414.47 414.47 414.47 414.39 414.32 414.04 413.72 413.21 412.54 411.83 411.03 410.23 409.17 408.1 407.1 406.14 404.92 403.33 401.74 400.18 398.63 396.76 394.84 392.77 390.6 388.37 386.06 383.74 381.27 378.79 376.17 373.5 370.79 368.01 365.22 362.38 359.53 356.7 353.89 350.87 347.74 344.75 341.99 339.26 336.72 334.16 331.91 329.71 328.03 326.8 325.71 325.07 324.43 324.09 323.76 323.22 322.6 322.04 321.58 321.07 320.31 319.55 318.63 317.69 316.83 316.03 315.27 314.61 313.94 313.31 312.7 312.02 311.33 310.74 310.25 309.79 309.41 309.02 308.28 307.53 306.93 306.41 305.94 305.55 305.15 304.58 304.01 303.65 303.33 302.95 302.52 302.16 301.99 301.83 301.37 300.93 300.36 299.75 299.06 298.27 297.48 296.69 295.91 294.87 293.8 292.78 291.8 290.7 289.34 287.98 286.37 284.76 282.81 280.76 278.77 276.83 275.1
395.1 396.96 398.75 400.12 401.49 402.62 403.71 404.81 405.94 406.92 407.57 408.21 408.6 409 409.42 409.86 410.18 410.4 410.59 410.68 410.76 411.03 411.33 411.55 411.71 412.18 413.17 414.14 415.42 416.7 416.85 416.76 416.28 415.48 414.82 414.49 414.18 414.18 414.18 414.03 413.83 413.7 413.67 413.64 413.55 413.46 413.48 413.52 413.4 413.17 413.01 412.97 412.92 412.79 412.66 412.34 411.97 411.43 410.72 409.98 409.12 408.27 407.27 406.26 405.24 404.22 403.01 401.51 400.01 398.46 396.91 395.06 393.15 391.1 388.94 386.77 384.56 382.36 379.89 377.42 374.83 372.2 369.49 366.7 363.88 360.95 358.02 355.21 352.41 349.47 346.44 343.49 340.7 337.91 335.21 332.51 330.07 327.69 325.78 324.33 323.03 322.27 321.51 321.12 320.74 320.2 319.59 319.07 318.7 318.28 317.49 316.71 315.86 315.01 314.21 313.47 312.74 312.07 311.4 310.91 310.42 309.81 309.15 308.56 308.05 307.56 307.13 306.68 306.09 305.48 304.93 304.41 303.96 303.65 303.32 302.64 301.95 301.57 301.27 300.9 300.44 300.06 299.93 299.81 299.51 299.2 298.66 298 297.3 296.52 295.75 295.01 294.26 293.24 292.18 291.25 290.4 289.42 288.17 286.91 285.42 283.93 282.15 280.29 278.33 276.27 274.39
394.78 396.48 398.11 399.31 400.51 401.43 402.3 403.24 404.24 405.12 405.68 406.24 406.58 406.92 407.33 407.77 408.11 408.32 408.51 408.56 408.61 408.78 408.96 409.12 409.28 409.62 410.29 410.97 411.93 412.88 413.13 413.21 413.05 412.68 412.39 412.31 412.25 412.36 412.48 412.4 412.21 412.09 412.07 412.04 411.92 411.8 411.8 411.82 411.7 411.47 411.29 411.25 411.2 411.02 410.83 410.48 410.07 409.52 408.8 408.06 407.16 406.27 405.34 404.41 403.38 402.29 401.09 399.69 398.28 396.74 395.2 393.36 391.45 389.42 387.28 385.15 383.06 380.97 378.51 376.04 373.48 370.89 368.2 365.39 362.54 359.53 356.52 353.71 350.94 348.07 345.13 342.23 339.4 336.56 333.72 330.87 328.24 325.68 323.54 321.86 320.34 319.48 318.61 318.15 317.73 317.18 316.58 316.09 315.81 315.47 314.67 313.86 313.09 312.32 311.6 310.9 310.23 309.58 308.94 308.55 308.17 307.62 306.99 306.41 305.88 305.36 304.94 304.53 304.03 303.51 302.99 302.47 302.03 301.74 301.43 300.73 300.02 299.63 299.33 298.96 298.5 298.11 297.92 297.73 297.46 297.19 296.69 296.08 295.44 294.77 294.09 293.31 292.53 291.65 290.76 289.89 289.01 288.03 286.81 285.59 284.21 282.83 281.24 279.59 277.81 275.88 274.03
394.09 395.54 396.95 397.98 399.01 399.81 400.55 401.32 402.13 402.85 403.31 403.77 404.11 404.45 404.89 405.37 405.75 405.98 406.19 406.25 406.3 406.37 406.43 406.59 406.82 407.11 407.51 407.91 408.51 409.09 409.4 409.65 409.8 409.86 409.96 410.12 410.3 410.53 410.78 410.75 410.59 410.49 410.48 410.45 410.29 410.13 410.11 410.12 410 409.76 409.58 409.53 409.48 409.24 408.99 408.61 408.17 407.61 406.89 406.14 405.2 404.27 403.41 402.56 401.52 400.37 399.16 397.86 396.55 395.02 393.48 391.66 389.76 387.76 385.65 383.57 381.56 379.54 377.11 374.66 372.13 369.56 366.89 364.08 361.26 358.29 355.34 352.56 349.82 347 344.13 341.25 338.4 335.54 332.62 329.7 326.97 324.31 322.02 320.16 318.41 317.25 316.06 315.44 314.88 314.32 313.76 313.27 312.88 312.47 311.72 310.97 310.3 309.65 309 308.36 307.74 307.22 306.7 306.33 305.96 305.46 304.89 304.31 303.73 303.17 302.86 302.55 302.08 301.59 301.09 300.58 300.13 299.83 299.53 298.83 298.13 297.73 297.42 297.04 296.59 296.17 295.91 295.65 295.41 295.18 294.73 294.15 293.58 293.02 292.44 291.62 290.8 290.05 289.34 288.52 287.61 286.64 285.45 284.27 282.99 281.72 280.32 278.88 277.29 275.49 273.69
393.42 394.62 395.79 396.66 397.52 398.19 398.8 399.42 400.03 400.59 400.95 401.3 401.64 401.98 402.44 402.97 403.39 403.64 403.88 403.94 404 403.97 403.91 404.06 404.36 404.61 404.75 404.87 405.1 405.32 405.67 406.08 406.52 407.02 407.51 407.91 408.31 408.66 409.01 409.04 408.89 408.78 408.75 408.7 408.51 408.32 408.26 408.24 408.1 407.87 407.66 407.53 407.39 407.13 406.86 406.46 406 405.43 404.71 403.96 403.07 402.2 401.34 400.48 399.48 398.39 397.25 395.98 394.7 393.17 391.64 389.91 388.13 386.22 384.19 382.15 380.09 378.03 375.66 373.28 370.77 368.19 365.55 362.8 360.04 357.29 354.54 351.8 349.07 346.25 343.37 340.48 337.59 334.7 331.73 328.75 325.94 323.18 320.72 318.65 316.66 315.13 313.59 312.77 312.06 311.46 310.95 310.45 309.97 309.46 308.77 308.07 307.5 306.97 306.41 305.81 305.25 304.85 304.45 304.1 303.76 303.3 302.78 302.22 301.58 300.98 300.76 300.55 300.13 299.67 299.18 298.68 298.23 297.92 297.62 296.93 296.24 295.82 295.51 295.13 294.67 294.24 293.91 293.58 293.36 293.17 292.76 292.22 291.71 291.25 290.77 289.91 289.06 288.43 287.85 287.1 286.18 285.21 284.08 282.95 281.77 280.59 279.34 278.05 276.61 274.92 273.19
392.66 393.6 394.53 395.22 395.9 396.42 396.88 397.33 397.75 398.14 398.41 398.69 398.98 399.28 399.71 400.23 400.64 400.9 401.14 401.25 401.36 401.36 401.33 401.46 401.71 401.94 402.12 402.31 402.6 402.9 403.31 403.77 404.25 404.76 405.25 405.64 406.03 406.47 406.92 407.01 406.87 406.74 406.66 406.58 406.39 406.21 406.12 406.06 405.93 405.73 405.51 405.26 404.99 404.75 404.52 404.14 403.69 403.13 402.41 401.67 400.88 400.1 399.24 398.36 397.41 396.4 395.33 394.09 392.85 391.32 389.79 388.16 386.48 384.69 382.73 380.74 378.63 376.51 374.21 371.89 369.41 366.82 364.2 361.5 358.82 356.27 353.73 351.04 348.31 345.5 342.61 339.71 336.79 333.86 330.83 327.8 324.9 322.06 319.44 317.16 314.92 313.04 311.14 310.11 309.24 308.6 308.14 307.64 307.05 306.46 305.81 305.18 304.71 304.3 303.83 303.28 302.78 302.47 302.16 301.84 301.53 301.12 300.65 300.13 299.51 298.93 298.74 298.56 298.16 297.71 297.25 296.79 296.38 296.07 295.77 295.15 294.53 294.05 293.62 293.19 292.77 292.36 292 291.64 291.39 291.17 290.75 290.21 289.69 289.21 288.73 287.97 287.23 286.62 286.05 285.36 284.55 283.7 282.66 281.63 280.52 279.42 278.24 277.02 275.67 274.1 272.49
391.04 391.85 392.65 393.22 393.78 394.16 394.48 394.78 395.08 395.36 395.61 395.85 396.08 396.3 396.69 397.17 397.58 397.86 398.13 398.34 398.55 398.65 398.73 398.85 399.02 399.21 399.52 399.83 400.22 400.62 401.06 401.52 402 402.5 402.99 403.37 403.75 404.27 404.82 404.98 404.84 404.71 404.58 404.45 404.27 404.1 403.98 403.89 403.75 403.58 403.38 402.99 402.6 402.38 402.18 401.82 401.38 400.83 400.1 399.38 398.68 397.99 397.14 396.24 395.33 394.41 393.42 392.2 390.98 389.47 387.94 386.39 384.84 383.14 381.25 379.32 377.16 374.99 372.75 370.49 368.04 365.46 362.87 360.26 357.65 355.27 352.88 350.25 347.54 344.75 341.88 339 336.08 333.16 330.16 327.17 324.28 321.46 318.8 316.38 313.98 311.8 309.6 308.18 306.9 305.95 305.3 304.66 304.11 303.57 303.09 302.63 302.24 301.89 301.46 300.94 300.45 300.08 299.7 299.46 299.23 298.89 298.47 298.03 297.55 297.1 296.84 296.58 296.16 295.7 295.29 294.92 294.57 294.27 293.97 293.44 292.9 292.33 291.74 291.24 290.87 290.5 290.11 289.72 289.44 289.17 288.74 288.2 287.67 287.17 286.68 286.03 285.39 284.81 284.25 283.62 282.92 282.18 281.24 280.3 279.28 278.25 277.14 275.99 274.73 273.27 271.79
389.43 390.11 390.77 391.22 391.67 391.92 392.08 392.25 392.41 392.57 392.8 393.02 393.18 393.33 393.66 394.12 394.52 394.81 395.11 395.42 395.73 395.94 396.11 396.25 396.33 396.48 396.9 397.34 397.83 398.34 398.81 399.27 399.74 400.24 400.72 401.09 401.46 402.06 402.7 402.92 402.78 402.64 402.46 402.28 402.09 401.89 401.74 401.62 401.47 401.28 401.05 400.62 400.19 399.93 399.69 399.33 398.9 398.38 397.67 396.98 396.34 395.71 394.86 393.96 393.07 392.2 391.27 390.11 388.95 387.53 386.09 384.61 383.11 381.45 379.55 377.63 375.51 373.39 371.2 368.99 366.62 364.12 361.62 359.13 356.65 354.31 351.97 349.4 346.75 344.02 341.19 338.35 335.46 332.58 329.66 326.75 323.93 321.16 318.47 315.91 313.34 310.85 308.34 306.44 304.68 303.36 302.46 301.66 301.17 300.68 300.37 300.07 299.78 299.48 299.1 298.6 298.12 297.68 297.25 297.07 296.93 296.66 296.29 295.92 295.59 295.27 294.94 294.6 294.17 293.7 293.32 293.04 292.76 292.46 292.16 291.72 291.27 290.63 289.88 289.28 288.97 288.65 288.23 287.81 287.48 287.17 286.73 286.19 285.65 285.14 284.62 284.08 283.54 283 282.45 281.88 281.28 280.65 279.79 278.94 278 277.04 276.01 274.92 273.74 272.36 270.97
387.83 388.36 388.87 389.2 389.5 389.62 389.64 389.66 389.7 389.74 389.92 390.1 390.2 390.3 390.58 390.99 391.38 391.68 391.99 392.33 392.68 392.99 393.29 393.48 393.54 393.69 394.23 394.79 395.36 395.93 396.44 396.9 397.38 397.87 398.36 398.82 399.28 399.78 400.27 400.47 400.41 400.32 400.13 399.94 399.67 399.39 399.23 399.13 398.96 398.68 398.4 398.07 397.75 397.42 397.07 396.68 396.28 395.8 395.15 394.5 393.92 393.33 392.51 391.62 390.75 389.93 389.06 387.97 386.89 385.57 384.23 382.82 381.37 379.75 377.85 375.93 373.86 371.79 369.65 367.49 365.19 362.77 360.37 358 355.65 353.35 351.05 348.55 345.95 343.28 340.49 337.69 334.84 331.99 329.15 326.32 323.56 320.85 318.14 315.44 312.73 309.92 307.1 304.73 302.48 300.78 299.64 298.65 298.22 297.79 297.64 297.51 297.3 297.06 296.73 296.26 295.79 295.31 294.83 294.7 294.64 294.44 294.12 293.84 293.65 293.46 293.08 292.71 292.29 291.84 291.5 291.3 291.08 290.75 290.43 290.06 289.68 289.05 288.27 287.64 287.3 286.94 286.43 285.91 285.53 285.19 284.77 284.28 283.79 283.28 282.78 282.3 281.83 281.29 280.71 280.15 279.6 279.02 278.22 277.43 276.57 275.71 274.76 273.74 272.63 271.29 269.95
385.93 386.27 386.61 386.77 386.91 386.94 386.9 386.86 386.81 386.77 386.87 386.95 387.05 387.16 387.41 387.77 388.13 388.45 388.77 389.11 389.45 389.87 390.32 390.62 390.7 390.87 391.54 392.21 392.86 393.5 394.04 394.52 395 395.49 395.98 396.54 397.1 397.5 397.84 398.01 398.03 398.01 397.8 397.59 397.25 396.89 396.72 396.64 396.45 396.09 395.74 395.53 395.31 394.9 394.45 394.04 393.66 393.22 392.62 392.03 391.49 390.96 390.17 389.27 388.43 387.66 386.85 385.84 384.82 383.6 382.36 381.02 379.63 378.06 376.15 374.23 372.21 370.18 368.09 365.99 363.77 361.42 359.09 356.83 354.58 352.32 350.07 347.61 345.06 342.43 339.7 336.96 334.15 331.35 328.57 325.79 323.08 320.43 317.76 315.01 312.26 309.35 306.45 303.89 301.45 299.43 297.91 296.54 295.93 295.3 295.11 294.96 294.78 294.58 294.3 293.87 293.44 293.08 292.72 292.56 292.44 292.26 292.05 291.86 291.75 291.64 291.32 290.98 290.6 290.2 289.89 289.73 289.53 289.15 288.77 288.44 288.13 287.56 286.81 286.17 285.74 285.31 284.67 284.02 283.58 283.21 282.81 282.38 281.94 281.44 280.95 280.53 280.12 279.58 278.98 278.41 277.91 277.39 276.65 275.91 275.14 274.37 273.5 272.56 271.52 270.22 268.93
384.05 384.2 384.35 384.35 384.33 384.26 384.16 384.06 383.93 383.81 383.81 383.81 383.9 384.02 384.24 384.56 384.88 385.21 385.55 385.89 386.22 386.74 387.35 387.76 387.86 388.04 388.83 389.63 390.35 391.06 391.64 392.13 392.62 393.1 393.59 394.25 394.91 395.23 395.41 395.55 395.65 395.68 395.45 395.22 394.81 394.39 394.18 394.08 393.86 393.42 393 392.84 392.67 392.24 391.76 391.35 390.99 390.58 390.01 389.45 388.95 388.46 387.72 386.89 386.11 385.4 384.66 383.65 382.65 381.51 380.36 379.06 377.66 376.11 374.28 372.44 370.43 368.43 366.46 364.51 362.38 360.05 357.75 355.5 353.26 351.07 348.89 346.48 343.95 341.37 338.73 336.08 333.36 330.64 327.89 325.14 322.49 319.93 317.32 314.6 311.88 308.98 306.08 303.42 300.84 298.51 296.51 294.66 293.78 292.88 292.6 292.41 292.24 292.09 291.86 291.47 291.09 290.85 290.61 290.42 290.24 290.08 289.96 289.87 289.85 289.83 289.55 289.26 288.91 288.55 288.28 288.15 287.99 287.55 287.11 286.82 286.57 286.06 285.35 284.7 284.19 283.68 282.91 282.14 281.64 281.23 280.84 280.48 280.1 279.61 279.12 278.75 278.4 277.88 277.24 276.67 276.23 275.76 275.08 274.4 273.71 273.02 272.22 271.33 270.36 269.12 267.88
382.17 382.14 382.1 381.95 381.75 381.57 381.41 381.22 381 380.79 380.7 380.61 380.67 380.78 380.97 381.25 381.55 381.89 382.24 382.57 382.9 383.47 384.18 384.7 384.89 385.16 386.03 386.91 387.68 388.43 389.09 389.68 390.25 390.74 391.23 391.75 392.26 392.55 392.76 392.91 392.98 393 392.82 392.63 392.23 391.8 391.5 391.29 390.99 390.51 390.05 389.84 389.63 389.31 388.95 388.6 388.25 387.86 387.32 386.78 386.32 385.87 385.22 384.48 383.78 383.14 382.47 381.45 380.43 379.38 378.33 377.08 375.65 374.14 372.39 370.64 368.66 366.68 364.82 363.01 360.99 358.69 356.4 354.17 351.94 349.82 347.72 345.35 342.83 340.3 337.75 335.2 332.56 329.92 327.21 324.49 321.89 319.41 316.89 314.19 311.49 308.6 305.71 302.95 300.24 297.62 295.13 292.8 291.64 290.47 290.1 289.87 289.71 289.6 289.42 289.07 288.73 288.61 288.49 288.29 288.06 287.92 287.9 287.9 287.95 288 287.76 287.5 287.21 286.9 286.69 286.61 286.5 285.98 285.45 285.22 285.05 284.61 283.91 283.24 282.63 282.02 281.25 280.49 279.91 279.39 278.96 278.63 278.29 277.84 277.39 276.99 276.6 276.09 275.5 274.97 274.56 274.13 273.59 273.05 272.34 271.57 270.77 269.93 269.04 267.91 266.79
379.95 379.68 379.4 379.12 378.84 378.56 378.3 378.03 377.73 377.43 377.29 377.16 377.18 377.26 377.45 377.76 378.08 378.43 378.79 379.13 379.47 380.07 380.83 381.46 381.82 382.24 383.18 384.13 384.94 385.71 386.46 387.2 387.89 388.38 388.88 389.23 389.57 389.85 390.1 390.27 390.31 390.32 390.18 390.03 389.64 389.21 388.84 388.51 388.12 387.61 387.1 386.85 386.6 386.36 386.14 385.86 385.52 385.14 384.63 384.12 383.69 383.28 382.71 382.06 381.44 380.88 380.28 379.25 378.22 377.25 376.3 375.09 373.65 372.15 370.49 368.84 366.89 364.93 363.17 361.51 359.59 357.32 355.05 352.82 350.6 348.53 346.49 344.18 341.67 339.18 336.71 334.24 331.7 329.17 326.51 323.82 321.25 318.81 316.32 313.66 311.01 308.21 305.41 302.63 299.86 297.12 294.42 291.86 290.44 289.01 288.37 287.89 287.59 287.45 287.27 287.01 286.76 286.66 286.56 286.35 286.11 286 286.04 286.08 286.12 286.15 285.92 285.65 285.43 285.26 285.14 285.13 285.09 284.45 283.81 283.64 283.59 283.21 282.5 281.78 281.06 280.33 279.64 278.94 278.28 277.62 277.1 276.8 276.49 276.08 275.68 275.24 274.79 274.29 273.76 273.27 272.88 272.5 272.1 271.7 270.98 270.14 269.32 268.53 267.7 266.69 265.69
377.71 377.21 376.7 376.3 375.92 375.56 375.21 374.84 374.46 374.07 373.89 373.7 373.69 373.75 373.93 374.27 374.61 374.97 375.33 375.68 376.03 376.66 377.48 378.21 378.75 379.31 380.32 381.34 382.19 383 383.84 384.71 385.52 386.02 386.53 386.72 386.89 387.14 387.44 387.63 387.64 387.64 387.54 387.44 387.05 386.6 386.15 385.7 385.22 384.68 384.14 383.85 383.57 383.38 383.24 383.01 382.69 382.35 381.86 381.38 381.01 380.66 380.18 379.62 379.06 378.52 377.95 376.98 376.02 375.08 374.14 372.97 371.56 370.11 368.51 366.91 365.08 363.24 361.49 359.78 357.87 355.69 353.51 351.27 349.04 347.02 345.05 342.8 340.34 337.89 335.48 333.07 330.7 328.35 325.78 323.14 320.58 318.11 315.62 313.03 310.44 307.79 305.14 302.4 299.6 296.81 294.02 291.31 289.58 287.84 286.86 286.04 285.55 285.35 285.16 284.98 284.81 284.71 284.62 284.42 284.17 284.07 284.17 284.27 284.29 284.31 284.07 283.8 283.66 283.6 283.59 283.65 283.68 282.93 282.18 282.05 282.12 281.81 281.09 280.34 279.5 278.66 278.02 277.4 276.66 275.85 275.24 274.97 274.69 274.32 273.96 273.48 272.98 272.49 272.01 271.57 271.21 270.86 270.59 270.34 269.62 268.71 267.88 267.16 266.4 265.52 264.63
375.48 374.75 374.01 373.48 373.01 372.56 372.11 371.66 371.2 370.73 370.48 370.23 370.17 370.2 370.35 370.71 371.07 371.44 371.82 372.22 372.62 373.27 374.11 374.91 375.62 376.35 377.48 378.61 379.56 380.44 381.34 382.24 383.06 383.51 383.96 384.16 384.33 384.58 384.87 385.05 385.02 384.97 384.79 384.6 384.17 383.68 383.18 382.67 382.15 381.64 381.12 380.83 380.56 380.33 380.13 379.92 379.71 379.46 379 378.54 378.26 378.01 377.63 377.16 376.66 376.1 375.52 374.67 373.81 372.89 371.95 370.8 369.45 368.06 366.5 364.96 363.26 361.55 359.81 358.04 356.15 354.07 351.97 349.73 347.48 345.51 343.6 341.42 339 336.6 334.25 331.89 329.7 327.52 325.04 322.45 319.9 317.41 314.9 312.39 309.87 307.36 304.86 302.17 299.35 296.51 293.62 290.77 288.74 286.69 285.36 284.22 283.52 283.26 283.04 282.95 282.86 282.77 282.68 282.48 282.23 282.14 282.3 282.45 282.45 282.46 282.24 281.99 281.91 281.97 282.04 282.14 282.24 281.43 280.62 280.51 280.66 280.41 279.69 278.95 278.08 277.22 276.6 276 275.25 274.4 273.74 273.42 273.09 272.73 272.38 271.9 271.37 270.88 270.42 269.99 269.64 269.3 269.03 268.76 268.18 267.48 266.79 266.13 265.45 264.65 263.86
372.97 372.15 371.33 370.71 370.14 369.59 369.05 368.51 367.96 367.4 367 366.6 366.46 366.45 366.58 366.93 367.29 367.73 368.18 368.69 369.22 369.91 370.72 371.55 372.45 373.36 374.64 375.93 377 377.98 378.92 379.78 380.56 380.94 381.32 381.57 381.8 382.06 382.32 382.47 382.39 382.3 382.03 381.76 381.29 380.77 380.22 379.64 379.08 378.59 378.09 377.81 377.54 377.29 377.03 376.83 376.71 376.56 376.13 375.7 375.5 375.35 375.08 374.7 374.26 373.68 373.09 372.35 371.6 370.71 369.75 368.64 367.33 366 364.5 363 361.43 359.86 358.13 356.3 354.42 352.43 350.44 348.18 345.92 343.99 342.15 340.04 337.67 335.32 333.02 330.71 328.63 326.55 324.16 321.65 319.15 316.67 314.2 311.75 309.29 306.9 304.51 301.9 299.12 296.32 293.44 290.59 288.38 286.16 284.59 283.23 282.27 281.77 281.33 281.24 281.14 281.06 280.99 280.77 280.46 280.32 280.45 280.57 280.56 280.55 280.47 280.38 280.38 280.43 280.5 280.58 280.66 279.94 279.22 279.09 279.21 278.99 278.31 277.62 276.81 276.01 275.36 274.73 273.98 273.15 272.45 272.01 271.58 271.22 270.85 270.36 269.82 269.33 268.86 268.43 268.09 267.75 267.46 267.17 266.73 266.24 265.7 265.1 264.49 263.78 263.09
370.41 369.53 368.66 367.94 367.28 366.63 366 365.36 364.72 364.08 363.53 362.99 362.75 362.71 362.8 363.15 363.51 364.02 364.53 365.15 365.82 366.54 367.32 368.17 369.27 370.37 371.79 373.24 374.43 375.52 376.5 377.32 378.07 378.38 378.68 378.97 379.27 379.54 379.78 379.9 379.78 379.64 379.29 378.93 378.42 377.85 377.26 376.62 376.01 375.53 375.05 374.77 374.49 374.21 373.91 373.71 373.67 373.61 373.21 372.82 372.69 372.63 372.44 372.14 371.78 371.22 370.66 370.01 369.37 368.52 367.59 366.52 365.26 363.98 362.5 361.01 359.46 357.89 356.12 354.22 352.34 350.54 348.74 346.64 344.56 342.63 340.76 338.68 336.39 334.1 331.81 329.53 327.34 325.17 322.88 320.56 318.23 315.88 313.52 311.11 308.7 306.39 304.1 301.59 298.91 296.2 293.42 290.64 288.3 285.95 284.15 282.57 281.31 280.47 279.74 279.6 279.45 279.38 279.32 279.07 278.71 278.51 278.6 278.69 278.67 278.65 278.7 278.77 278.84 278.9 278.96 279.02 279.07 278.46 277.81 277.67 277.76 277.56 276.93 276.29 275.54 274.79 274.12 273.46 272.71 271.9 271.17 270.62 270.07 269.7 269.33 268.82 268.27 267.77 267.3 266.87 266.53 266.19 265.89 265.58 265.28 264.98 264.61 264.06 263.52 262.91 262.31
367.84 366.92 365.99 365.18 364.42 363.68 362.95 362.22 361.5 360.77 360.07 359.38 359.05 358.97 359.03 359.39 359.76 360.32 360.88 361.59 362.34 363.11 363.9 364.8 366.08 367.37 368.91 370.48 371.78 372.94 373.98 374.81 375.6 375.93 376.27 376.58 376.88 377.1 377.25 377.31 377.14 376.97 376.55 376.13 375.56 374.92 374.26 373.55 372.88 372.36 371.83 371.52 371.23 370.95 370.69 370.52 370.51 370.48 370.17 369.86 369.8 369.81 369.7 369.48 369.2 368.71 368.22 367.67 367.12 366.34 365.44 364.43 363.22 361.98 360.5 359.02 357.44 355.85 354.05 352.08 350.21 348.61 347.02 345.1 343.18 341.28 339.37 337.32 335.1 332.87 330.61 328.34 326.07 323.79 321.59 319.46 317.3 315.07 312.84 310.47 308.11 305.88 303.67 301.27 298.68 296.07 293.38 290.7 288.22 285.74 283.73 281.92 280.37 279.19 278.14 277.96 277.77 277.7 277.65 277.38 276.96 276.7 276.76 276.81 276.78 276.75 276.92 277.15 277.31 277.38 277.45 277.5 277.54 277.01 276.44 276.27 276.31 276.12 275.57 275.01 274.31 273.61 272.93 272.27 271.56 270.82 270.12 269.53 268.93 268.5 268.06 267.59 267.11 266.65 266.21 265.78 265.36 264.93 264.64 264.36 264.14 263.95 263.66 263.17 262.69 262.18 261.68
365.41 364.38 363.34 362.42 361.56 360.7 359.83 358.97 358.16 357.35 356.59 355.83 355.44 355.34 355.38 355.77 356.17 356.72 357.26 357.94 358.67 359.49 360.42 361.45 362.91 364.37 366 367.64 369.02 370.25 371.36 372.26 373.13 373.55 373.98 374.27 374.54 374.69 374.73 374.71 374.5 374.29 373.82 373.34 372.7 372 371.26 370.49 369.75 369.18 368.62 368.27 367.96 367.7 367.48 367.33 367.34 367.35 367.12 366.89 366.9 366.99 366.96 366.82 366.62 366.2 365.79 365.32 364.86 364.15 363.3 362.33 361.17 359.98 358.5 357.02 355.43 353.82 351.97 349.94 348.08 346.68 345.29 343.54 341.8 339.92 337.98 335.95 333.81 331.64 329.39 327.14 324.79 322.44 320.31 318.32 316.28 314.15 312.01 309.71 307.43 305.25 303.1 300.78 298.28 295.77 293.19 290.61 288.12 285.64 283.53 281.6 279.89 278.52 277.26 276.81 276.34 276.2 276.14 275.88 275.49 275.23 275.28 275.34 275.34 275.34 275.53 275.78 275.97 276.1 276.22 276.24 276.26 275.76 275.2 274.94 274.84 274.64 274.25 273.85 273.16 272.47 271.81 271.15 270.51 269.89 269.28 268.68 268.07 267.52 266.96 266.51 266.11 265.7 265.27 264.83 264.28 263.73 263.44 263.19 263.03 262.93 262.72 262.28 261.85 261.45 261.05
363.03 361.87 360.7 359.66 358.7 357.72 356.71 355.71 354.83 353.94 353.11 352.28 351.84 351.71 351.73 352.16 352.59 353.11 353.63 354.29 355 355.86 356.93 358.09 359.72 361.37 363.08 364.8 366.26 367.55 368.74 369.71 370.65 371.16 371.68 371.98 372.21 372.29 372.22 372.11 371.86 371.61 371.09 370.55 369.85 369.07 368.27 367.44 366.62 366.02 365.4 365.02 364.69 364.43 364.24 364.11 364.15 364.19 364.04 363.9 363.96 364.1 364.15 364.08 363.97 363.64 363.32 362.92 362.51 361.86 361.07 360.17 359.05 357.91 356.43 354.95 353.06 351.02 348.97 346.92 345.13 344.2 343.29 341.72 340.12 338.29 336.35 334.36 332.29 330.2 328 325.8 323.52 321.24 319.09 317.04 314.97 312.88 310.79 308.67 306.57 304.43 302.29 300.03 297.65 295.26 292.82 290.39 288.01 285.63 283.49 281.49 279.66 278.15 276.69 275.86 275 274.76 274.67 274.42 274.06 273.8 273.85 273.89 273.91 273.93 274.13 274.4 274.63 274.82 274.98 274.98 274.99 274.51 273.96 273.61 273.38 273.14 272.93 272.69 272.01 271.34 270.68 270.03 269.45 268.96 268.44 267.82 267.21 266.54 265.86 265.42 265.11 264.76 264.34 263.89 263.22 262.54 262.24 262.02 261.92 261.9 261.78 261.39 261 260.7 260.41
360.65 359.37 358.07 356.91 355.85 354.75 353.6 352.46 351.49 350.53 349.63 348.74 348.23 348.08 348.07 348.53 348.99 349.5 350.03 350.67 351.38 352.29 353.52 354.83 356.62 358.41 360.21 362 363.56 364.96 366.23 367.2 368.16 368.72 369.28 369.57 369.77 369.79 369.6 369.39 369.1 368.81 368.21 367.58 366.83 366.02 365.19 364.33 363.49 362.78 362.07 361.64 361.28 361 360.8 360.69 360.82 360.96 360.89 360.82 360.92 361.09 361.2 361.23 361.22 361.01 360.8 360.44 360.06 359.48 358.77 357.96 356.89 355.81 354.33 352.84 350.54 347.96 345.64 343.62 341.95 341.57 341.23 339.85 338.4 336.64 334.71 332.76 330.77 328.76 326.61 324.45 322.25 320.04 317.88 315.76 313.66 311.61 309.56 307.62 305.7 303.62 301.48 299.28 297.01 294.74 292.45 290.17 287.89 285.61 283.46 281.38 279.44 277.79 276.15 274.93 273.68 273.32 273.2 272.96 272.63 272.38 272.41 272.44 272.48 272.53 272.73 273.01 273.28 273.53 273.74 273.73 273.71 273.26 272.73 272.31 271.98 271.71 271.61 271.5 270.87 270.26 269.62 268.97 268.43 268 267.55 266.97 266.39 265.68 264.96 264.52 264.23 263.89 263.44 262.98 262.31 261.66 261.34 261.11 260.98 260.93 260.81 260.46 260.12 259.92 259.74
