624.23 628.04 629.54 634.39 637.32 640.39 642.5 644.82 647.66 649.77 652.91 655.21 658.1 661.35 663.29 666.36 668.21 670.9 672.1 673.9 676.36 678.13 681.89 685.2 689.03 692.05 694.71 698.6 703 705.28 707.84 712.2 715.82 716.69 717.66 719.18 720.16 720.61 719.29 717.45 714.95 712.78 709.64 706.65 703.3 699.38 694.43 691.95 689.2 686.35 683.75 679.86 676.06 671.69 667.43 663.22 659.66 657.72 654.73 650.73 646.47 644.37 640.7 637.38 634.64 631.07 626.89 622.4 619.09 615.75 611.37 607 602.81 598.88 591.87 587.92 580.83 575.31 568.74 561.51 551.45 540.02 530.93 521.76 512.42 504.46 496.41 486.47 476.07 466.13 460.05 454.15 447.36 443.29 438.05 432.37 9999 9999 9999 9999 9999 9999 9999 9999 9999 9999 9999 9999 9999 9999 9999 9999 9999 9999 9999 9999 9999 9999 9999 9999 9999 9999 9999 9999 9999 9999 9999 9999 9999 9999 9999 9999 9999 9999 9999 9999 9999 9999 9999 9999 9999 9999 9999 9999 9999 9999 9999 9999 9999 9999 9999 9999 9999 9999 9999 9999 9999 9999 9999 9999 9999 9999 9999 9999 9999 9999 9999 9999 9999 9999 9999 9999 9999 9999 9999 9999 9999 9999 9999 9999 9999 9999 9999 9999 9999 9999 9999 9999 9999 9999 9999 9999 9999 9999 9999 9999 9999 9999 9999 9999 9999 9999 9999 9999 9999 9999 9999 9999 9999 9999 9999 9999 9999 9999 9999 9999 9999 9999 9999 9999 9999 9999 9999 9999 9999 9999 9999 9999 9999 9999 9999 9999 9999 9999 9999 9999 9999 9999 9999 9999 9999 9999 9999 9999 9999 9999 9999 429.15 430.68 430.72 431.51 431.66 434.53 445.58 453.77 463.47 465.34 466.77 469.48 473.56 476.91 480.14 482.23 481.64 480.69 481.08 482.64 483.23 484.25 486.23 487.99 489.36 491.33 493.03 492.32 499.03 502.85 504.67 506.41 509.61 512.03 512.78 514.66 516.84 520.26 523.78 526.25 528.83 531.12 534.01 535.05 536.63 539.26 540.33 541.23 542.46 544.14 547.05 548.61 551.67 554.6 558.17 560.88 563.61 568.29 570.52 573.92 576.45 579.67 582.85 585.38 588.4 589.44 591.08 594.72 595.29 596.57 597.5 597.23 599.12 600.32 601.03 602.54 603.49 607.05 611.3 614.52 619.19 622.37 625.12 628.21 630.28 631.55
626.16 630.63 635.12 638.36 640.76 642.62 644.82 647.5 650.22 653.54 656.34 659.47 662.1 663.96 666.6 668.78 671.11 673.65 676.53 677.87 680.43 681.77 684.59 688.53 691.73 695.3 699.17 703.12 706.76 708.56 711.42 714.08 716.8 718.57 719.85 720.84 721.66 720.98 719.83 717.44 714.8 711.88 708.75 705.93 700.27 696.19 692.52 689.8 686.43 683.47 680.08 676.9 672.9 669.52 665.1 661.32 658.04 654.09 650.98 647.51 644.96 642.37 639.79 635.28 633 630.03 625.59 622.31 619.57 616.35 612 608.13 603.71 597.96 593.52 588.57 581.58 576.07 569.77 562.45 550.47 540.22 531.64 524.08 514.03 505.29 495.79 483.38 475.63 468.55 462.26 455.66 449.2 444.01 437.68 433.11 9999 9999 9999 9999 9999 9999 9999 9999 9999 9999 9999 9999 9999 9999 9999 9999 9999 9999 9999 9999 9999 9999 9999 9999 9999 9999 9999 9999 9999 9999 9999 9999 9999 9999 9999 9999 9999 9999 9999 9999 9999 9999 9999 9999 9999 9999 9999 9999 9999 9999 9999 9999 9999 9999 9999 9999 9999 9999 9999 9999 9999 9999 9999 9999 9999 9999 9999 9999 9999 9999 9999 9999 9999 9999 9999 9999 9999 9999 9999 9999 9999 9999 9999 9999 9999 9999 9999 9999 9999 9999 9999 9999 9999 9999 9999 9999 9999 9999 9999 9999 9999 9999 9999 9999 9999 9999 9999 9999 9999 9999 9999 9999 9999 9999 9999 9999 9999 9999 9999 9999 9999 9999 9999 9999 9999 9999 9999 9999 9999 9999 9999 9999 9999 9999 9999 9999 9999 9999 9999 9999 9999 9999 9999 9999 9999 9999 9999 9999 9999 9999 9999 429.02 431.05 430.8 430.99 431.19 431.31 436.14 446.05 453.23 459.87 461.92 466.17 471.03 473.31 477.1 478.76 477.41 477.48 479.52 481.23 482.64 483.1 484.99 486.34 487.32 488.87 489.45 493.49 499.59 502.65 505.92 508.45 509.85 511.27 511.66 512.91 515.08 517.68 520.45 523.76 526.71 530.65 532.36 533.84 535.58 535.84 536.62 537.93 540.93 541.99 544.3 546.89 549.48 552.76 555.52 560.24 563.75 566.3 569.25 571.15 573.21 575.64 579.77 583.59 584.77 586.89 588.54 590.55 594.18 595.57 596.92 599.36 601.4 602.53 604.26 605.42 607.52 609.39 612.58 616.89 620.78 624.96 627.79 630.78 633.4 633.77
631.45 633.86 636.88 640.47 642.79 645.17 648.22 650.5 653.88 655.27 658.67 662.09 664.59 667.42 670.5 672.95 675.22 676.3 678.71 681.01 682.95 685.78 689.92 691.94 693.56 697.77 701.27 705.6 709.11 712.46 714.44 716.52 718.1 719.68 721.01 721.43 722.17 721.29 719.28 717.25 715.06 711.16 708.12 703.12 698.86 694.18 690.23 685.87 684.07 681.07 676.04 672.65 669.09 665.48 661.47 657.1 655.53 651.69 647.36 644.66 642.3 639 636.51 635.01 631.49 627.27 624.85 621.7 619.11 615.69 612.42 608.91 603.53 598.49 595.64 589.11 583.01 576.52 569.41 558.32 548.95 539.59 530.55 522.59 513.44 503.94 491.82 482.84 474.31 467.92 461.97 456.21 452.04 444.41 439.42 435.72 428.85 9999 9999 9999 9999 9999 9999 9999 9999 9999 9999 9999 9999 9999 9999 9999 9999 9999 9999 9999 9999 9999 9999 9999 9999 9999 9999 9999 9999 9999 9999 9999 9999 9999 9999 9999 9999 9999 9999 9999 9999 9999 9999 9999 9999 9999 9999 9999 9999 9999 9999 9999 9999 9999 9999 9999 9999 9999 9999 9999 9999 9999 9999 9999 9999 9999 9999 9999 9999 9999 9999 9999 9999 9999 9999 9999 9999 9999 9999 9999 9999 9999 9999 9999 9999 9999 9999 9999 9999 9999 9999 9999 9999 9999 9999 9999 9999 9999 9999 9999 9999 9999 9999 9999 9999 9999 9999 9999 9999 9999 9999 9999 9999 9999 9999 9999 9999 9999 9999 9999 9999 9999 9999 9999 9999 9999 9999 9999 9999 9999 9999 9999 9999 9999 9999 9999 9999 9999 9999 9999 9999 9999 9999 9999 9999 9999 9999 9999 9999 9999 9999 429.36 431.13 430.99 431.17 430.85 431.17 432.26 436.6 445.08 450.04 453.75 454.64 462.16 469.71 474.23 476.05 475.83 475.81 479.33 482.16 482.79 482.53 483.38 485.05 484.99 485 487.43 494.45 496.78 501.43 503.92 505.66 507.88 508.71 511.11 512.05 514.5 517.21 519.46 521.88 525.39 527.79 529.33 532.01 532.3 533.29 534.05 535.6 536.37 538.13 541.26 545.31 547.62 551.09 554.52 557.49 560.04 563.58 568.1 570.24 571.61 573.39 576.2 577.54 580.15 583.34 586.48 592.18 594.94 597.29 599.55 602.3 604.71 605.45 605.71 607.53 609.43 612.49 615.68 619.37 622.76 626.06 629.39 632.73 634.61 636.44
632.83 636.02 639.91 643.47 645.39 647.41 651.44 653.78 656.37 658.85 662.84 665.62 667.41 669.85 672.89 675.6 678.05 679.87 682.13 684.22 685.67 689.74 691.6 693.55 695.59 700.51 704.91 708.57 711.79 714.57 716.18 717 719.41 721.59 722.62 722.61 722.54 721.54 719.85 717.98 713.98 710.7 705.96 703.09 698.3 693.04 688.06 683.97 679.76 676.07 671.95 670 666.83 663.04 658.75 655.91 649.99 646.33 643.47 641.97 638.95 635.85 633.49 628.89 626.76 624.45 621.85 620.92 618.01 615.62 612.41 607.95 604.24 600.05 594.68 589.79 582.9 576.8 566.31 557.27 548.46 538.68 529.13 519.25 510.95 499.39 490.52 482.34 474.61 468.26 462.18 457.15 450.05 445.8 442 437.02 431.95 9999 9999 9999 9999 9999 9999 9999 9999 9999 9999 9999 9999 9999 9999 9999 9999 9999 9999 9999 9999 9999 9999 9999 9999 9999 9999 9999 9999 9999 9999 9999 9999 9999 9999 9999 9999 9999 9999 9999 9999 9999 9999 9999 9999 9999 9999 9999 9999 9999 9999 9999 9999 9999 9999 9999 9999 9999 9999 9999 9999 9999 9999 9999 9999 9999 9999 9999 9999 9999 9999 9999 9999 9999 9999 9999 9999 9999 9999 9999 9999 9999 9999 9999 9999 9999 9999 9999 9999 9999 9999 9999 9999 9999 9999 9999 9999 9999 9999 9999 9999 9999 9999 9999 9999 9999 9999 9999 9999 9999 9999 9999 9999 9999 9999 9999 9999 9999 9999 9999 9999 9999 9999 9999 9999 9999 9999 9999 9999 9999 9999 9999 9999 9999 9999 9999 9999 9999 9999 9999 9999 9999 9999 9999 9999 9999 9999 9999 9999 9999 9999 429.62 431.11 431.05 431.64 431.01 431.49 431.83 432.31 432.95 441.71 449.37 447.34 451.95 460.24 466.68 470.82 471.67 475.9 477.61 479.63 481.21 480.12 482.87 481.95 482.13 483.16 486.57 491.02 494.22 497.14 499.51 501.03 506 508.05 510.23 512.16 513.87 515.52 517.91 521.71 523.29 525.65 527.36 528.52 528.9 530.41 530.59 532.94 533.4 535.58 538.87 541.51 545.58 548.76 552.52 555.31 558.27 561.53 564.48 567.19 568.4 570.7 571.93 575.55 580.59 585.41 589.48 593.88 595.9 598.29 600.78 603.45 606.13 607.17 609.23 611 611.6 614.38 617.29 620.85 624.91 628.08 631.84 634.69 636.11 637.47
634.98 639.06 642.05 645.18 647.69 651.48 653.81 656.1 657.98 661.8 665.37 668.46 671.93 674.29 676.72 677.15 679.98 681.96 684.52 687.98 690.28 693.15 695.5 695.57 698.8 703.47 708.21 711.85 714.53 716.76 717.76 719.05 721.67 722.83 724.41 723.54 722.98 722 720.28 717.82 714.27 709.13 705.75 701.49 696.05 691.45 687.33 681.8 676.2 672.68 670.21 666.12 662.24 659.06 655.81 650.8 647.26 644.05 641.53 637.85 635.55 632.48 628.93 625.71 623.88 621.99 620.08 618.55 616.11 613.57 610.88 607.25 604.25 601.08 595.45 590.25 583.61 575.3 567.07 558.7 550.02 538.64 528.72 519.38 506.19 497.15 489.77 481.96 475.16 468.33 462.7 455.85 451.02 447.08 442.4 438.12 433.59 9999 9999 9999 9999 9999 9999 9999 9999 9999 9999 9999 9999 9999 9999 9999 9999 9999 9999 9999 9999 9999 9999 9999 9999 9999 9999 9999 9999 9999 9999 9999 9999 9999 9999 9999 9999 9999 9999 9999 9999 9999 9999 9999 9999 9999 9999 9999 9999 9999 9999 9999 9999 9999 9999 9999 9999 9999 9999 9999 9999 9999 9999 9999 9999 9999 9999 9999 9999 9999 9999 9999 9999 9999 9999 9999 9999 9999 9999 9999 9999 9999 9999 9999 9999 9999 9999 9999 9999 9999 9999 9999 9999 9999 9999 9999 9999 9999 9999 9999 9999 9999 9999 9999 9999 9999 9999 9999 9999 9999 9999 9999 9999 9999 9999 9999 9999 9999 9999 9999 9999 9999 9999 9999 9999 9999 9999 9999 9999 9999 9999 9999 9999 9999 9999 9999 9999 9999 9999 9999 9999 9999 9999 9999 9999 9999 9999 9999 9999 9999 9999 429.5 431.14 430.84 430.79 430.89 431.08 431.77 431.76 432.24 436.33 444.09 445.37 446.99 453.59 459.32 463.53 471.36 474.52 473.6 473.79 476.42 476.13 476.91 479.22 481.48 483.85 484.56 487.27 490.75 493.5 496.75 498.74 502.56 504.48 507.02 510.02 512.06 514.17 516.34 518.77 520.83 522.49 524.3 526.24 527.32 527 527.85 528.48 529.17 531.44 536.51 540.23 544.25 546.98 549.27 552.14 555.32 559.2 562.56 564.03 564.47 566.81 571.93 575.72 581.11 585.83 591.43 593.59 595.68 597.45 600.11 602.13 605.92 608.42 610.71 612.16 614.35 616.95 619.55 622.38 626.97 630.02 632.3 635.58 637.61 638.92
639.08 642.09 644.82 646.85 649.82 652.48 656.29 659.4 663.19 666.36 669.21 671.95 674.24 677 678.73 681.08 684.18 685.68 688.89 690.61 692.82 695.49 697.34 700.58 703.79 709.16 711.07 713.84 716.26 718.22 719.35 721.51 723.87 724.35 724.53 724.51 723.78 722.57 720.43 717.4 712.53 709.04 704.51 700.54 695.42 689.51 684.26 676.46 672.84 668.41 666.73 662.93 659.45 656.12 650.86 647.51 644.6 641.01 639.33 636.12 633.13 629.19 624.94 622.15 619.17 618.96 617.15 615.41 613.25 611.3 609.27 606.14 603.21 601.16 596.41 588.07 581.61 575.39 569.03 560.69 551.07 539.16 526.62 515.96 505.65 496.3 487.49 480.91 474.44 468.47 460.82 455.67 451.94 448.35 443.6 438.82 434.31 9999 9999 9999 9999 9999 9999 9999 9999 9999 9999 9999 9999 9999 9999 9999 9999 9999 9999 9999 9999 9999 9999 9999 9999 9999 9999 9999 9999 9999 9999 9999 9999 9999 9999 9999 9999 9999 9999 9999 9999 9999 9999 9999 9999 9999 9999 9999 9999 9999 9999 9999 9999 9999 9999 9999 9999 9999 9999 9999 9999 9999 9999 9999 9999 9999 9999 9999 9999 9999 9999 9999 9999 9999 9999 9999 9999 9999 9999 9999 9999 9999 9999 9999 9999 9999 9999 9999 9999 9999 9999 9999 9999 9999 9999 9999 9999 9999 9999 9999 9999 9999 9999 9999 9999 9999 9999 9999 9999 9999 9999 9999 9999 9999 9999 9999 9999 9999 9999 9999 9999 9999 9999 9999 9999 9999 9999 9999 9999 9999 9999 9999 9999 9999 9999 9999 9999 9999 9999 9999 9999 9999 9999 9999 9999 9999 9999 9999 9999 9999 9999 429.36 430.41 430.86 430.99 431.11 431.35 431.78 431.86 433.05 434.9 441.36 444.6 445.58 448.38 454.3 456 467.4 470.7 470.25 467.93 468.74 472.18 475.76 479.13 481.04 482.55 483.59 483.99 485.94 491.47 495 498.13 500.64 502.7 503.82 504.48 507.62 510.18 514.72 517.72 518.39 520.14 521.65 522.93 523.42 524.61 525.23 525.65 526.62 528.97 534.37 538.63 541.88 544.88 546.89 549.91 552.68 555.21 556.43 557.34 561.45 566.11 571.91 576.09 580.5 584.36 588.53 591.93 593.66 596.28 599.18 601.23 606.56 608.86 610.81 612.47 614.99 617.05 619.6 624.51 627.35 630.48 633.08 635.12 637.86 639.52
640.67 643.14 646.59 650.8 653.97 656.77 659.03 663.49 666.25 669.12 672.86 675.34 677.58 679.8 681.08 683.48 685.79 688.82 691.52 694.17 696.14 698.26 700.35 702.32 707.21 710.63 713.94 716.4 718.78 719.93 721.03 723.61 724.87 725.35 725.42 725.19 724.17 722.85 719.87 717.35 714.24 708.97 703.72 698.57 693.61 688.5 680.37 674.48 670.17 667.3 663.59 658.61 654.41 651.64 648.79 644.66 641.64 638.37 635.78 631.93 628.39 625.98 622.24 618.81 616.13 613.76 612.18 610.98 611.3 609.31 607.01 604.59 602.27 598.77 594.64 589.19 581.67 575.32 568.45 562.04 553.56 539.95 528.87 516.62 506.27 496.19 488.42 480.27 472.13 466.5 461.19 456.36 452.06 447.89 444.06 439.28 433.85 9999 9999 9999 9999 9999 9999 9999 9999 9999 9999 9999 9999 9999 9999 9999 9999 9999 9999 9999 9999 9999 9999 9999 9999 9999 9999 9999 9999 9999 9999 9999 9999 9999 9999 9999 9999 9999 9999 9999 9999 9999 9999 9999 9999 9999 9999 9999 9999 9999 9999 9999 9999 9999 9999 9999 9999 9999 9999 9999 9999 9999 9999 9999 9999 9999 9999 9999 9999 9999 9999 9999 9999 9999 9999 9999 9999 9999 9999 9999 9999 9999 9999 9999 9999 9999 9999 9999 9999 9999 9999 9999 9999 9999 9999 9999 9999 9999 9999 9999 9999 9999 9999 9999 9999 9999 9999 9999 9999 9999 9999 9999 9999 9999 9999 9999 9999 9999 9999 9999 9999 9999 9999 9999 9999 9999 9999 9999 9999 9999 9999 9999 9999 9999 9999 9999 9999 9999 9999 9999 9999 9999 9999 9999 9999 9999 9999 9999 9999 9999 429.39 429.7 430.73 430.49 430.83 430.94 431.47 431.62 432.16 433.21 434.21 437.25 443.84 445.51 447.26 449.72 450.14 453.35 455.25 457.56 463.47 469.07 472.56 474.78 475.45 477.28 479.74 480.41 480.78 485.9 490.26 493.25 496.32 498.04 498.6 500.77 502.28 505.02 507.61 509.41 512.67 516.31 519.26 520 520.38 520.94 519.88 520.72 521.65 523.12 527.41 532.9 536.15 538.94 540.83 543.76 546.57 550.36 552.22 553.05 554.51 560.5 566.27 570.35 576.57 581.28 584.23 586.45 588.29 591.04 593.66 595.8 601.27 604.02 607.49 609.76 612.03 614.2 616.55 620.8 624.16 627.73 629.34 633.43 636.41 638.32 640.94
643.1 645.95 649.84 653.5 656.66 659.92 664.19 667.38 669.83 672.36 675.96 677.45 679.23 682.22 684.39 686.12 690.15 691.35 694.07 696.5 698.27 700.53 703.82 708.68 711.46 713 716.29 718.24 719.77 721.91 723.94 725.79 725.98 725.94 726.52 725.65 724.76 722.44 720.52 717.99 713.13 708.56 702.91 696.94 689.14 684.42 678.39 671.35 668.08 665.52 661.67 656.72 650.96 646.56 643.67 641.48 639.46 636.76 633.43 629.88 626.09 622.66 619.32 615.82 614.04 610.24 607.65 605.34 605.27 603.99 601.84 598.81 598.58 595.4 592.4 587.64 580.69 573.49 567.4 560.95 550.51 540.78 529.6 518.7 508.3 499.42 489.81 479.87 472.63 466.61 461.33 455.9 452.58 448.42 442.99 438.83 434.42 430.26 9999 9999 9999 9999 9999 9999 9999 9999 9999 9999 9999 9999 9999 9999 9999 9999 9999 9999 9999 9999 9999 9999 9999 9999 9999 9999 9999 9999 9999 9999 9999 9999 9999 9999 9999 9999 9999 9999 9999 9999 9999 9999 9999 9999 9999 9999 9999 9999 9999 9999 9999 9999 9999 9999 9999 9999 9999 9999 9999 9999 9999 9999 9999 9999 9999 9999 9999 9999 9999 9999 9999 9999 9999 9999 9999 9999 9999 9999 9999 9999 9999 9999 9999 9999 9999 9999 9999 9999 9999 9999 9999 9999 9999 9999 9999 9999 9999 9999 9999 9999 9999 9999 9999 9999 9999 9999 9999 9999 9999 9999 9999 9999 9999 9999 9999 9999 9999 9999 9999 9999 9999 9999 9999 9999 9999 9999 9999 9999 9999 9999 9999 9999 9999 9999 9999 9999 9999 9999 9999 9999 9999 9999 9999 9999 9999 9999 9999 9999 429.05 429.59 430.87 430.45 430.74 430.78 431.39 432.09 432.3 433.42 434.01 435.68 440.01 443.49 443.73 445.72 446.02 446.74 449.17 452.44 456.97 463.77 469.33 471.97 474.18 474.04 475.62 474.59 479.05 483.68 489.09 492 494.86 496.86 499.03 499.91 501.28 503.26 505.09 507.66 511 513.58 516.2 516.94 516.95 518.4 517.92 517.96 518.31 520.98 523.54 526.5 532.82 536.07 539.5 541.21 544.38 545.99 546.27 548.72 553.62 559.65 564.94 570.13 574.59 578.38 580.99 583.5 586.58 588.72 592.27 595.63 598.56 601.37 605.2 608.22 610.27 612.68 616.23 620.1 623.08 626.36 629.95 633.04 635.34 639.13 641.28
644.92 648.42 652.52 654.99 658.61 661.75 665.85 668.61 672.02 674.8 677.44 680.47 682.48 684.14 685.67 689.95 692.57 694.87 697.08 698.56 701.37 702.89 707.8 711.01 713.48 716.35 718.51 719.96 721.57 724.67 725.79 726.15 727.22 727.91 727.28 726.59 724.8 723.01 720.77 717.17 712.56 706.72 700.93 692.81 687.32 682.1 676.62 671.35 666.81 661.13 655.83 652.17 648.48 644.93 641.03 637.61 635.13 632.47 630.01 627.68 624.85 621.3 617.61 614.26 610.75 604.89 601.72 600.9 600.2 598.71 597.69 595.23 592.57 591.09 588.66 585.77 579.22 573.09 566.09 555.61 548.12 537.52 528.74 519.98 509.24 500.14 488.44 479.73 472.77 467.51 461.48 456.65 452.4 447.18 443.68 439.34 436.25 432.77 9999 9999 9999 9999 9999 9999 9999 9999 9999 9999 9999 9999 9999 9999 9999 9999 9999 9999 9999 9999 9999 9999 9999 9999 9999 9999 9999 9999 9999 9999 9999 9999 9999 9999 9999 9999 9999 9999 9999 9999 9999 9999 9999 9999 9999 9999 9999 9999 9999 9999 9999 9999 9999 9999 9999 9999 9999 9999 9999 9999 9999 9999 9999 9999 9999 9999 9999 9999 9999 9999 9999 9999 9999 9999 9999 9999 9999 9999 9999 9999 9999 9999 9999 9999 9999 9999 9999 9999 9999 9999 9999 9999 9999 9999 9999 9999 9999 9999 9999 9999 9999 9999 9999 9999 9999 9999 9999 9999 9999 9999 9999 9999 9999 9999 9999 9999 9999 9999 9999 9999 9999 9999 9999 9999 9999 9999 9999 9999 9999 9999 9999 9999 9999 9999 9999 9999 9999 9999 9999 9999 9999 9999 9999 9999 9999 9999 9999 9999 428.77 429.6 430.69 430.61 431.03 431.44 431.21 431.42 432.42 433.11 433.72 434.68 440.4 443.14 442.71 443.27 445.07 446.39 448.56 449.44 452.2 456.93 463.41 464.91 467.41 469.09 470.95 472.06 475.56 479.68 484.43 487.71 491.16 495.7 497.39 499.7 501.29 502.61 504.4 506.23 508.88 511.4 513.57 513.93 514.22 514.34 513.21 513.86 514.4 516.24 519.43 523.44 526.32 529.04 532.76 536.59 540.7 542.22 543.44 547.68 552.22 556.67 562.24 568.21 572.24 576.03 578.5 580.33 582.52 586 590.22 594.06 596.75 600.63 603.55 606 609.65 611.43 615.48 618.78 622.02 626.43 628.85 631.86 635.74 638.55 641.11
647.35 651.42 654.97 658.36 661.21 665.1 668.81 671.79 673.03 676.52 679.13 682.65 684.47 685.89 689.76 692.88 694.44 695.94 698.51 700.65 703.71 708.63 711.43 713.72 715.6 717.72 719.23 722.95 725.55 726.77 727.46 728.24 728.42 728.46 727.78 726.57 725.83 723.74 720.37 716.14 711.26 705.41 697.37 691.02 684.58 679.32 674.77 670.26 664.31 656.97 652.2 649.33 646.68 641.77 638.54 635.61 632.49 628.83 627.17 625.02 622.26 619.33 615.97 611.73 607.37 602.82 598.67 595.84 592.79 590.91 592.9 590.48 587.86 586.41 585.22 580.24 575.53 567.75 559.96 552.68 544.84 536.62 529.62 520.43 510.95 497.57 487.63 479.97 473.24 466.86 461.73 456.34 450.91 447.51 442.65 439.97 436.29 432.92 430.09 9999 9999 9999 9999 9999 9999 9999 9999 9999 9999 9999 9999 9999 9999 9999 9999 9999 9999 9999 9999 9999 9999 9999 9999 9999 9999 9999 9999 9999 9999 9999 9999 9999 9999 9999 9999 9999 9999 9999 9999 9999 9999 9999 9999 9999 9999 9999 9999 9999 9999 9999 9999 9999 9999 9999 9999 9999 9999 9999 9999 9999 9999 9999 9999 9999 9999 9999 9999 9999 9999 9999 9999 9999 9999 9999 9999 9999 9999 9999 9999 9999 9999 9999 9999 9999 9999 9999 9999 9999 9999 9999 9999 9999 9999 9999 9999 9999 9999 9999 9999 9999 9999 9999 9999 9999 9999 9999 9999 9999 9999 9999 9999 9999 9999 9999 9999 9999 9999 9999 9999 9999 9999 9999 9999 9999 9999 9999 9999 9999 9999 9999 9999 9999 9999 9999 9999 9999 9999 9999 9999 9999 9999 9999 9999 9999 9999 9999 429.49 429.58 430.48 430.53 431.11 430.9 431.79 431.88 432.42 433.6 434.66 435.11 436.5 440.04 441.61 442.57 444.11 445.57 447.52 447.7 447.59 447.56 455.04 460.57 464.5 464.48 466.16 469.06 472.5 476.24 480.11 484.73 489.09 492.88 494.79 496.98 500.47 502.39 503.95 506.49 507.67 508.59 509.26 509.6 510.57 510.95 510.21 509.65 509.66 512.24 514.56 519.62 522.37 524.55 528.55 531.61 533.95 536.51 540.83 546.06 551.54 556.1 560.54 565.44 568.91 572.06 575.02 577.35 581.19 584.54 587.18 590.3 593.94 597.95 602.55 604.96 608.24 611.73 614.24 616.91 620.91 624.25 630.05 632.11 635.01 638.01 640.94
650.48 654.04 656.25 660.45 662.8 667.55 670.87 672.99 676.03 679.06 681.78 684.03 686.17 688.48 691.73 694.14 697.22 699.28 701.29 703.3 706.81 710.67 713.36 715.69 717.42 719.59 721.69 724.48 726.63 727.47 728.27 728.4 728.82 729.04 727.94 726.92 724.95 722.73 718.53 713.63 708.49 700.09 693.72 689.3 682.8 677.7 672.78 666.58 659.94 654.95 651.39 647.04 645.1 640.81 637.5 633.42 629.29 626.66 624.21 622.57 620.12 617.41 612.83 608.44 604.5 599.86 596.83 592.61 589.57 586.23 584.54 583.07 581.26 578.66 578.82 573.51 566.06 559.76 553.16 546.05 539.3 533.8 527.23 518.07 506.44 496.55 485.94 476.39 470.66 465.99 461.11 455.7 450.77 446.67 444.1 440.34 436.26 433.08 429.37 9999 9999 9999 9999 9999 9999 9999 9999 9999 9999 9999 9999 9999 9999 9999 9999 9999 9999 9999 9999 9999 9999 9999 9999 9999 9999 9999 9999 9999 9999 9999 9999 9999 9999 9999 9999 9999 9999 9999 9999 9999 9999 9999 9999 9999 9999 9999 9999 9999 9999 9999 9999 9999 9999 9999 9999 9999 9999 9999 9999 9999 9999 9999 9999 9999 9999 9999 9999 9999 9999 9999 9999 9999 9999 9999 9999 9999 9999 9999 9999 9999 9999 9999 9999 9999 9999 9999 9999 9999 9999 9999 9999 9999 9999 9999 9999 9999 9999 9999 9999 9999 9999 9999 9999 9999 9999 9999 9999 9999 9999 9999 9999 9999 9999 9999 9999 9999 9999 9999 9999 9999 9999 9999 9999 9999 9999 9999 9999 9999 9999 9999 9999 9999 9999 9999 9999 9999 9999 9999 9999 9999 9999 9999 9999 9999 9999 9999 428.7 429.28 430.63 430.92 430.81 430.27 431.38 431.39 432.03 433.27 434.21 434.87 435.61 439.18 445.86 443.48 441.47 444.8 446.58 446.14 449.09 445.93 446.12 448.92 455.1 461.3 465.31 467.86 471.52 474.72 477.2 481.49 487.47 489.95 492.89 494.76 498.44 499.63 502.94 505.41 506.46 506.75 505.99 506.76 506.7 506.62 506.07 506.72 507.29 509.31 512.75 515.81 518.78 520.27 524.66 527.03 529.94 535.14 539.78 545.97 549.18 553.25 557.97 562.08 566.21 568.5 572.06 575.83 579.37 583 585.74 589.3 592.43 595.73 600.41 603.67 607.68 610.16 613.25 616.58 619.86 624.62 627.68 630.84 634.54 636.73 640.03
650.79 655.18 658.16 662.38 666.17 668.22 671.34 673.98 678.06 680.56 683.3 686.31 688.37 691.68 694.34 696.48 698.63 699.64 704.23 707.57 711.31 715.05 716.36 716.88 718.7 721.93 724.24 725.8 727.38 727.7 728.64 729.11 729.29 729.13 727.39 726.44 724.86 720.42 717.04 712.1 703.47 697.88 691.43 685.84 679.52 674.03 669.94 662.88 657.72 652.57 648.79 644.77 640.44 637.05 633.62 630.71 627.99 625.7 622.77 619.9 616.08 613.91 610.6 607.88 603.16 598.58 594.2 588.97 583.38 583.42 580.45 578.02 575.89 573.11 568.35 561.95 555.21 551.62 545.57 539.89 533.97 527.58 517.61 509.15 498.69 492.43 481.67 475.42 470.22 465.63 459.87 454.7 450.73 447.27 443.55 440.89 437 433.48 431.47 9999 9999 9999 9999 9999 9999 9999 9999 9999 9999 9999 9999 9999 9999 9999 9999 9999 9999 9999 9999 9999 9999 9999 9999 9999 9999 9999 9999 9999 9999 9999 9999 9999 9999 9999 9999 9999 9999 9999 9999 9999 9999 9999 9999 9999 9999 9999 9999 9999 9999 9999 9999 9999 9999 9999 9999 9999 9999 9999 9999 9999 9999 9999 9999 9999 9999 9999 9999 9999 9999 9999 9999 9999 9999 9999 9999 9999 9999 9999 9999 9999 9999 9999 9999 9999 9999 9999 9999 9999 9999 9999 9999 9999 9999 9999 9999 9999 9999 9999 9999 9999 9999 9999 9999 9999 9999 9999 9999 9999 9999 9999 9999 9999 9999 9999 9999 9999 9999 9999 9999 9999 9999 9999 9999 9999 9999 9999 9999 9999 9999 9999 9999 9999 9999 9999 9999 9999 9999 9999 9999 9999 9999 9999 9999 9999 9999 9999 9999 429.64 430.34 430.61 430.92 431.17 431.57 431.85 432.6 433.07 433.35 434.27 434.22 435.78 441.2 442.87 442.23 442.75 443.09 441.97 444.05 444.05 444.12 447.01 449.9 456.54 460.98 464.52 469.23 473.1 476.52 479.42 482.75 486.44 489.38 493.16 495.29 497.72 500.19 501.63 503.91 503.29 503.54 503.35 503.54 503.11 503.31 504.42 506.85 509.57 511.95 515.75 518.16 518.87 520.48 523.25 526.94 532.79 539.74 543.68 546.73 549.87 553.25 556.25 559.36 565.81 569.9 573.65 576.75 580.38 583.25 586.94 591.1 595.73 599.07 602.13 605.18 607.63 610.74 615.44 619.95 622.71 626.18 629.75 632.88 635.45 638.27
652.99 656.58 658.86 663.43 666.93 668.88 673.2 676.03 680.28 682.61 684.47 687.5 690.46 693.17 696.19 698 700.18 703.66 706.46 709.71 712.94 715.83 717.16 719.34 721.82 723.95 725.52 726.37 728.08 729.15 730.02 729.99 729.79 728.87 727.45 726.34 723.96 720.13 713.87 707.9 700.56 695.52 689.7 684.32 679.48 673.13 666.06 660.6 655.17 651.34 647.28 643.39 639.23 633.63 632.02 628.54 624.97 623.39 620.54 617.86 614.02 610.81 606.77 604.56 600.61 596.55 591.81 585.28 581.28 577.69 574.68 572.04 569.93 566.62 559.73 554.35 547.9 542.9 537.08 532.57 529.49 520.26 511.73 502.11 494.06 485.05 478.69 474.46 467.22 463.58 459.11 454.25 450.3 446.74 443.28 439.17 437 434.31 432.47 428.97 9999 9999 9999 9999 9999 9999 9999 9999 9999 9999 9999 9999 9999 9999 9999 9999 9999 9999 9999 9999 9999 9999 9999 9999 9999 9999 9999 9999 9999 9999 9999 9999 9999 9999 9999 9999 9999 9999 9999 9999 9999 9999 9999 9999 9999 9999 9999 9999 9999 9999 9999 9999 9999 9999 9999 9999 9999 9999 9999 9999 9999 9999 9999 9999 9999 9999 9999 9999 9999 9999 9999 9999 9999 9999 9999 9999 9999 9999 9999 9999 9999 9999 9999 9999 9999 9999 9999 9999 9999 9999 9999 9999 9999 9999 9999 9999 9999 9999 9999 9999 9999 9999 9999 9999 9999 9999 9999 9999 9999 9999 9999 9999 9999 9999 9999 9999 9999 9999 9999 9999 9999 9999 9999 9999 9999 9999 9999 9999 9999 9999 9999 9999 9999 9999 9999 9999 9999 9999 9999 9999 9999 9999 9999 9999 9999 9999 428.4 429.41 429.11 429.99 430.75 431.27 431.1 431.33 431.81 432.37 433.32 433.28 433.96 434.12 436.02 436.18 441.16 441.63 441.29 441.36 442.97 441.15 442.66 443.02 445.23 449.42 456.64 460.63 464.71 468.54 472.67 476.9 479.87 483.07 485.33 486.86 488.94 492.11 496.5 497.4 500.11 500.74 500.35 499.3 499.19 499.44 501.27 503.82 506.35 509.75 513.2 517.26 517.91 518.04 519.3 522.07 525.14 530.99 535.25 539.44 542.26 547.26 549.58 552.64 557.49 560.5 564.43 568.86 574.65 578.3 580.98 586.16 588.94 592.99 597.01 600.5 603.68 606.75 610.39 615.16 618.46 621.69 624.36 628.42 631.11 634.27 637.91
652.95 656.37 660.55 663.19 666.71 670.91 675.68 677.7 680.56 683.97 685.87 688.95 691.41 694.24 696.16 698.35 701.5 705.27 708.72 711.95 714.35 716.43 718.02 720.9 722.92 725.21 726.73 727.51 729.08 729.17 730 730.07 729.71 728.2 727.84 725.4 721.99 718.1 711.48 705.12 699.56 694.51 687.06 681.68 674.49 669.45 663.22 658.53 653.39 649.54 645.85 641.87 636.43 632.06 628.9 627.07 622.74 620.37 617.27 614.39 612.74 610.41 606.88 603.07 599.38 593.86 587.01 582.02 578.58 574.76 571.15 567.39 563.97 557.34 551.81 546.75 542.72 536.51 532 526.71 519.49 511.93 503.4 496.51 488.56 481.63 477.72 472.32 466.93 462.95 457.74 454.48 449.92 447.26 442.75 439.63 437.03 435.16 433.87 430.53 428.35 9999 9999 9999 9999 9999 9999 9999 9999 9999 9999 9999 9999 9999 9999 9999 9999 9999 9999 9999 9999 9999 9999 9999 9999 9999 9999 9999 9999 9999 9999 9999 9999 9999 9999 9999 9999 9999 9999 9999 9999 9999 9999 9999 9999 9999 9999 9999 9999 9999 9999 9999 9999 9999 9999 9999 9999 9999 9999 9999 9999 9999 9999 9999 9999 9999 9999 9999 9999 9999 9999 9999 9999 9999 9999 9999 9999 9999 9999 9999 9999 9999 9999 9999 9999 9999 9999 9999 9999 9999 9999 9999 9999 9999 9999 9999 9999 9999 9999 9999 9999 9999 9999 9999 9999 9999 9999 9999 9999 9999 9999 9999 9999 9999 9999 9999 9999 9999 9999 9999 9999 9999 9999 9999 9999 9999 9999 9999 9999 9999 9999 9999 9999 9999 9999 9999 9999 9999 9999 9999 9999 9999 9999 9999 9999 428.98 429.9 430.43 430.55 430.71 430.17 430.86 431.34 431.83 432.07 432.24 432.06 432.79 432.75 433.8 434.86 436.09 437.62 438.26 438.9 440.43 440.71 440.62 441.23 442.04 442.48 445.16 448.27 456.47 460.24 464.23 467.51 471 475.81 477.14 482.48 483.06 485.76 487 489.26 492 493.53 496.86 497.32 496.3 497.19 498.79 501.2 503.15 506.2 510.32 512.96 514.97 515.74 514.11 517.46 520.67 524.86 528.94 532.7 535.57 538.56 540.82 544.97 549.44 553.52 557.16 560.6 565.7 570.69 574.79 579.15 584.05 587.16 592.13 595 598.52 601.23 604.81 609.19 612.52 616.54 620.3 623.1 626.39 629.97 633.54 636.72
654.69 657.79 661.14 663.12 667.33 672.7 675.99 677.8 681.53 684.27 686.53 689.51 691.8 694.77 697.47 700.61 703.23 706.32 710.03 712.5 715.85 717.81 720.56 722.79 724.67 726.14 727.54 728.34 729.43 730.12 730.74 729.95 729.23 728.35 726.67 724.4 719.72 716.23 709.43 702.76 697.73 691.97 685.55 677.84 672.98 668.05 662.04 657.13 652.86 648.13 642.51 637.68 634.01 630.28 626.38 623.76 621.85 618.1 614.58 611.79 609.36 606.68 603.94 601.82 599.18 591.57 586.71 581.13 576.17 570.71 565.73 563.91 558.36 552.67 547.48 541.7 535.5 529.4 524.03 519.34 513.38 506.03 497.18 489.86 484.32 480.31 474.74 470.56 466.39 461.04 456.45 453.55 449.66 445.33 442.6 439.6 437.28 435.69 433.71 432.57 429.22 9999 9999 9999 9999 9999 9999 9999 9999 9999 9999 9999 9999 9999 9999 9999 9999 9999 9999 9999 9999 9999 9999 9999 9999 9999 9999 9999 9999 9999 9999 9999 9999 9999 9999 9999 9999 9999 9999 9999 9999 9999 9999 9999 9999 9999 9999 9999 9999 9999 9999 9999 9999 9999 9999 9999 9999 9999 9999 9999 9999 9999 9999 9999 9999 9999 9999 9999 9999 9999 9999 9999 9999 9999 9999 9999 9999 9999 9999 9999 9999 9999 9999 9999 9999 9999 9999 9999 9999 9999 9999 9999 9999 9999 9999 9999 9999 9999 9999 9999 9999 9999 9999 9999 9999 9999 9999 9999 9999 9999 9999 9999 9999 9999 9999 9999 9999 9999 9999 9999 9999 9999 9999 9999 9999 9999 9999 9999 9999 9999 9999 9999 9999 9999 9999 9999 9999 9999 9999 9999 9999 9999 9999 9999 9999 9999 428.97 430.21 430.17 430.5 430.86 430.81 431.19 431.66 431.07 431.98 432.74 433.07 433.14 433.88 433.89 434.9 435.51 436.27 438.05 438.18 438.58 438.62 439.93 440.18 441.74 443.25 446.3 450.77 454.12 457.25 463.33 466.17 470.41 473.88 476.56 479.04 480.31 483.39 483.37 487 487.96 490.6 492.69 494.8 497.36 499.47 502.96 504.66 504.73 506.76 507.66 509.73 511.82 511.96 515.73 520.33 522.39 525.95 529.77 532.35 535.44 538.11 542.35 546.69 550.44 553.07 557.27 562.53 567.54 573.31 576.54 580.51 583.2 587.41 592.77 597.36 600.72 603.96 606.69 610.08 613.07 618.38 621.93 626.03 629.39 631.77 634.54
654.61 658.29 660.15 664.78 668.59 672.53 675.54 678.63 681.15 683.68 686.42 688.69 691.99 695.21 698.68 700.92 704.37 707.23 710.79 713.77 716.28 719.44 721.37 723.4 724.74 726.4 727.97 729.32 729.57 729.78 730.34 729.65 729.46 727.24 725.51 722.59 718.73 714.03 707.6 701.96 696.64 689.36 679.59 675.95 671.32 665.93 661.31 655.47 651.29 645.68 641.3 636.73 632.62 628.62 625.63 622.25 618 615.12 611.83 609.69 606.27 603.76 602.09 598.32 595.22 590.63 585.68 580.16 573.82 567.64 563.64 557.2 552.38 547.23 543.34 537.64 531.55 526.34 519.07 513.03 505.19 498.75 493.31 488.05 484.31 478.46 473.61 469.22 465.06 460.6 456.95 452.03 448.3 445.81 442.76 441.11 438.94 437.78 434.78 432.04 430.51 9999 9999 9999 9999 9999 9999 9999 9999 9999 9999 9999 9999 9999 9999 9999 9999 9999 9999 9999 9999 9999 9999 9999 9999 9999 9999 9999 9999 9999 9999 9999 9999 9999 9999 9999 9999 9999 9999 9999 9999 9999 9999 9999 9999 9999 9999 9999 9999 9999 9999 9999 9999 9999 9999 9999 9999 9999 9999 9999 9999 9999 9999 9999 9999 9999 9999 9999 9999 9999 9999 9999 9999 9999 9999 9999 9999 9999 9999 9999 9999 9999 9999 9999 9999 9999 9999 9999 9999 9999 9999 9999 9999 9999 9999 9999 9999 9999 9999 9999 9999 9999 9999 9999 9999 9999 9999 9999 9999 9999 9999 9999 9999 9999 9999 9999 9999 9999 9999 9999 9999 9999 9999 9999 9999 9999 9999 9999 9999 9999 9999 9999 9999 9999 9999 9999 9999 9999 9999 9999 9999 9999 9999 9999 9999 9999 429.04 430.71 430.67 431.94 431.16 430.77 430.97 431.14 431.63 431.45 432.75 432.37 432.99 433.43 434.32 434.75 435.07 435.08 436.28 436.82 437.69 437.63 438.14 438.49 440.29 442.47 445.16 447.78 450.9 454.73 455.87 460 463.9 469.02 471.08 474.13 476.56 477.42 478.33 482.1 485.29 487.83 490.87 493.88 497.88 500.22 502.93 504.79 504.34 504.65 504.25 506.72 506.96 508.87 512.49 517.94 520.85 524.5 527.6 530.89 533.45 535.69 539.83 543.42 547.13 550.14 553.92 559.9 564.07 568.58 574.4 578.1 580.96 585.36 588.72 594.42 598.33 602.41 605.54 608.21 612.07 615.53 620.43 624.19 627.42 630.63 633.46
654.72 657.46 661.3 664.2 668.09 671.88 674.63 677.73 680.41 682.97 686.13 688.63 694.66 697.31 699.43 701.92 704.11 707.73 711.42 714.46 717.43 719.94 721.99 724.07 725.14 726.65 728.4 729.1 729.72 730.25 729.78 728.93 728.35 726.92 724.61 720.71 716.27 709.63 703.51 700.73 694.67 684.86 677.49 672.78 667.97 663.38 658.15 653.98 649.18 644.31 639.69 635.01 630.99 627.21 624.82 620.07 616.74 613.57 610.62 607.3 604.69 600.04 598.11 595.77 592.58 588.3 584.38 578.89 572.44 564.03 559.29 555.12 548.76 543.92 538.54 532.37 525.18 519.73 515.53 508.75 503.01 496.88 492.34 487.36 481.59 477.9 472.1 468.15 464.19 459.59 456 452.08 449.37 446.1 443.9 441.61 441.25 438.88 436.03 434.05 431.67 9999 9999 9999 9999 9999 9999 9999 9999 9999 9999 9999 9999 9999 9999 9999 9999 9999 9999 9999 9999 9999 9999 9999 9999 9999 9999 9999 9999 9999 9999 9999 9999 9999 9999 9999 9999 9999 9999 9999 9999 9999 9999 9999 9999 9999 9999 9999 9999 9999 9999 9999 9999 9999 9999 9999 9999 9999 9999 9999 9999 9999 9999 9999 9999 9999 9999 9999 9999 9999 9999 9999 9999 9999 9999 9999 9999 9999 9999 9999 9999 9999 9999 9999 9999 9999 9999 9999 9999 9999 9999 9999 9999 9999 9999 9999 9999 9999 9999 9999 9999 9999 9999 9999 9999 9999 9999 9999 9999 9999 9999 9999 9999 9999 9999 9999 9999 9999 9999 9999 9999 9999 9999 9999 9999 9999 9999 9999 9999 9999 9999 9999 9999 9999 9999 9999 9999 9999 9999 9999 9999 9999 9999 9999 9999 428.85 429.63 431.11 430.63 430.58 430.84 431.21 431.11 431.49 431.54 431.83 432.21 432.53 432.38 433.24 433.47 433.59 434.11 434.24 434.98 434.99 435.94 436.33 436.88 438.18 439.57 440.12 441.69 444.15 448.7 452.26 455.04 456.94 458.88 461.64 463.81 466.2 471.73 473.73 476.08 480.65 482.54 486.01 488.33 493.49 495.52 499.43 501.72 502.35 503.36 502.75 502.83 505.25 505.87 508.07 511.33 515.14 519.12 521.74 525.54 529.98 531.95 533.39 536.15 538.71 541.71 546.85 552.05 556.37 560.7 565.09 569.01 573.3 577.6 584.37 587.98 591.18 595.79 598.71 602.68 605.72 609.66 614.74 618.75 620.69 625.83 628.13 630.88
654.2 656.67 660.24 664.16 668.98 671.12 673.44 676.56 679.08 682.06 684.07 691.23 695.2 696.67 699.31 700.85 703.55 707.21 711.16 714.96 717.6 719.41 722.17 724.3 725.52 726.74 727.91 728.6 728.96 729.13 729.13 728.91 727.3 725.56 722.93 719 713.58 707.5 702.49 696.9 688.21 680.77 675.75 671.36 666.07 661.3 657.08 651.67 647.82 642.82 639.57 634.62 630.28 625.49 621.03 617.35 614.35 611.2 608.86 605.63 601.8 596.79 593.75 591.49 588.18 586.03 581.69 577.42 568.32 562.51 557.72 551.55 545.28 540.99 535.43 529.37 523.34 519.12 512.98 506.72 500.86 495.76 489.63 485.37 480.97 476.81 471.5 467.32 463.42 458.93 455.87 452.65 449.78 447.87 445.17 443.14 441.57 438.53 436.48 434.47 433.05 430.41 9999 9999 9999 9999 9999 9999 9999 9999 9999 9999 9999 9999 9999 9999 9999 9999 9999 9999 9999 9999 9999 9999 9999 9999 9999 9999 9999 9999 9999 9999 9999 9999 9999 9999 9999 9999 9999 9999 9999 9999 9999 9999 9999 9999 9999 9999 9999 9999 9999 9999 9999 9999 9999 9999 9999 9999 9999 9999 9999 9999 9999 9999 9999 9999 9999 9999 9999 9999 9999 9999 9999 9999 9999 9999 9999 9999 9999 9999 9999 9999 9999 9999 9999 9999 9999 9999 9999 9999 9999 9999 9999 9999 9999 9999 9999 9999 9999 9999 9999 9999 9999 9999 9999 9999 9999 9999 9999 9999 9999 9999 9999 9999 9999 9999 9999 9999 9999 9999 9999 9999 9999 9999 9999 9999 9999 9999 9999 9999 9999 9999 9999 9999 9999 9999 9999 9999 9999 9999 9999 9999 9999 9999 9999 9999 429.9 430.49 430.89 430.69 430.95 430.95 430.79 431.63 430.72 431.32 432 432.32 432.77 432.89 432.73 433.18 433.47 433.98 433.56 434.21 434.81 435.39 435.73 436.75 437.73 439.1 441.14 442.97 444.98 450.36 452.93 454.59 456.86 458.57 459.74 462.13 465.79 469.4 473.42 478.33 480.94 483.71 486.81 489.34 491.92 494.91 498.64 500.12 500.51 500.34 500.23 502.37 504.76 507.41 510.41 514.23 518.53 520.19 521.81 524.93 527.09 530.76 533.06 535.94 538.54 543.09 547.43 551.9 556.17 561.68 565.65 570.35 576.01 580.66 585.14 588.72 593.19 596.41 601.18 605.68 608.14 611.73 614.92 618.77 622.11 626.73 629.8
653.94 656.44 659.17 663.99 666.92 669.8 672.46 675.52 677.03 680.61 685.97 689.03 691.58 695.19 698.22 699.73 702.94 707.19 709.74 713.23 716.5 719.69 722.15 724.37 725.73 726.97 727.77 727.57 727.76 727.19 727.92 727.09 724.97 723.71 719.54 714.95 710.3 704.98 699.4 691.93 685.46 679.06 674.59 669.35 663.8 659.46 653.55 650.38 646.41 641.56 636.58 631.58 626.93 623.03 620.17 616.23 612.53 609 606.47 603.05 597.77 594.33 590.57 588.21 585.44 582.62 578.21 572.93 567.56 562.47 557.76 550.4 544.89 537.7 530.46 525.29 521.83 516.11 510.76 504.96 499.23 492.97 488.44 484.25 480.89 475.98 471.12 467.83 463.03 459.31 456.12 453.08 450.89 447.49 445.16 443.27 441.2 439.3 437.72 435.23 433.24 431.18 430.34 428.64 9999 9999 9999 9999 9999 9999 9999 9999 9999 9999 9999 9999 9999 9999 9999 9999 9999 9999 9999 9999 9999 9999 9999 9999 9999 9999 9999 9999 9999 9999 9999 9999 9999 9999 9999 9999 9999 9999 9999 9999 9999 9999 9999 9999 9999 9999 9999 9999 9999 9999 9999 9999 9999 9999 9999 9999 9999 9999 9999 9999 9999 9999 9999 9999 9999 9999 9999 9999 9999 9999 9999 9999 9999 9999 9999 9999 9999 9999 9999 9999 9999 9999 9999 9999 9999 9999 9999 9999 9999 9999 9999 9999 9999 9999 9999 9999 9999 9999 9999 9999 9999 9999 9999 9999 9999 9999 9999 9999 9999 9999 9999 9999 9999 9999 9999 9999 9999 9999 9999 9999 9999 9999 9999 9999 9999 9999 9999 9999 9999 9999 9999 9999 9999 9999 9999 9999 9999 9999 9999 9999 9999 429.06 430.11 430.42 430.97 430.34 431.2 431.1 431.39 431.08 431.91 431.82 432.01 432.08 432.2 432.45 432.93 433.35 433.39 433.37 432.93 432.05 433.58 434.84 435.15 435.07 436.91 438.17 439.7 441.24 444.76 447.53 452.7 454.55 455.35 456.01 457.01 460.27 462.65 466.54 471.02 476.31 478.9 481.47 485.67 488.15 489.07 491.36 493.88 494.99 495.8 497.99 499.19 501.9 504.44 507.45 509.8 513.16 516.43 518.7 519.17 521.47 523.59 525.7 527.85 530.53 536.19 540.05 544.06 547.98 552.41 556.98 561.38 566.43 572.99 577.35 582.27 586.01 589.17 592.5 597.14 602.33 607.06 608.99 612.98 616.26 619.2 623.87 627.84
652.56 654.81 659.83 662.08 665.18 667.68 669.56 672.85 673.7 678.52 684.2 686.73 689.39 692.6 694.05 695.73 700.06 704.66 708.36 711.61 716.43 719.62 721.69 723.51 725.05 726.35 726.48 726.3 726.95 726.53 725.52 723.31 721.35 720.33 717.06 711.88 707.59 700.98 694.8 689.7 683.14 678.6 673.4 667.88 660.53 655.15 652.36 647.94 644.06 640.11 635.07 630.43 624.35 620.85 617.49 613.19 610.9 606.88 604.84 599.84 595.75 591.42 587.7 584.57 583.25 579.53 574.36 570.57 566.03 561.01 556.21 549.43 543.26 533.81 527.48 522.68 517.32 513.71 509.8 502.59 496.4 491.02 486.91 483.63 479.09 474.82 470.39 465.68 462.66 459.27 455.44 453.13 450.24 448.44 444.72 441.99 440.21 439.05 438.49 435.25 433.56 431.52 430.13 429.78 9999 9999 9999 9999 9999 9999 9999 9999 9999 9999 9999 9999 9999 9999 9999 9999 9999 9999 9999 9999 9999 9999 9999 9999 9999 9999 9999 9999 9999 9999 9999 9999 9999 9999 9999 9999 9999 9999 9999 9999 9999 9999 9999 9999 9999 9999 9999 9999 9999 9999 9999 9999 9999 9999 9999 9999 9999 9999 9999 9999 9999 9999 9999 9999 9999 9999 9999 9999 9999 9999 9999 9999 9999 9999 9999 9999 9999 9999 9999 9999 9999 9999 9999 9999 9999 9999 9999 9999 9999 9999 9999 9999 9999 9999 9999 9999 9999 9999 9999 9999 9999 9999 9999 9999 9999 9999 9999 9999 9999 9999 9999 9999 9999 9999 9999 9999 9999 9999 9999 9999 9999 9999 9999 9999 9999 9999 9999 9999 9999 9999 9999 9999 9999 9999 9999 9999 9999 9999 9999 9999 429.86 429.2 430.21 430.58 430.49 430.69 430.53 431.51 431.03 431.17 431.47 431.31 431.86 432.3 432.85 432.56 431.86 432.92 433.07 433.07 431.32 9999 431.76 432.6 434.22 434.9 435.92 437.17 439.14 441.78 443.66 445.15 449.57 452.41 455.26 456.21 458 458.32 460.69 464.08 468.29 471.69 477.31 480.03 482.47 484.43 485.62 488.61 490.12 491.22 492.11 493.85 497.66 500.43 503.86 507.22 509.63 513.56 514.78 516.49 517.41 518.5 520.81 523.14 526.16 528.58 531.28 535.18 538.58 544.13 548.8 553.38 559.24 563.45 567.68 572.09 576.99 582.61 586.18 589.93 593.88 598.38 601.8 605.33 610.58 613.86 618.11 621.82 624.69
651.23 655.43 657.56 661.11 663.36 665.89 667.69 669.57 671.63 675.48 679.78 681.83 684 689.24 691.8 694.54 697.2 700.71 703.88 709.91 714.64 718.87 721.55 723.44 724.11 725.28 725.5 725.18 726.05 725.21 723.76 721.92 718.99 716.34 711.81 707.47 701.75 698.06 694.51 689.37 683.22 676.05 670.11 662.72 658.61 653.64 649.57 645.38 642.03 637.58 631.88 627.66 623.63 619.88 616.35 611.76 608.88 604.24 601.43 597.25 593.4 589.83 585.28 582.65 578.69 574.09 570.77 568.39 563.52 558.79 555.65 550.05 538.62 534.39 525.58 519.65 515.76 509.52 505.59 499.52 494.79 489.82 486.15 481.36 477.2 473.38 468.08 464.13 460.91 457.71 454.9 451.76 448.83 446 442.86 439.2 437.78 436.5 436.97 434.19 432.27 431.18 431.67 430.36 9999 9999 9999 9999 9999 9999 9999 9999 9999 9999 9999 9999 9999 9999 9999 9999 9999 9999 9999 9999 9999 9999 9999 9999 9999 9999 9999 9999 9999 9999 9999 9999 9999 9999 9999 9999 9999 9999 9999 9999 9999 9999 9999 9999 9999 9999 9999 9999 9999 9999 9999 9999 9999 9999 9999 9999 9999 9999 9999 9999 9999 9999 9999 9999 9999 9999 9999 9999 9999 9999 9999 9999 9999 9999 9999 9999 9999 9999 9999 9999 9999 9999 9999 9999 9999 9999 9999 9999 9999 9999 9999 9999 9999 9999 9999 9999 9999 9999 9999 9999 9999 9999 9999 9999 9999 9999 9999 9999 9999 9999 9999 9999 9999 9999 9999 9999 9999 9999 9999 9999 9999 9999 9999 9999 9999 9999 9999 9999 9999 9999 9999 9999 9999 9999 9999 9999 9999 9999 9999 429.81 429.65 429.7 430.84 430.56 431.09 430.11 431.03 430.66 430.69 431.14 431.46 431.83 431.44 432.39 432.15 432.43 432.57 432.88 432.53 432.68 431.88 9999 9999 433.05 433.45 434.07 434.84 435.66 439.09 441 442.46 444.16 446.3 448.6 451.68 456.72 455.93 457.38 459.29 462.13 464.68 468.25 473.62 477.48 479.22 481.57 482.95 484.27 484.82 485.55 489.67 493 496.39 499.1 501.09 505.12 509.05 511.86 513.2 514.99 515.24 516.93 518.1 520.65 522.3 525.92 528.71 531.52 535.52 539.03 545.5 550.01 556.31 560.42 564.47 568.37 573.14 578.36 580.98 584.91 590.11 594.42 598.71 602.29 605.37 611.6 614.91 619.99 623.5
650.4 652.87 656.63 659.25 661.8 664 664.61 666.78 668.11 670.39 673.84 676.67 679.63 681.47 685.37 689.42 694.67 697.54 701.81 707.61 712.69 717.82 720.34 721.74 723.76 724.06 723.59 723.6 723.46 722.83 721.19 719.03 717.53 713.79 710.01 704.35 700.99 697.22 692.4 686.89 681.14 674.54 666.09 660.43 655.2 650.34 646.15 643.5 639.89 633.91 629.32 625.02 620.51 617.34 612.8 609.84 605.86 602.2 598.79 595.29 590.43 587.18 582.69 578.98 574.35 571.15 567.07 563.05 560.15 556.1 550.64 547.14 539.27 532.58 524.88 517.7 511.25 507 500.79 496.16 492.73 487.79 483.35 479.81 476.1 471.16 467.27 463.73 461.22 457.61 453.32 450.5 446.35 441.97 439.48 436.94 436.2 435.55 435.04 434.32 433.19 432.01 431.3 430.39 9999 9999 9999 9999 9999 9999 9999 9999 9999 9999 9999 9999 9999 9999 9999 9999 9999 9999 9999 9999 9999 9999 9999 9999 9999 9999 9999 9999 9999 9999 9999 9999 9999 9999 9999 9999 9999 9999 9999 9999 9999 9999 9999 9999 9999 9999 9999 9999 9999 9999 9999 9999 9999 9999 9999 9999 9999 9999 9999 9999 9999 9999 9999 9999 9999 9999 9999 9999 9999 9999 9999 9999 9999 9999 9999 9999 9999 9999 9999 9999 9999 9999 9999 9999 9999 9999 9999 9999 9999 9999 9999 9999 9999 9999 9999 9999 9999 9999 9999 9999 9999 9999 9999 9999 9999 9999 9999 9999 9999 9999 9999 9999 9999 9999 9999 9999 9999 9999 9999 9999 9999 9999 9999 9999 9999 9999 9999 9999 9999 9999 9999 9999 9999 9999 9999 9999 9999 9999 9999 429.23 430.04 429.9 430.2 429.99 430.01 431.18 431.33 430.32 430.91 431.51 431.14 431.62 432.19 431.73 430.92 431.76 432.29 432.45 432.51 432.64 432.8 9999 9999 433.08 433.38 433.43 434.11 435.75 437.96 440.13 440.88 443.55 445.51 447.33 451 453.75 453.61 455.34 455.84 459.9 463.66 467.44 471.37 473.29 475.85 477.37 480.59 480.86 481.06 483.29 487.25 491.12 493.87 497.79 499.37 504.01 506.27 509.45 510.52 512.04 513.17 515.23 517.21 518.96 520.48 522.29 524.1 527.11 531.87 537.83 542.25 546.64 550.9 554.66 558.28 564.45 570.63 573.6 577.3 580.94 583.78 588.21 591.8 600.1 604.05 608.11 611.81 615.28 618.91
647.69 649.43 653.18 656.54 659.66 661.38 662.47 663.96 664.72 666.23 668.33 671.28 676.34 679.33 683.27 686.39 688.98 692.33 695.6 702.83 709.78 713.07 715.34 716.35 718.17 718.91 719.45 721.11 720.21 718.89 717.75 715.11 712.24 707.88 704.55 703.49 699.82 694.41 690.06 685.11 678.16 668.9 661.43 657.88 652.8 647.75 643.43 641.26 635.68 631.6 627.27 623.65 619.21 614.79 610.02 606.04 602.43 598.98 596.82 592.66 589.13 585.42 580.05 576.47 571.66 566.45 564.07 559.35 556.64 552.38 549.99 547.87 540.49 532.84 524.93 515.47 507.08 502.89 498.31 493.26 488.96 484.68 481.46 476.27 472.59 467.94 464.98 461.79 459.26 457.25 452.68 447.86 444.57 440.78 438.11 441.62 441.23 437.69 436.1 434.95 434.58 433.43 432.49 431.03 9999 9999 9999 9999 9999 9999 9999 9999 9999 9999 9999 9999 9999 9999 9999 9999 9999 9999 9999 9999 9999 9999 9999 9999 9999 9999 9999 9999 9999 9999 9999 9999 9999 9999 9999 9999 9999 9999 9999 9999 9999 9999 9999 9999 9999 9999 9999 9999 9999 9999 9999 9999 9999 9999 9999 9999 9999 9999 9999 9999 9999 9999 9999 9999 9999 9999 9999 9999 9999 9999 9999 9999 9999 9999 9999 9999 9999 9999 9999 9999 9999 9999 9999 9999 9999 9999 9999 9999 9999 9999 9999 9999 9999 9999 9999 9999 9999 9999 9999 9999 9999 9999 9999 9999 9999 9999 9999 9999 9999 9999 9999 9999 9999 9999 9999 9999 9999 9999 9999 9999 9999 9999 9999 9999 9999 9999 9999 9999 9999 9999 9999 9999 9999 9999 9999 9999 9999 9999 429.4 429.46 430.02 429.86 430.57 430.19 430.56 9999 429.01 431.06 430.74 431.45 431.05 431.88 431.59 432.15 430.12 9999 432.02 432.46 432.55 431.97 432.36 432.52 432.64 432.87 432.99 434.13 434.19 435.29 436.81 438.44 440.78 441.93 444.07 446.01 448.33 449.75 452.37 451.89 454.4 458.05 460.35 463.89 468.12 469.98 472.76 475.39 476.33 476.34 478.65 482.89 486.54 489.25 490.74 493.84 496.49 500.12 504.74 507.42 508.19 509.18 510.49 512.58 515.44 516.75 518.69 520.84 521.77 524.65 528.99 532.89 537.48 543.54 547.32 551.29 555.38 560.39 564.07 567.93 570.4 575.8 579.39 583.26 590.19 594.05 599.18 603.06 608.81 612.98 616.1
645.01 646.89 649.87 652.84 656.36 657.13 658.14 660.62 662.1 664.28 666.15 669.6 672.06 674.57 677.6 683.17 686.94 689.16 693.28 699.02 704.28 709.59 711.91 714.48 715.5 715.97 717.25 717.12 716.42 714.64 713.26 710.05 709.13 705.27 703.16 699.42 694.7 689.79 686.31 679.98 671.81 665.11 657.75 653.46 648.32 643.8 641.69 637.15 632.71 630.13 625.95 620.94 617.35 612.98 607.74 604.91 601.17 597.59 593.86 589.43 585.6 579.77 577.61 573.19 569.57 564.95 560.08 555.86 551.63 549.93 548.3 547.36 541.34 533.23 524.07 511.7 504.69 500.73 496.28 492.1 487.75 483.73 478.46 474.43 471.16 467.86 463.51 460.32 457.57 453.79 449.71 446.19 444.24 439.25 441.07 444 442.17 440.35 439.86 438.26 435.69 435.13 433.75 431.94 429.24 9999 9999 9999 9999 9999 9999 9999 9999 9999 9999 9999 9999 9999 9999 9999 9999 9999 9999 9999 9999 9999 9999 9999 9999 9999 9999 9999 9999 9999 9999 9999 9999 9999 9999 9999 9999 9999 9999 9999 9999 9999 9999 9999 9999 9999 9999 9999 9999 9999 9999 9999 9999 9999 9999 9999 9999 9999 9999 9999 9999 9999 9999 9999 9999 9999 9999 9999 9999 9999 9999 9999 9999 9999 9999 9999 9999 9999 9999 9999 9999 9999 9999 9999 9999 9999 9999 9999 9999 9999 9999 9999 9999 9999 9999 9999 9999 9999 9999 9999 9999 9999 9999 9999 9999 9999 9999 9999 9999 9999 9999 9999 9999 9999 9999 9999 9999 9999 9999 9999 9999 9999 9999 9999 9999 9999 9999 9999 9999 9999 9999 9999 9999 9999 9999 9999 9999 428.66 429.4 430.12 430.13 430.81 430.61 430.84 430.57 431.04 430.81 430.75 431.37 431.56 431.61 432.19 431.35 432.29 431.83 432.03 431.68 432.04 432.55 432.59 432.34 432.84 432.88 433.14 433.23 433.72 434.46 435 435.45 437.16 439.94 442.4 442.73 445.18 445.61 447.49 448.61 450.56 453.44 456.26 459.21 461.48 463.24 465.56 468.14 472.06 472.52 474.57 477.71 480.47 483.26 484.17 488.21 490.94 494.07 497.78 500.46 503.43 505.67 505.91 509.21 510.81 512.92 514.63 516.29 517.81 519.51 523.52 525.96 529.86 534.26 538.53 543.16 545.89 553.22 556.89 560.75 564.14 567.07 569.99 573.72 580.87 587.59 591.87 595.6 599.88 603.91 608 612.24
641.22 642.28 645.57 649.27 650.69 652.64 654.56 656.44 657.78 659.25 662.9 666.51 669.08 670.62 674.31 677.2 681.47 685.46 690.08 695.7 700.81 704.31 708.26 710.13 710.93 711.96 712.57 712.9 711.43 708.9 706.96 705.82 703.73 701.22 699.01 694.24 689.17 684.62 677.8 671.84 665.83 660.41 654.24 649.73 645.31 640.16 634.52 631.83 628.57 627.38 623.53 619.3 615.25 609.73 605.36 601.31 598.59 595.51 591.33 587.21 582.15 578.14 573.76 570.21 566.48 562.19 557.78 552.74 549.88 547.61 546.31 546.61 543.63 532.85 520.49 511.28 504.08 497.66 493.34 489.17 485.85 481.3 476.91 473.57 470.24 465.61 463.38 459.78 455.15 452.29 448.59 444.91 440.83 440.35 443.79 444.38 442.67 441.3 440.24 439.29 437.97 436.22 434.16 431.74 429.23 9999 9999 9999 9999 9999 9999 9999 9999 9999 9999 9999 9999 9999 9999 9999 9999 9999 9999 9999 9999 9999 9999 9999 9999 9999 9999 9999 9999 9999 9999 9999 9999 9999 9999 9999 9999 9999 9999 9999 9999 9999 9999 9999 9999 9999 9999 9999 9999 9999 9999 9999 9999 9999 9999 9999 9999 9999 9999 9999 9999 9999 9999 9999 9999 9999 9999 9999 9999 9999 9999 9999 9999 9999 9999 9999 429.7 9999 9999 9999 9999 9999 9999 9999 9999 9999 9999 9999 9999 9999 9999 9999 9999 9999 9999 9999 9999 9999 9999 9999 9999 9999 9999 9999 9999 9999 9999 9999 9999 9999 9999 9999 9999 9999 9999 9999 9999 9999 9999 9999 9999 9999 9999 9999 9999 9999 9999 9999 9999 9999 9999 9999 9999 9999 9999 9999 9999 429.22 429.88 430.21 430.75 430.59 430.64 430.93 430.83 430.81 430.85 431.47 431.46 431.54 431.65 431.58 431.79 431.42 431.93 431.66 432.05 431.96 432.12 432.59 432.95 432.62 433.32 433.4 433.41 433.7 434.24 434.19 435.33 435.55 438.26 439.92 441.95 443.98 443.44 444.65 447.36 449.46 451.23 453.63 457.21 459.19 461.2 462.71 465.91 466.51 469.37 471.24 476.3 477.76 480.47 482.27 484.71 487.04 489.86 494.32 497.67 500.27 502.13 504.24 506.18 508.21 510 512.57 514.73 517.12 519.12 520.43 523.22 526.19 531.3 534.57 539.98 543.5 547.32 552.27 556.01 560.12 563.53 567.06 573 577.41 582.45 587.15 590.88 596.5 600.35 605.24 608.93
639.14 640.64 642.1 643.73 646.03 648.24 651.39 653.41 654.91 657.09 658.69 661.49 663.88 666.16 670.61 673.01 677.95 681.68 684.34 688.32 691.92 699.72 702.04 703.7 704.81 706.56 706.53 705.58 703.26 704.55 703.67 701.49 699.64 696.05 691.07 687.24 682.25 678.38 672.58 667.52 660.71 653.59 647.98 644.39 637.84 635.54 632.69 629.46 625.91 623.44 620.52 616.46 611.02 608.81 604.18 600.54 596.46 593.18 588.19 582.94 580.04 576.3 571.89 568.05 564.58 560.4 554.19 551.08 547.19 545.91 544.67 545.03 541.54 526.89 513.98 506.75 503.47 496 491.01 487.17 482.04 478.78 475.33 471.88 468.9 464.41 461.55 457.24 454.53 450.89 448.09 444.45 440.21 441.85 445.05 444.69 443.69 441.96 441.11 439.62 438.65 435.85 434.97 432.71 9999 9999 9999 9999 9999 9999 9999 9999 9999 9999 9999 9999 9999 9999 9999 9999 9999 9999 9999 9999 9999 9999 9999 9999 9999 9999 9999 9999 9999 9999 9999 9999 9999 9999 9999 9999 9999 9999 9999 9999 9999 9999 9999 9999 9999 9999 9999 9999 9999 9999 9999 9999 9999 9999 9999 9999 9999 9999 9999 9999 9999 9999 9999 9999 9999 9999 9999 9999 9999 9999 9999 9999 9999 9999 429.82 429.59 428.88 9999 9999 9999 9999 9999 9999 9999 9999 9999 9999 9999 9999 9999 9999 9999 9999 9999 9999 9999 9999 9999 9999 9999 9999 9999 9999 9999 9999 9999 9999 9999 9999 9999 9999 9999 9999 9999 9999 9999 9999 9999 9999 9999 9999 9999 9999 9999 9999 9999 9999 9999 9999 9999 9999 9999 9999 9999 9999 9999 9999 429.3 429.36 430.35 430.64 430.51 430.68 430.54 430.74 430.14 431.15 430.61 431.6 431.72 431.81 431.45 431.79 431.51 431.69 432 432.21 431.8 432.3 432.29 432.56 432.33 432.54 433.23 432.97 433.11 433.63 434.18 435 436.1 437.43 438.88 440.6 441.63 442.24 442.8 446.22 447.74 449.13 450.1 452.43 454.89 456.94 459.8 463.36 463.83 464.7 467.69 471.16 473.37 475.93 480.36 482.91 484.43 487.08 490.59 493.88 497.09 500.42 502.73 505.3 507.03 508.78 511.02 513.94 515.29 517.43 519.28 521.86 524.79 527.94 532.84 536.09 541.27 544.56 548.72 552.58 555.45 559.75 564.11 569.9 574.78 579.25 583.63 587.9 593.51 596.91 600.52 605.39
636.63 638.51 639.47 641.22 643.75 645.57 647.07 648.77 651.39 654.76 657.03 658.91 661.61 663.46 666.54 669.66 672.89 676.91 680.41 683.87 687.97 690.89 694.4 695.8 696.72 700.09 700.13 699.66 698.75 697.79 696.74 694.95 694.28 690.19 685.04 680.09 673.25 668.79 664.03 658.19 655.77 649.5 644.47 639.12 634.37 631.31 628.73 625.53 623.17 620.93 615.92 612.51 607.93 605.5 603.1 598.7 595.24 589.81 584.79 581.62 577.73 573.13 569.13 564.66 562.21 557.76 552.42 548.47 545.02 542.2 540.75 540.67 531.17 521.51 510.89 504.29 500.91 494.08 487.92 484.99 480.68 477.38 473.83 470.75 466.87 462.77 459.5 456.79 454.68 450.24 446.43 441.43 443.77 445.83 445.56 445.17 444.32 442.92 441.21 440.37 438.28 436.99 435.11 433.84 431.57 9999 9999 9999 9999 9999 9999 9999 9999 9999 9999 9999 9999 9999 9999 9999 9999 9999 9999 9999 9999 9999 9999 9999 9999 9999 9999 9999 9999 9999 9999 9999 9999 9999 9999 9999 9999 9999 9999 9999 9999 9999 9999 9999 9999 9999 9999 9999 9999 9999 9999 9999 9999 9999 9999 9999 9999 9999 9999 9999 9999 9999 9999 9999 9999 9999 9999 9999 9999 9999 9999 9999 429.65 429.89 429.93 429.72 430.78 9999 9999 9999 9999 9999 9999 9999 9999 9999 9999 9999 9999 9999 9999 9999 9999 9999 9999 9999 9999 9999 9999 9999 9999 9999 9999 9999 9999 9999 9999 9999 9999 9999 9999 9999 9999 9999 9999 9999 9999 9999 9999 9999 9999 9999 9999 9999 9999 9999 9999 9999 9999 9999 9999 9999 9999 9999 9999 9999 430 429.03 430.49 430.16 430.46 430.53 430.33 430.19 430.16 430.68 431.34 431.55 431.45 431.37 431.69 431.48 431.92 431.36 431.64 431.73 431.64 431.35 432.41 432.47 432.37 432.88 432.87 433.38 433.26 433.48 433.76 434.44 434.73 435.26 435.85 437.52 439.45 440.33 440.77 440.94 442.27 444.34 446.48 448.59 451.36 453.73 455.65 457.66 458.88 459.88 461.48 464.81 467.94 469.9 472.46 476.26 479.38 482.04 485.96 488.83 492.89 495.56 498.26 501.14 503.12 506.03 507.98 510.19 512.51 514.73 516.05 518.13 520.01 523.15 528.33 531.11 534.24 537.35 542.12 545.68 549.1 553.89 557.07 560.68 565.17 569.9 573.42 580.15 586.3 590.26 594.19 597.31 601.99
636.34 636.27 637.34 638.7 641.86 643.16 645.37 648.22 649.69 651.74 654.11 656.68 658.49 661.95 665.21 667.67 670.36 673.49 676.63 679.68 683.42 687.19 690.52 692.54 693.61 695.36 694.67 693.8 693.66 692.69 691.77 689.54 685.17 681.03 675.51 668.05 667.44 662.4 657.52 653.63 648.82 643.99 638.05 634.85 631.95 628.98 626.61 623.87 620.61 616.32 611.89 608.69 605.06 603.6 600.43 597.08 591.11 586.92 583.1 578.99 574.91 571.68 568.35 561.43 558.48 555.28 552.03 547.29 543.57 540.07 535.86 533.93 528.26 519.36 510.95 503.31 499.73 492.27 484.58 482.05 478.36 475.34 471.87 469.17 465.87 461.34 458.55 456.21 452.57 449.21 445.37 442.51 446.53 446.65 447.15 446.95 445.78 444.05 442.06 439.92 439.13 436.89 435.79 434.33 432.76 9999 9999 9999 9999 9999 9999 9999 9999 9999 9999 9999 9999 9999 9999 9999 9999 9999 9999 9999 9999 9999 9999 9999 9999 9999 9999 9999 9999 9999 9999 9999 9999 9999 9999 9999 9999 9999 9999 9999 9999 9999 9999 9999 9999 9999 9999 9999 9999 9999 9999 9999 9999 9999 9999 9999 9999 9999 9999 9999 9999 9999 9999 9999 9999 9999 9999 9999 9999 9999 9999 429.33 430.5 429.9 429.53 430.48 429.99 427.33 9999 9999 9999 9999 9999 9999 9999 9999 9999 9999 9999 9999 9999 9999 9999 9999 9999 9999 9999 9999 9999 9999 9999 9999 9999 9999 9999 9999 9999 9999 9999 9999 9999 9999 9999 9999 9999 9999 9999 9999 9999 9999 9999 9999 9999 9999 9999 9999 9999 9999 9999 9999 9999 9999 9999 9999 9999 9999 428.82 429.5 429.8 430.6 430.16 429.94 430.45 9999 9999 431.07 430.74 431.16 431.24 431.07 431.38 431.22 431.69 431.51 431.09 431.92 431.74 431.38 432 432.08 432.56 432.52 432.15 433.33 433.36 433.25 434.08 433.86 434.33 435.31 435.15 436.51 437.13 438.43 438.97 440.66 440.44 441.54 443.81 447.48 449.87 451.4 453.82 455.5 456.24 458.33 459.99 462.69 464.09 466.46 470.27 474.01 476.49 480.2 484.62 487.91 491.25 494.48 497.73 499.63 501.95 505.03 506.59 508.48 511.24 513.3 514.74 516.45 519.11 522.62 525.25 528.65 532.72 536.05 540.14 542.59 546.83 549.42 553.15 558.25 562.08 566.25 570.27 575.64 580.14 585.21 589.26 594.9 598.64
634.45 635.38 636.34 638.02 639.79 641.55 643.59 645.69 648.39 650.36 652.53 654.89 657.07 660.14 662.61 665.87 669.19 671.82 674.36 677.22 681.1 683.85 686.23 688.78 689.9 690.11 690.48 690.23 688.32 686.73 683.36 681.99 677.96 674.36 667.95 664.41 660.32 656.65 652.5 649.37 645.12 638.81 634.18 631.34 628.97 625.44 623.72 621.84 617.94 615.66 612.21 607.22 604.47 601.63 598.02 594.19 589.78 585.33 581.79 576.36 573.01 569.04 564.95 561.36 557.51 553.77 551.63 547.1 542.57 536.38 531.8 529.23 523.9 515.02 508.24 502.6 492.72 486.48 483.24 479.59 477.55 474.97 470.57 466.12 463.69 460.36 457.74 455.59 452.29 448.45 444.6 445.53 446.86 447.87 448 448.21 447.14 445.54 442.34 441.37 439.56 438.28 436.56 435.2 433.53 430.36 9999 9999 9999 9999 9999 9999 9999 9999 9999 9999 9999 9999 9999 9999 9999 9999 9999 9999 9999 9999 9999 9999 9999 9999 9999 9999 9999 9999 9999 9999 9999 9999 9999 9999 9999 9999 9999 9999 9999 9999 9999 9999 9999 9999 9999 9999 9999 9999 9999 9999 9999 9999 9999 9999 9999 9999 9999 9999 9999 9999 9999 9999 9999 9999 9999 9999 9999 9999 430.2 432.56 433.56 429.94 429.55 430.61 431.11 430.06 429.07 9999 9999 9999 9999 9999 9999 9999 9999 9999 9999 9999 9999 9999 9999 9999 9999 9999 9999 9999 9999 9999 9999 9999 9999 9999 9999 9999 9999 9999 9999 9999 9999 9999 9999 9999 9999 9999 9999 9999 9999 9999 9999 9999 9999 9999 9999 9999 9999 9999 9999 9999 9999 9999 9999 9999 9999 9999 428.78 429.69 429.51 430.32 430.98 430.46 430.58 9999 9999 430.87 431.24 431.16 431.36 431.31 431.59 433.56 430.94 9999 9999 431.61 431.47 432.26 431.77 432.46 432.47 432.49 432.56 432.72 433.23 433.6 433.72 434.09 434.57 435.02 435.23 435.94 436.97 437.44 438.12 438.55 439.35 440.26 443.15 444.88 448.29 449.99 453.63 452.95 453.94 456.13 459.24 461.59 463.33 465.43 468.41 470.39 473.42 478.42 482.88 487.12 489.01 491.34 493.99 496.57 501.08 502.65 504.72 507.24 508.92 511.93 513.19 515.56 518.14 520.16 523.27 526.44 529.99 533.21 536.05 541.37 543.23 546.87 549.43 552.97 556.99 560.4 566.95 571.5 576.71 581.05 585.57 590.18 594.18
632.31 634.04 634.85 637.2 639.07 640.48 642.29 644.68 646.36 648.15 650.33 654.53 656.06 658.95 661.24 663.85 666.55 669.52 672.93 676.36 679.27 681.12 681.68 682.95 684.39 684.82 684.78 685.68 685.11 682.25 679.44 675.19 670.86 666.84 664.79 661.32 657.53 653.46 648.59 644.64 638.79 635.29 633.2 629.85 627.24 624.92 622.57 620.28 617.98 614.98 611.66 607.72 604.26 599.28 595.03 590.72 587.08 582.91 579.17 575.04 572.63 567.47 564.61 561.38 557.72 554.07 550.06 546.08 540.76 535.45 530.11 523.67 517.77 512.33 504.79 493.83 487.64 483.95 480.59 477.28 474.52 472.86 468.34 465.89 461.89 459.34 457.25 453.26 448.97 444.6 444.51 446.88 449.42 449.91 450.12 448.52 447.26 445.46 443.82 441.71 440.95 438.8 437.13 435.88 433 431.59 9999 9999 9999 9999 9999 9999 9999 9999 9999 9999 9999 9999 9999 9999 9999 9999 9999 9999 9999 9999 9999 9999 9999 9999 9999 9999 9999 9999 9999 9999 9999 9999 9999 9999 9999 9999 9999 9999 9999 9999 9999 9999 9999 9999 9999 9999 9999 9999 9999 9999 9999 9999 9999 9999 9999 9999 9999 9999 9999 9999 9999 9999 9999 9999 9999 9999 9999 429.8 431.12 429.83 431.04 430.71 429.64 432.39 434.74 433.18 9999 9999 9999 9999 9999 9999 9999 9999 9999 9999 9999 9999 9999 9999 9999 9999 9999 9999 9999 9999 9999 9999 9999 9999 9999 9999 9999 9999 9999 9999 9999 9999 9999 9999 9999 9999 9999 9999 9999 9999 9999 9999 9999 9999 9999 9999 9999 9999 9999 9999 9999 9999 9999 9999 9999 9999 9999 428.95 430.22 429.77 430.07 430.56 430.4 430.65 430.47 430.93 431.39 431.08 430.76 431.71 432 431.06 9999 9999 9999 431.1 430.99 431.44 431.61 431.78 431.65 432.01 432.48 432.35 432.3 432.66 433.49 433.4 434.14 433.92 434.34 434.21 434.66 435.06 435.89 436.76 437.1 437.65 438.25 439.48 441.38 443.76 447.78 449.01 449.53 451.11 451.59 455.66 457.09 459.69 461.97 464.47 467.34 469.65 471.84 474.78 479.2 482.5 486.35 489.29 492.21 494.84 497.14 499.3 502.24 504.91 507.14 509.48 512.73 514.08 515.69 518.66 520.84 524.47 527.58 530.89 533.9 536.89 539.35 542.13 546.09 549.46 554.38 557.9 561.43 566.29 571.5 577.6 581.72 586.15 592.41
631.64 632.98 634.82 636.59 638.28 640.12 642.09 643.65 645.77 647.24 650.24 651.61 654.77 656.89 659.36 662.54 664.52 667.8 670.3 672.54 673.63 675.69 678.2 679.49 680.61 680.95 681.08 680.25 678.52 676.33 676.3 670.81 666.92 663.88 659.96 656.04 652.31 648.11 644.8 641.37 637.07 633.73 631.31 628.44 626.48 624.79 622.21 619.57 617.49 614.56 610.13 606.07 601.66 596.44 592.06 588.79 584.67 580.77 576.59 573.37 570.16 568.14 564.38 560.34 556.23 552.1 548.27 541.97 537.35 534.36 529.2 521.6 514.84 508.27 502.4 490.33 485.27 481.64 479.16 475.58 473.21 468.7 466.11 463.17 460.89 457.94 455.13 451.42 446.38 449.11 451.02 451.51 451.7 451.14 450.11 448.8 447.43 447.2 445.65 443.45 441.64 439.13 437.64 435.5 434.34 432.89 430.84 9999 9999 9999 9999 9999 9999 9999 9999 9999 9999 9999 9999 9999 9999 9999 9999 9999 9999 9999 9999 9999 9999 9999 9999 9999 9999 9999 9999 9999 9999 9999 9999 9999 9999 9999 9999 9999 9999 9999 9999 9999 9999 9999 9999 9999 9999 9999 9999 9999 9999 9999 9999 9999 9999 9999 9999 9999 9999 9999 9999 9999 9999 9999 9999 9999 429.73 431.52 431.36 431.25 429.85 429.69 429.05 431.57 435 435.8 432.24 429.86 9999 9999 9999 9999 9999 9999 9999 9999 9999 9999 9999 9999 9999 9999 9999 9999 9999 9999 9999 9999 9999 9999 9999 9999 9999 9999 9999 9999 9999 9999 9999 9999 9999 9999 9999 9999 9999 9999 9999 9999 9999 9999 9999 9999 9999 9999 9999 9999 9999 9999 9999 9999 9999 9999 9999 428.93 430.3 430.24 429.86 429.78 430.25 430.54 430.7 430.73 430.59 430.41 431.11 431.59 431.27 431.28 431.2 431.3 431.67 431.13 431.71 431.69 431.66 431.88 431.6 431.23 431.77 432.4 432.13 432.93 433.39 433.12 433.3 433.87 433.23 434.42 434.97 434.8 436.89 436.78 436.61 436.91 437.89 438.99 440.73 443.01 445.05 445.7 445.7 449.09 450.83 453.33 455.74 457.93 460.32 463.02 464.73 467.74 471.4 473.24 475.68 479.25 482.22 485.69 489.21 492.63 494.82 497 499.71 501.93 504.34 507.25 510.5 512.02 514.46 516.61 519.49 520.92 524.71 526.92 531.22 533.95 536.62 539.4 542.45 546.45 549.44 554.1 558.34 562.22 567.26 571.15 577.47 582.16 588.49
630.84 632.01 633.58 636.4 637.78 638.83 640.98 643.49 644.83 647.67 649.02 651.65 653.45 655.12 656.92 659.24 662.31 665.4 666.78 668.98 671.24 672.86 674.17 676.09 677.46 678.78 679.13 678.01 675.73 674.23 671.19 667.81 663.96 661.47 657.4 653.25 648.89 644.82 641.51 637.83 634.51 632.12 629.85 628.38 625.39 623.51 620.72 618.28 615.67 612.6 608.25 603.1 598.12 593.75 590.06 586.91 584.36 579.48 575.72 570.73 568.28 566.32 563.52 556.05 552.24 549.04 543.37 537.37 533.25 526.52 522.29 513.84 510.81 499.54 494.74 489.2 486.13 480.28 476.96 473.95 470.43 467.43 464.45 461.78 459.82 456.23 453.22 449.57 447.86 450.1 451.43 452.56 452.71 451.72 451.52 450.23 448.98 447.21 446.02 444.48 442.6 439.94 437.75 436.74 435.05 432.95 431.99 9999 9999 9999 9999 9999 9999 9999 9999 9999 9999 9999 9999 9999 9999 9999 9999 9999 9999 9999 9999 9999 9999 9999 9999 9999 9999 9999 9999 9999 9999 9999 9999 9999 9999 9999 9999 9999 9999 9999 9999 9999 9999 9999 9999 9999 9999 9999 9999 9999 9999 9999 9999 9999 9999 9999 9999 9999 9999 9999 9999 9999 9999 9999 9999 429.38 432.37 432.48 431.31 431.44 430.01 429.44 429.19 430.79 434.24 435.46 434.11 430.6 9999 9999 9999 9999 9999 9999 9999 9999 9999 9999 9999 9999 9999 9999 9999 9999 9999 9999 9999 9999 9999 9999 9999 9999 9999 9999 9999 9999 9999 9999 9999 9999 9999 9999 9999 9999 9999 9999 9999 9999 9999 9999 9999 9999 9999 9999 9999 9999 9999 9999 9999 9999 9999 9999 9999 429.52 430.24 430.31 430.66 429.95 430.07 430.32 430.67 431.34 430.63 430.59 431 431.14 431.41 431.65 431.65 432.03 431.75 431.47 432.01 431.56 431.63 431.61 431.36 431.67 431.99 432.53 432.28 432.4 433.08 433.04 433.53 433.51 434.12 434.4 434.29 435.78 435.62 436.43 436.15 436.07 437.18 438.32 439.42 441.5 442.18 443.9 446.05 448.36 449.44 450.77 453.5 456.51 458.94 461.91 464.36 467.48 469.02 471.22 472.87 476.73 480.81 482.95 486.01 488.71 490.7 493.51 497.46 499.48 502.46 505.28 507.42 509.38 511.41 514.08 516.48 520.23 522.34 524.82 527.45 530.12 533.1 537.44 541.28 543.63 545.81 549.68 553.73 556.93 563.85 569.89 573.61 578.31 582.19
630.33 632.96 634.4 636.02 637.49 638.86 641.32 642.7 645.15 647.25 649.19 650.65 652.73 654.62 656.21 658.77 660.4 663.06 664.42 666.28 668.37 670.6 673.04 674.2 674.76 676.15 675.57 674.35 672.73 671.27 667.53 664.85 662.28 657.68 654.38 649.5 646.45 642.27 640.43 637.05 633.94 631.1 628.55 626.27 624.79 621.95 619.62 617.07 614.2 609.2 603.37 598.19 595.83 591.62 587.72 584.15 580.68 575.11 570.9 566.94 566.19 564.88 558.86 549.88 542.86 536.77 532.46 531.85 526.57 521.78 515.92 508.36 500.44 492.57 486.71 486.39 481.49 478.23 474.7 472.09 468.32 465.39 462.73 460.69 458.34 455.49 451.24 449.48 450.83 452.28 453.46 453.23 453.88 452.75 452.14 452.18 451.79 449.21 447.16 445.45 443.13 441.19 439.3 437.4 435.59 434.1 432.49 430.04 9999 9999 9999 9999 9999 9999 9999 9999 9999 9999 9999 9999 9999 9999 9999 9999 9999 9999 9999 9999 9999 9999 9999 9999 9999 9999 9999 9999 9999 9999 9999 9999 9999 9999 9999 9999 9999 9999 9999 9999 9999 9999 9999 9999 9999 9999 9999 9999 9999 9999 9999 9999 9999 9999 9999 9999 9999 9999 9999 9999 9999 9999 9999 430.51 433.16 431.32 431.74 431.85 430.16 429.42 429.94 428.96 433.14 435.01 434.36 432.21 429.66 9999 9999 9999 9999 9999 9999 9999 9999 9999 9999 9999 9999 9999 9999 9999 9999 9999 9999 9999 9999 9999 9999 9999 9999 9999 9999 9999 9999 9999 9999 9999 9999 9999 9999 9999 9999 9999 9999 9999 9999 9999 9999 9999 9999 9999 9999 9999 9999 9999 9999 9999 9999 429.52 429.41 429.8 430.41 430.39 430.01 430.28 429.82 430.04 430.3 430.41 430.65 431.02 430.79 430.94 431.03 431.74 431.6 431.65 431.25 431.47 431.83 431.28 431.56 431.47 431.46 431.61 432.13 431.59 431.53 432.36 431.71 432.72 432.9 433 433.99 433.97 434.34 434.74 434.92 436.51 435.89 435.85 436.84 437.35 439.08 440.68 440.73 442.44 444.65 447.3 447.97 450.36 451.76 453.79 458.15 461.18 464.12 466.47 466.77 469.72 471.67 474.74 476.71 479.4 483.42 486.02 488.63 490.88 494.3 496.83 499.11 502.18 505.21 507.73 508.76 511.64 513.93 516.05 519.82 522.52 525 527.77 530.78 534.77 537.1 540.21 543.98 546.92 549.46 553.55 559.62 564.01 567.86 574.5 577.96
630.9 632.53 633.81 635.88 638.41 639.4 641.39 643.85 645.24 647.74 649.27 650.87 652.05 654.21 656.08 657.72 660.34 661.23 662.9 665.52 666.77 668.82 671.17 672.44 673.52 673.9 673.77 672.24 670.24 667.73 664.93 660.8 659.1 656.35 651.18 645.84 643.52 640.34 637.09 633.63 631.97 629.78 626.53 624.59 622.76 619.49 616.23 615.07 611.16 605.31 600.78 597.21 592.04 588.26 584.98 581.34 576.93 572.54 568.58 565.89 562.15 558.13 551.19 543.36 534.8 529 525.49 522.63 517.9 511.45 503.2 501.4 494.12 487.65 484 481.51 478.96 474.65 471.76 468.85 467.07 464.58 461.65 458.56 456.68 452.34 450.86 451.27 452.24 453.94 453.43 454.01 453.65 453.45 453.49 452.85 451.96 450.7 448.18 445.77 443.64 442.15 440.07 437.8 436.5 434.71 432.95 430.9 9999 9999 9999 9999 9999 9999 9999 9999 9999 9999 9999 9999 9999 9999 9999 9999 9999 9999 9999 9999 9999 9999 9999 9999 9999 9999 9999 9999 9999 9999 9999 9999 9999 9999 9999 9999 9999 9999 9999 9999 9999 9999 9999 9999 9999 9999 9999 9999 9999 9999 9999 9999 9999 9999 9999 9999 9999 9999 9999 9999 9999 9999 428.57 432.5 431.37 431.01 430.99 432.55 431.75 428.71 9999 429.35 432.01 434.36 434.35 435.03 430.21 9999 9999 9999 9999 9999 9999 9999 9999 9999 9999 9999 9999 9999 9999 9999 9999 9999 9999 9999 9999 9999 9999 9999 9999 9999 9999 9999 9999 9999 9999 9999 9999 9999 9999 9999 9999 9999 9999 9999 9999 9999 9999 9999 9999 9999 9999 9999 9999 9999 9999 9999 9999 429.38 429.59 430.49 429.98 430.54 430.36 430.2 430.49 429.29 430.29 430.51 430.65 430.62 431.01 430.88 431.68 431.33 431.27 431.13 431.46 431.25 431.63 431.76 431.5 431.13 431.7 431.8 431.56 431.27 431.21 432.05 432.51 432.34 432.83 433.39 433.59 433.59 434.39 434.77 434.98 435.25 434.85 434.72 436.04 436.65 436.8 438.46 439.95 441.86 443.75 444.36 445.94 448.18 450.68 454 455.69 458.47 460.89 463.09 465.77 468.43 470.81 472.52 474.53 476.58 479.66 482.22 484.59 489.2 491.39 493.4 495.71 497.98 500.48 503.06 507.06 508.69 511.45 514.65 517.22 519.95 522.15 524.67 529.48 531.26 534.16 537.3 540.12 543.34 547.43 552.4 556.83 560.14 564.24 568.45 571.67
630.62 632.25 634.15 635.84 637.62 640.06 642 643.74 645.39 647.14 649.43 650.44 651.62 653.21 655.18 656.57 658.56 659.8 661.47 663.5 666.35 668.1 669.85 671.03 671.21 671.04 670.16 670.46 668.28 664.39 661.73 656.77 652.69 650.17 645.66 644.53 640.95 637 635 631.79 628.76 625.35 623.64 622.24 620.52 617.41 614.01 610.25 604.86 601.11 597.79 594.13 590.2 586.09 582.95 578.23 574.97 571.2 567.52 564.17 560.23 554.18 544.66 539.17 531.67 525.76 521.59 517.23 511.37 504.18 499.47 495.22 490.36 486.63 483.73 480.44 476.33 473.68 469.84 467.66 464.31 462.38 460.09 456.49 453 452.62 452.84 454.07 454.82 454.55 454.44 454.65 454.23 454.36 453.39 453.63 452.34 450.23 448.45 447.68 444.35 442.6 441.07 438.89 437.37 435.11 433.62 432.18 428.48 9999 9999 9999 9999 9999 9999 9999 9999 9999 9999 9999 9999 9999 9999 9999 9999 9999 9999 9999 9999 9999 9999 9999 9999 9999 9999 9999 9999 9999 9999 9999 9999 9999 9999 9999 9999 9999 9999 9999 9999 9999 9999 9999 9999 9999 9999 9999 9999 9999 9999 9999 9999 9999 9999 9999 9999 9999 9999 9999 9999 9999 431.99 431.26 431.03 431.05 432.28 433.12 433.6 429.06 9999 428.86 433.17 433.4 434.38 435.11 431.95 429.27 9999 9999 9999 9999 9999 9999 9999 9999 9999 9999 9999 9999 9999 9999 9999 9999 9999 9999 9999 9999 9999 9999 9999 9999 9999 9999 9999 9999 9999 9999 9999 9999 9999 9999 9999 9999 9999 9999 9999 9999 9999 9999 9999 9999 9999 9999 9999 9999 9999 9999 9999 428.87 429.99 430.8 430.6 430.26 430.46 430.97 430.74 430.45 430.64 430.28 431.2 430.78 430.66 431.15 431.31 431.84 431.51 430.75 431.6 431.69 431.12 431.47 431.26 431.54 431.38 430.97 430.99 431.42 430.71 431.54 432.3 432.42 432.9 433.41 434.45 434.02 434.85 434.22 434.06 434.94 434.98 434.38 435.16 435.83 436.49 437.94 439.84 441.04 442.39 443.39 445.2 447.06 449.75 451.93 454.24 457.55 459.6 461.33 464.26 467.36 468.4 470.37 472.42 474.19 476.7 479.55 482.85 484.27 486.07 488.58 492.33 494.82 497.75 500.26 503.02 505.51 508.28 511.88 514.87 516.96 519.75 522.47 524.85 527.02 530.16 533.88 537.76 541.3 544.47 548.52 551.92 556.3 561.57 565.12 568.82
630.13 631.93 634.21 635.77 638.61 640.56 642.74 643.73 645.98 647.43 648.24 650.39 651.75 653.19 654.42 656.14 657.6 660.25 661.9 663.47 665.01 665.7 667.01 668.54 668.92 669.3 667.36 665.63 663.84 660.26 656.58 654.24 649.75 646.16 642.7 639.97 637.17 634.08 632.19 628.96 625.7 622.84 620.43 618.67 615.94 613.41 611.32 606.65 602.51 597.8 593.97 590.11 587.05 583.96 580.25 576.76 573.29 569.56 566.27 561.93 555.04 546.53 542.81 536.29 529.91 523.59 518.86 513.33 506.15 502.21 497.31 493.5 489.44 485.86 482.32 477.76 475.09 472.5 469.73 465.91 463.37 460.14 457.01 453.86 454.03 454.14 455.34 455.61 456.05 455.48 455.13 455.8 455.04 454.3 454.02 453.77 451.31 450.52 449.23 447.69 445.3 443.49 442.26 438.95 437.04 435.87 434.91 432.19 429.89 9999 9999 9999 9999 9999 9999 9999 9999 9999 9999 9999 9999 9999 9999 9999 9999 9999 9999 9999 9999 9999 9999 9999 9999 9999 9999 9999 9999 9999 9999 9999 9999 9999 9999 9999 9999 9999 9999 9999 9999 9999 9999 9999 9999 9999 9999 9999 9999 9999 9999 9999 9999 9999 9999 9999 9999 9999 9999 9999 9999 430.36 432.22 430.85 431.48 432.49 434.36 433.78 434.3 9999 9999 429.19 432.67 433.38 434.06 436.85 435.88 429.98 429.52 9999 9999 9999 9999 9999 9999 9999 9999 9999 9999 9999 9999 9999 9999 9999 9999 9999 9999 9999 9999 9999 9999 9999 9999 9999 9999 9999 9999 9999 9999 9999 9999 9999 9999 9999 9999 9999 9999 9999 9999 9999 9999 9999 9999 9999 9999 429.68 9999 9999 429.27 429.31 430.17 430.78 430.13 430.92 431.1 431.03 430.57 430.31 430.33 431.13 430.97 430.56 430.69 431.48 431.11 431.01 431.74 431.11 431.03 431.24 431.57 431.69 431.38 431.37 431.16 430.63 431.66 431.53 429.94 431.72 431.98 432.02 432.29 432.91 433.54 433.65 433.99 434.12 434.08 434.63 434.35 433.25 433.73 435.11 437.17 438.29 438.27 440.16 440.34 441.72 443.46 446.55 447.81 450.01 452.35 454.76 457.29 458.73 461.82 464.62 466.63 468.75 469.26 470.24 472.4 475.88 479.48 481.31 482.72 484.92 486.82 489.23 493.18 497.34 500.01 501.98 505.59 508.66 511.08 513.53 517 519.56 521.74 524.36 527.84 529.64 534.54 537.68 542.72 546.36 548.9 552.66 555.77 560.3 564.74
629.29 631.24 633.17 636.79 638.22 641.12 642.51 644.38 645.75 646.67 648.97 650.69 651.02 652.76 654.19 655.79 656.98 659.08 660.75 662.17 663.53 664.73 664.49 665.5 665.69 663.86 664.97 662.86 660.38 657.59 654.61 650.18 646.79 642.39 640.16 636.8 633.92 630.98 626.7 623.76 621.16 619.08 617.91 616.13 612.68 610.78 605.47 601.42 597.87 595.6 591.94 588.56 585 580.5 577.2 574.01 571.22 568.91 566.49 563.08 550.91 543.86 537.48 529.39 522.09 519.77 515.23 508.86 504.44 500.65 496.15 492.25 488.76 485.41 479.86 476.45 473.64 470.7 467.88 465.82 462.46 458.16 454.86 454.82 455.68 456.59 457.39 457.76 456.3 456.35 456.14 455.5 455.65 455.31 454.31 453.79 451.54 450.37 449.41 448.29 446.36 444.16 441.91 439.57 438.26 436.36 435.42 433.26 431.73 9999 9999 9999 9999 9999 9999 9999 9999 9999 9999 9999 9999 9999 9999 9999 9999 9999 9999 9999 9999 9999 9999 9999 9999 9999 9999 9999 9999 9999 9999 9999 9999 9999 9999 9999 9999 9999 9999 9999 9999 9999 9999 9999 9999 9999 9999 9999 9999 9999 9999 9999 9999 9999 9999 9999 9999 9999 9999 9999 431.01 432.97 430.36 433.26 433.65 432.79 434.48 434.4 436.6 432.25 9999 429.46 434.4 434.08 434.98 435.82 436.33 435.07 429.88 9999 9999 9999 9999 9999 9999 9999 9999 9999 9999 9999 9999 9999 9999 9999 9999 9999 9999 9999 9999 9999 9999 9999 9999 9999 9999 9999 9999 9999 9999 9999 9999 9999 9999 9999 9999 9999 9999 9999 9999 9999 9999 9999 9999 9999 9999 429.5 429.48 428.82 428.85 430.36 430.57 430.15 430.25 430.68 431.22 430.54 430.82 430.81 431.24 431.08 430.76 431.36 430.76 430.69 430.92 431.11 431.27 430.89 431.25 431.45 431.12 431.29 430.86 429.69 430.19 430.69 431.76 430.8 429.76 429.81 430.41 432.03 432.83 432.77 433.34 433.54 433.4 433.17 433.46 434.26 433.52 432.29 433.89 436.3 437.63 438.01 438.05 438.25 439.51 441.49 441.88 442.92 445.13 448.73 451.08 453.85 455.37 457.55 459.27 461.34 462.29 465.4 467.63 468.96 470.7 472.4 474.36 476.47 477.83 480.65 484.87 487.27 489.86 492.62 496.15 498.73 503.03 505.63 507.69 511.34 513.49 515.53 517.53 521.5 523.88 527.57 531.58 535.05 538.81 541.79 545.15 549.46 553.4 557.05 561.03
627.26 630.06 633.72 635.95 638.84 641.04 642.91 644.33 645.53 646.9 647.34 649.2 649.5 651.08 653 654.91 656.31 657.98 659.27 660.21 661.28 662.7 662.71 662.23 662.72 660.86 660.19 658.19 655.55 654.06 650.42 647.61 644.03 639.61 636.7 633.9 629.51 627.33 624.55 621.47 618.73 616.1 614.05 611.19 607.03 606.06 602.11 598.23 594.21 591.3 587.84 584.44 581.54 578.42 576.07 572.93 570.5 566.04 562.19 554.23 547.9 540.44 530.45 524.33 518.29 515.62 509.79 506.19 503.17 498.37 495.01 491.21 487.29 482.53 479.41 476.35 472.72 470.43 467.08 463.96 460.29 456.77 457.61 458 457.54 458.12 458.66 458.07 457.87 457.13 457.03 455.85 455.7 454.59 454.71 453.51 452 450.84 449.4 448.44 446.68 444.6 442.49 440.32 438.92 436.73 435.49 434.25 431.48 9999 9999 9999 9999 9999 9999 9999 9999 9999 9999 9999 9999 9999 9999 9999 9999 9999 9999 9999 9999 9999 9999 9999 9999 9999 9999 9999 9999 9999 9999 9999 9999 9999 9999 9999 9999 9999 9999 9999 9999 9999 9999 9999 9999 9999 9999 9999 9999 9999 9999 9999 9999 9999 9999 9999 9999 9999 9999 431.87 432.75 431.3 431.96 433.42 432.57 433.67 435.63 436.14 434.94 434.96 9999 431.57 434.35 435.01 435.16 435.32 435.2 436.39 429.46 430.11 9999 9999 9999 9999 9999 9999 9999 9999 9999 9999 9999 9999 9999 9999 9999 9999 9999 9999 9999 9999 9999 9999 9999 9999 9999 9999 9999 9999 9999 9999 9999 9999 9999 9999 9999 9999 9999 9999 9999 9999 9999 9999 9999 9999 9999 429.59 429.46 428.66 430.31 430.29 430.5 430.47 429.92 431.38 431.01 430.89 430.73 430.94 431.38 431.03 430 430.89 431.2 430.78 431.22 431.75 431.39 431.43 430.87 431.72 431.55 430.7 430.01 443.3 428.79 428.57 429.65 429.27 429.08 429.5 429.95 431.94 432.02 432.14 432.2 432.65 433.24 433.19 433.24 433.81 433.26 432.64 434.42 436.07 436.3 436.03 437.16 437.6 438.06 439.24 440.5 441.89 442.93 446.24 448.75 450.77 453.65 455.36 456.9 458.48 459.83 462.26 464.06 466.08 468.81 470.03 471.7 473.78 475.49 478.19 480.75 483.16 487.47 489.85 492.61 495.64 498.49 501.62 504.68 508.81 511.32 513.8 515.59 519 521.83 525.06 528.79 532.54 536.12 539.08 541.93 546.86 549.22 552.82 557.45
625.24 630.38 633.41 635.63 638.57 640.91 643.43 644.58 645.14 646.56 646.25 647.53 647.94 649.13 651.24 652.63 654.27 656.39 657.8 658.51 659.52 659.36 659.21 658.91 658.11 658.55 657.14 654.85 652.29 648.4 645.78 642.58 639.58 637.61 633.83 630.66 625.97 623.68 621.13 618.47 616.95 614.03 611.77 607.15 604.08 601.23 597.04 594.41 591.53 588.57 585.03 581.84 579.27 576.62 572.25 570.53 568.15 561.5 556.52 548.66 541.43 532.63 524.46 518.32 515.22 511.22 508.05 504.33 501.4 496.66 492.2 489.74 485.98 482.05 478.9 474.81 472.19 469.01 466.66 462.71 458.33 458.71 459.05 459.81 460.08 460.08 459.78 459.38 458.56 458.08 456.77 456.25 456.21 455.86 455.38 453.51 452.49 450.88 449.25 449.02 446.54 445.25 442.81 441.08 438.54 437.25 435.7 433.68 432.79 431.03 9999 9999 9999 9999 9999 9999 9999 9999 9999 9999 9999 9999 9999 9999 9999 9999 9999 9999 9999 9999 9999 9999 9999 9999 9999 9999 9999 9999 9999 9999 9999 9999 9999 9999 9999 9999 9999 9999 9999 9999 9999 9999 9999 9999 9999 9999 9999 9999 9999 9999 9999 9999 9999 9999 9999 9999 429.38 431.57 431.12 433.18 432.93 433.4 433.83 433.83 435.26 433.81 432.88 432.42 9999 430.94 433.54 434.2 434.87 433.95 434.33 434.83 432.59 429.31 9999 9999 9999 9999 9999 9999 9999 9999 9999 9999 9999 9999 9999 9999 9999 9999 9999 9999 9999 9999 9999 9999 9999 9999 9999 9999 9999 9999 9999 9999 9999 9999 9999 9999 9999 9999 9999 9999 9999 9999 9999 9999 9999 9999 9999 428.85 428.94 429.24 430.41 430.49 430.38 430.45 431.46 430.97 430.16 430.87 429.72 428.94 428.42 428.99 429.95 429.82 430.3 430.84 431.37 430.96 431.03 431.43 431.1 430.98 429.53 427.95 427.9 9999 9999 427.1 429.27 430 429.36 429.65 429.49 429.87 431.01 432.03 431.94 432.24 432.1 432.07 433.37 433.33 431.66 432.38 432.96 434.41 433.79 435.56 436.16 437.26 438.19 438.35 439.77 441.25 442.67 444.38 448.4 450.81 452.53 454 454.72 456.37 459.26 461.63 463.06 463.43 465.25 466.71 468.13 470.84 473.66 476.11 478.89 481.37 483.01 485.36 487.93 493.54 496 498.42 501.8 504.89 507.86 510.06 514.27 516.83 519.81 522.35 525.12 528.26 531.29 535.7 540.34 544.46 546.75 549.18 551.94
624.92 628.53 632.07 635.52 638.19 640.78 642.23 644.4 643.66 643.25 642.93 644.01 646.5 647.29 649.05 650.88 652.52 654.16 654.8 655.99 657.49 657.82 657.3 656.41 655.31 654.68 652.91 650.51 647.78 644.97 642.42 639.11 635.85 633.27 629.59 624.72 623.86 620.86 618.15 616.19 614 611.54 607.7 604.44 602.89 598.83 596.37 592.6 588.54 584.69 582 580.8 577.03 573.82 570.65 567.08 560 555.18 548.34 544.28 536.2 528.96 521.89 514.69 510.73 507.37 503.62 502.45 498.18 495.85 490.64 486.7 483.54 480.11 477.6 475.01 471.65 468.35 464.8 461.07 459.88 460.08 460.48 461.1 461.46 461.01 460.03 460.34 459.5 458.6 457.37 456.74 456.54 455.56 454.86 454.09 452.37 450.86 449.55 448.23 447.19 445.43 443.55 441.61 439.4 437.15 435.18 433.98 432.67 432.05 9999 9999 9999 9999 9999 9999 9999 9999 9999 9999 9999 9999 9999 9999 9999 9999 9999 9999 9999 9999 9999 9999 9999 9999 9999 9999 9999 9999 9999 9999 9999 9999 9999 9999 9999 9999 9999 9999 9999 9999 9999 9999 9999 9999 9999 9999 9999 9999 9999 9999 9999 9999 9999 9999 429.7 429.82 429.7 429.95 429.83 431.19 433.06 434.16 433.85 433.4 432.79 433.42 433.33 9999 429.34 432.41 433.78 435.47 434.1 433.3 434.42 434.35 434.46 431.68 429.85 9999 9999 9999 9999 9999 9999 9999 9999 9999 9999 9999 9999 9999 9999 9999 9999 9999 9999 9999 9999 9999 9999 9999 9999 9999 9999 9999 9999 9999 9999 9999 9999 9999 9999 9999 9999 9999 9999 9999 9999 9999 9999 9999 9999 428.69 429.06 429.49 429.84 430.02 430.09 430.5 430.6 430.67 431.06 428.69 9999 9999 9999 9999 9999 429.25 429.33 430.48 430.85 431.72 431.57 430.81 430.84 429.98 9999 9999 9999 9999 9999 9999 9999 428.81 429.86 429.41 429.8 430.01 430.64 432.42 431.8 432.14 432.02 431.93 429.6 430.56 429.87 430.01 429.92 430.63 431.34 433.82 434.83 435.36 436.98 437.99 438.9 439.75 442.2 444.85 447.05 449.71 451.22 452.93 453.66 454.98 458.46 459.05 460.15 461.79 463.59 465.29 466.62 468.41 470.76 472.56 474.69 479.06 480.2 483.23 486.23 489.62 492.26 495.77 499.25 502.41 505.35 508.98 510.9 513.82 515.77 519.51 522.97 526.41 530.59 533.64 537.03 540.2 542.91 546.09 549.29
624.78 628.55 632.54 634.31 637.55 639.75 641.37 641.21 641.88 640.66 640.51 641.44 642.6 644.5 645.8 648.59 651.09 652.38 652.81 653.8 654.67 654.56 653.75 654.14 653.43 651.47 650.68 646.04 643.77 641.43 638 635.83 633.58 631.14 626.43 622.66 619.71 617.2 615.33 613.92 612.58 607.75 605.89 602.82 599.31 596.48 593.66 590.91 586.15 582.52 579.64 576.57 572.99 569.82 565.54 561.4 556.99 550.18 542.75 535.88 529.56 522.78 517.1 512.83 508.34 504.64 501.7 498.27 494.97 491.76 490.01 486.21 482.81 479.72 476.12 472.65 469.19 466.46 463.31 460.65 460.84 461.57 462.03 462.04 462.06 461.98 461.06 460.37 459.62 459.05 458.21 457.54 456.53 455.77 454.77 453.63 452.56 450.76 450.19 448.6 447.69 445.71 444.1 441.68 439.11 437.41 435.82 434.73 433.48 431.91 431.19 9999 9999 9999 9999 9999 9999 9999 9999 9999 9999 9999 9999 9999 9999 9999 9999 9999 9999 9999 9999 9999 9999 9999 9999 9999 9999 9999 9999 9999 9999 9999 9999 9999 9999 9999 9999 9999 9999 9999 9999 9999 9999 9999 9999 9999 9999 9999 9999 9999 9999 9999 9999 428.85 428.9 429.72 431.25 429.76 429.93 430.19 431.63 431.16 432.6 432.63 433.04 434.47 433.87 429.66 429.14 432.36 433.94 434.39 433.9 435.41 434.81 434.7 435.41 433.45 429.4 9999 9999 9999 9999 9999 9999 9999 9999 9999 9999 9999 9999 9999 9999 9999 9999 9999 9999 9999 9999 9999 9999 9999 9999 9999 9999 9999 9999 9999 9999 9999 9999 9999 9999 9999 9999 9999 9999 9999 9999 9999 9999 9999 9999 9999 429.12 430.05 431.09 430.36 430.3 431.07 429.83 429.49 428.77 9999 9999 9999 9999 9999 9999 9999 429.64 430.11 431.28 431.24 431.56 430.67 430.6 427.32 9999 9999 9999 429.27 429.71 428.59 9999 9999 428.72 429.86 429.66 430.1 430.14 431.66 431.82 432.12 431.5 429.4 428.86 429.44 428.98 429.23 428.89 428.87 429.07 432.46 432.5 434.17 435.87 437.37 437.79 440.13 441.94 444.43 446.89 448.41 450.43 451.31 452.73 455.02 456.58 457.58 459.18 460.63 461.72 463.9 465.45 467.04 468.62 470.1 472.33 474.45 476.12 479.28 483.86 487.74 489.69 492.98 495.09 497.94 502.14 507.14 510 511.43 513.2 515.44 518.71 523.97 527.94 530.79 534.29 537.15 539.88 542.5 545.84
625.2 627.92 630.88 634.76 637.3 638.43 638.41 638.51 636.37 636.1 637.01 639.44 640.22 642.25 644.11 645.71 647.98 648.86 650.92 652.25 652.11 651.85 651.28 650.18 649.47 647.76 644.22 643.91 641.15 638.56 635.57 632.06 629.93 625.63 622.47 621.23 617.71 615.75 613.48 611.66 607.32 605.41 603.43 601.04 598.3 595 591.21 586.86 583.95 579.74 577.51 573.55 570.55 566.72 561.16 556.53 551.11 542.94 539.63 532.46 526.7 518.45 513.44 509.5 505.44 500.97 499.45 497.23 492.09 489.58 486.46 483.86 480.59 477.54 474.9 470.96 468.39 465.37 463.84 462.37 463.26 462.57 462.67 463.16 462.83 462.99 462.68 461.41 460.66 459.55 458.71 457.8 457.02 456.22 455.19 453.64 452.17 451.32 449.98 449.3 448.15 446.19 444.58 441.4 439.25 437.51 436.72 435 434.85 433.42 431.61 429.72 9999 9999 9999 9999 9999 9999 9999 9999 9999 9999 9999 9999 9999 9999 9999 9999 9999 9999 9999 9999 9999 9999 9999 9999 9999 9999 9999 9999 9999 9999 9999 9999 9999 9999 9999 9999 9999 9999 9999 9999 9999 9999 9999 9999 9999 9999 9999 9999 9999 9999 9999 430.44 429.26 429.09 430.77 430.73 430.12 430.02 429.88 430.33 430.73 431.18 434.37 435.37 434.23 9999 430.1 432.72 434.68 435.09 435.32 433.99 434.45 435.32 435.29 435.65 430.68 429.9 9999 9999 9999 9999 9999 9999 9999 9999 9999 9999 9999 9999 9999 9999 9999 9999 9999 9999 9999 9999 9999 9999 9999 9999 9999 9999 9999 9999 9999 9999 9999 9999 9999 9999 9999 9999 9999 9999 9999 9999 9999 9999 9999 9999 429.57 430.19 430.96 430.84 429.98 430.47 429.36 428.85 428.11 9999 9999 9999 9999 9999 9999 9999 429.35 429.71 431.57 431.11 430.72 429.97 429.36 9999 9999 429.46 430.66 429.45 430.12 429.58 428.94 9999 9999 429.52 429.96 429.55 430.29 431.51 431.72 432.42 430.26 429.13 430.8 430.6 429.94 430.04 429.65 428.77 429.95 429.2 430.38 433.94 435.24 436.33 437.65 439.1 440.95 442.73 445.25 447.04 448.71 450.98 452.67 454.59 456.19 457.39 458 459.88 461.66 462.95 464.62 465.42 466.75 468.55 470.39 472.97 474.38 477.22 479.1 482.68 485.73 489.86 494.15 496.54 499.9 502.66 505.35 507.19 511.27 514.19 518.41 521.01 523.36 526.49 530.15 533.87 537.08 540.42 543.18
