451.54 450.37 449.41 448.29 446.36 444.16 441.91 439.57 438.26 436.36 435.42 433.26 431.73 9999 9999 9999 9999 9999 9999 9999 9999 9999 9999 9999 9999 9999 9999 9999 9999 9999 9999 9999 9999 9999 9999 9999 9999 9999 9999 9999 9999 9999 9999 9999 9999 9999 9999 9999 9999 9999 9999 9999 9999 9999 9999 9999 9999 9999 9999 9999 9999 9999 9999 9999 9999 9999 9999 9999 9999 9999 9999 9999 431.01 432.97 430.36 433.26 433.65 432.79 434.48 434.4 436.6 432.25 9999 429.46 434.4 434.08 434.98 435.82 436.33 435.07 429.88 9999 9999 9999 9999 9999 9999 9999 9999 9999 9999 9999 9999 9999 9999 9999 9999 9999 9999 9999 9999 9999 9999 9999 9999 9999 9999 9999 9999 9999 9999 9999 9999 9999 9999 9999 9999 9999 9999 9999 9999 9999 9999 9999 9999 9999 9999 429.5 9999 9999 428.85 430.36 430.57 430.15 430.25 430.68 431.22 430.54 430.82 430.81 431.24 431.08 430.76 431.36 430.76 430.69 430.92 431.11 431.27 430.89 431.25 431.45 431.12 431.29 430.86 429.69 430.19
452 450.84 449.4 448.44 446.68 444.6 442.49 440.32 438.92 436.73 435.49 434.25 431.48 429.07 9999 9999 9999 9999 9999 9999 9999 9999 9999 9999 9999 9999 9999 9999 9999 9999 9999 9999 9999 9999 9999 9999 9999 9999 9999 9999 9999 9999 9999 9999 9999 9999 9999 9999 9999 9999 9999 9999 9999 9999 9999 9999 9999 9999 9999 9999 9999 9999 9999 9999 9999 9999 9999 9999 9999 9999 9999 431.87 432.75 431.3 431.96 433.42 432.57 433.67 435.63 436.14 434.94 434.96 9999 431.57 434.35 435.01 435.16 435.32 435.2 436.39 429.46 430.11 9999 9999 9999 9999 9999 9999 9999 9999 9999 9999 9999 9999 9999 9999 9999 9999 9999 9999 9999 9999 9999 9999 9999 9999 9999 9999 9999 9999 9999 9999 9999 9999 9999 9999 9999 9999 9999 9999 9999 9999 9999 9999 9999 9999 9999 9999 9999 428.66 430.31 430.29 430.5 430.47 429.92 431.38 431.01 430.89 430.73 430.94 431.38 431.03 430 430.89 431.2 430.78 431.22 431.75 431.39 431.43 430.87 431.72 431.55 430.7 430.01 443.3 428.79
452.49 450.88 449.25 449.02 446.54 445.25 442.81 441.08 438.54 437.25 435.7 433.68 432.79 431.03 9999 9999 9999 9999 9999 9999 9999 9999 9999 9999 9999 9999 9999 9999 9999 9999 9999 9999 9999 9999 9999 9999 9999 9999 9999 9999 9999 9999 9999 9999 9999 9999 9999 9999 9999 9999 9999 9999 9999 9999 9999 9999 9999 9999 9999 9999 9999 9999 9999 9999 9999 9999 9999 9999 9999 9999 429.38 431.57 431.12 433.18 432.93 433.4 433.83 433.83 435.26 433.81 432.88 432.42 9999 430.94 433.54 434.2 434.87 433.95 434.33 434.83 432.59 429.31 429.08 9999 9999 9999 9999 9999 9999 9999 9999 9999 9999 9999 9999 9999 9999 9999 9999 9999 9999 9999 9999 9999 9999 9999 9999 9999 9999 9999 9999 9999 9999 9999 9999 9999 9999 9999 9999 9999 9999 9999 9999 9999 9999 9999 9999 9999 428.94 429.24 430.41 430.49 430.38 430.45 431.46 430.97 430.16 430.87 429.72 428.94 428.42 428.99 429.95 429.82 430.3 430.84 431.37 430.96 431.03 431.43 431.1 430.98 429.53 427.95 9999 9999 9999
452.37 450.86 449.55 448.23 447.19 445.43 443.55 441.61 439.4 437.15 435.18 433.98 432.67 432.05 429.53 9999 9999 9999 9999 9999 9999 9999 9999 9999 9999 9999 9999 9999 9999 9999 9999 9999 9999 9999 9999 9999 9999 9999 9999 9999 9999 9999 9999 9999 9999 9999 9999 9999 9999 9999 9999 9999 9999 9999 9999 9999 9999 9999 9999 9999 9999 9999 9999 9999 9999 9999 9999 9999 9999 429.82 429.7 429.95 429.83 431.19 433.06 434.16 433.85 433.4 432.79 433.42 433.33 429.09 9999 432.41 433.78 435.47 434.1 433.3 434.42 434.35 434.46 431.68 429.85 9999 9999 9999 9999 9999 9999 9999 9999 9999 9999 9999 9999 9999 9999 9999 9999 9999 9999 9999 9999 9999 9999 9999 9999 9999 9999 9999 9999 9999 9999 9999 9999 9999 9999 9999 9999 9999 9999 9999 9999 9999 9999 9999 9999 9999 429.06 429.49 429.84 430.02 9999 430.5 430.6 430.67 431.06 428.69 9999 9999 9999 9999 9999 9999 429.33 430.48 430.85 431.72 431.57 430.81 430.84 429.98 9999 9999 9999 9999 9999
452.56 450.76 450.19 448.6 447.69 445.71 444.1 441.68 439.11 437.41 435.82 434.73 433.48 431.91 431.19 9999 9999 9999 9999 9999 9999 9999 9999 9999 9999 9999 9999 9999 9999 9999 9999 9999 9999 9999 9999 9999 9999 9999 9999 9999 9999 9999 9999 9999 9999 9999 9999 9999 9999 9999 9999 9999 9999 9999 9999 9999 9999 9999 9999 9999 9999 9999 9999 9999 9999 9999 9999 9999 9999 429.72 431.25 9999 429.93 430.19 431.63 431.16 432.6 432.63 433.04 434.47 433.87 9999 429.14 432.36 433.94 434.39 433.9 435.41 434.81 434.7 435.41 433.45 429.4 429.87 9999 9999 9999 9999 9999 9999 9999 9999 9999 9999 9999 9999 9999 9999 9999 9999 9999 9999 9999 9999 9999 9999 9999 9999 9999 9999 9999 9999 9999 9999 9999 9999 9999 9999 9999 9999 9999 9999 9999 9999 9999 9999 9999 9999 429.12 430.05 431.09 430.36 430.3 431.07 429.83 429.49 428.77 9999 9999 9999 9999 9999 9999 9999 429.64 430.11 431.28 431.24 431.56 430.67 430.6 427.32 9999 9999 9999 429.27 429.71
452.17 451.32 449.98 449.3 448.15 446.19 444.58 441.4 439.25 437.51 436.72 435 434.85 433.42 431.61 429.72 9999 9999 9999 9999 9999 9999 9999 9999 9999 9999 9999 9999 9999 9999 9999 9999 9999 9999 9999 9999 9999 9999 9999 9999 9999 9999 9999 9999 9999 9999 9999 9999 9999 9999 9999 9999 9999 9999 9999 9999 9999 9999 9999 9999 9999 9999 9999 9999 9999 9999 9999 9999 9999 429.09 430.77 430.73 430.12 430.02 429.88 430.33 430.73 431.18 434.37 435.37 434.23 9999 430.1 432.72 434.68 435.09 435.32 433.99 434.45 435.32 435.29 435.65 430.68 429.9 429.24 9999 9999 9999 9999 9999 9999 9999 9999 9999 9999 9999 9999 9999 9999 9999 9999 9999 9999 9999 9999 9999 9999 9999 9999 9999 9999 9999 9999 9999 9999 9999 9999 9999 9999 9999 9999 9999 9999 9999 9999 9999 9999 9999 429.57 430.19 430.96 430.84 429.98 430.47 429.36 428.85 9999 9999 9999 9999 9999 9999 9999 9999 429.35 429.71 431.57 431.11 430.72 429.97 429.36 9999 9999 429.46 430.66 429.45 430.12
452.64 451.46 450.64 449.35 447.7 446.27 444 442.42 440.23 438.75 437.6 435.97 434.81 433.72 432.94 431.62 428.64 9999 9999 9999 9999 9999 9999 9999 9999 9999 9999 9999 9999 9999 9999 9999 9999 9999 9999 9999 9999 9999 9999 9999 9999 9999 9999 9999 9999 9999 9999 9999 9999 9999 9999 9999 9999 9999 9999 9999 9999 9999 9999 9999 9999 9999 9999 9999 9999 9999 9999 429.45 9999 430.75 430.62 430.71 430.07 430.28 430.74 430.19 430.16 431.3 433.22 435.21 433.86 429.06 430.93 431.84 433.18 433.08 432.48 432.51 433.24 434.55 434.62 435.34 434.88 430.59 429.89 9999 9999 9999 9999 9999 9999 9999 9999 9999 9999 9999 9999 9999 9999 9999 9999 9999 9999 9999 9999 9999 9999 9999 9999 9999 9999 9999 9999 9999 9999 9999 9999 9999 9999 9999 9999 9999 9999 9999 9999 9999 9999 9999 427.9 427.9 430.27 429.06 429.74 429.52 429.81 9999 9999 9999 9999 9999 9999 9999 9999 430.51 429.77 430.14 430.5 431.02 430.75 430.28 427.59 9999 429.3 429.65 429.16 429.88 429.53
452.92 452.35 450.75 449.78 448.68 447.02 445.1 442.88 441.43 439.63 438.16 436.74 435.91 434.75 433.85 432.48 430.97 9999 9999 9999 9999 9999 9999 9999 9999 9999 9999 9999 9999 9999 9999 9999 9999 9999 9999 9999 9999 9999 9999 9999 9999 9999 9999 9999 9999 9999 9999 9999 9999 9999 9999 9999 9999 9999 9999 9999 9999 9999 9999 9999 9999 9999 9999 9999 9999 9999 9999 9999 9999 430.05 430.96 430.21 430.88 431.04 430.56 430.26 429.84 430.23 430.48 433.12 431.36 429.4 431.61 431.4 431.08 431.01 431.27 431.89 433.94 433.47 434.86 435.57 434.55 433.61 429.81 429.61 9999 9999 9999 9999 9999 9999 9999 9999 9999 9999 9999 9999 9999 9999 9999 9999 9999 9999 9999 9999 9999 9999 9999 9999 9999 9999 9999 9999 9999 9999 9999 9999 9999 9999 9999 9999 9999 9999 9999 9999 9999 9999 9999 9999 9999 9999 9999 9999 9999 9999 9999 9999 9999 9999 9999 9999 430.28 430.79 430.16 429.37 430.03 429.89 430.12 429.44 9999 9999 429.58 430.21 429.95 429.74 430.03
454.19 453.17 451.63 450.66 448.83 447.85 446.17 445.13 443.41 441.56 438.74 437.01 436.73 435.76 434.78 433.15 432.56 431.08 9999 9999 9999 9999 9999 9999 9999 9999 9999 9999 9999 9999 9999 9999 9999 9999 9999 9999 9999 9999 9999 9999 9999 9999 9999 9999 9999 9999 9999 9999 9999 9999 9999 9999 9999 9999 9999 9999 9999 9999 9999 9999 9999 9999 9999 9999 9999 430.03 9999 9999 430.17 431.44 430.28 429.43 429.77 430.87 429.17 430.29 430.52 430.37 429.69 430.13 430.25 428.76 430.55 430.87 430.2 430.55 430.88 432.83 434.98 432.67 432.6 432.88 433.98 432.48 431.51 429.73 429.35 9999 9999 9999 9999 9999 9999 9999 9999 9999 9999 9999 9999 9999 9999 9999 9999 9999 9999 9999 9999 9999 9999 9999 9999 9999 9999 428.96 429.43 429.49 429.16 428.84 9999 9999 9999 9999 9999 9999 9999 9999 9999 9999 9999 9999 9999 9999 9999 9999 9999 9999 9999 9999 9999 9999 9999 429.3 431.29 430.44 429.45 429.92 429.41 430.31 429.94 9999 9999 9999 429.37 429.91 429.42 430.45 430.56
454.83 453.71 452.76 451.5 449.95 449.9 447.53 446.46 444.16 442.37 440.47 438.47 437.86 437.02 434.71 434.05 433.04 431.41 430.42 9999 9999 9999 9999 9999 9999 9999 9999 9999 9999 9999 9999 9999 9999 9999 9999 9999 9999 9999 9999 9999 9999 9999 9999 9999 9999 9999 9999 9999 9999 9999 9999 9999 9999 9999 9999 9999 9999 9999 9999 9999 9999 9999 9999 9999 430.58 429.03 9999 9999 430.98 430.19 9999 9999 9999 9999 9999 9999 430.52 430.49 430.25 430.67 428.99 9999 430.93 430.72 430.44 430.27 430.69 430.85 430.8 431.85 430.71 431.76 432.54 431.51 430.76 430.19 429.37 428.71 9999 9999 9999 9999 9999 9999 9999 9999 9999 9999 9999 9999 9999 9999 9999 9999 9999 9999 9999 9999 9999 9999 9999 9999 9999 429.7 429.91 429.46 429.4 429.26 429.34 9999 9999 9999 9999 9999 429.96 430.7 431.36 430.3 430.27 431 429.59 429.12 429.62 9999 9999 9999 9999 9999 9999 9999 9999 430.7 431.57 431.39 430.96 430.73 430.41 429.73 428.33 9999 9999 428.95 429.39 430.74 431.12 431.3 431.61
455.78 454.43 453.4 452.81 452.33 451.19 449.01 447.54 445.97 442.85 441.14 439.93 438.38 436.82 436.94 435.03 434.55 432.52 430.57 430.06 9999 9999 9999 9999 9999 9999 9999 9999 9999 9999 9999 9999 9999 9999 9999 9999 9999 9999 9999 9999 9999 9999 9999 9999 9999 9999 9999 9999 9999 9999 9999 9999 9999 9999 9999 9999 9999 9999 9999 9999 9999 9999 9999 430.29 429.83 9999 9999 9999 430 430.18 9999 9999 9999 9999 9999 9999 9999 429.98 429.99 430.53 429.02 9999 429.43 430.67 429.84 430.72 430.62 430.82 430.13 430.03 430.55 430.22 430.45 430.2 430.33 430.82 429.66 429.86 9999 9999 9999 9999 9999 9999 9999 9999 9999 9999 9999 9999 9999 9999 9999 9999 9999 9999 9999 9999 9999 9999 9999 9999 9999 9999 429.36 429.3 429.08 429.36 430.14 429.88 428.9 9999 9999 429.72 429.85 431.27 431.39 430.74 430.67 430.88 430.08 429.76 431.03 431.5 9999 9999 9999 9999 9999 9999 9999 431.73 431.77 431.16 430.96 431.58 430.85 429.98 9999 9999 9999 430.16 431.19 431.41 431.13 431.57 432.09
456.73 456.19 455.29 454.68 453.55 452.58 450.58 448.56 446.97 445.96 443.74 442.19 439.45 439.96 437.94 437.56 436.96 435.01 433.79 431.57 431.21 9999 9999 9999 9999 9999 9999 9999 9999 9999 9999 9999 9999 9999 9999 9999 9999 9999 9999 9999 9999 9999 9999 9999 9999 9999 9999 9999 9999 9999 9999 9999 9999 9999 9999 9999 9999 9999 9999 9999 9999 9999 430.83 431.13 9999 9999 9999 431.13 429.74 429.88 9999 9999 9999 9999 9999 9999 9999 9999 430.67 430.03 429 428.93 9999 430.29 430.4 430.18 429.8 430.52 430.86 430.18 430.77 430.55 430.54 9999 9999 430.88 432.37 429.33 429.19 9999 9999 9999 9999 9999 9999 9999 9999 9999 9999 9999 9999 9999 9999 9999 9999 9999 9999 9999 9999 9999 9999 9999 9999 9999 429.28 429.04 429.06 429.03 430.19 429.81 428.8 9999 9999 429.86 430.31 430.01 431.07 430.33 430.45 431.12 430.83 430.65 431.15 431.99 431.94 9999 9999 9999 9999 9999 429.09 430.27 429.64 429.59 429.98 429.78 429.63 427.69 9999 9999 9999 428.98 429.38 431.54 432.36 431.58 431.71
458.11 457.82 457.85 456.2 455.73 455.01 452.54 450.73 448.82 447.47 445.03 443.75 442.52 441.46 440.05 439.46 437.94 436.35 434.51 433.02 433.09 431.17 9999 9999 9999 9999 9999 9999 9999 9999 9999 9999 9999 9999 9999 9999 9999 9999 9999 9999 9999 9999 9999 9999 9999 9999 9999 9999 9999 9999 9999 9999 9999 9999 9999 9999 9999 9999 9999 9999 9999 431.16 430.57 9999 9999 9999 9999 429.97 429.9 430.36 429.34 9999 9999 9999 9999 9999 9999 9999 430.51 430.03 429.07 429.14 428.82 430 430.45 430.5 430.04 429.85 9999 430.69 430.55 430.37 430.6 430.49 9999 430.97 431.11 431.85 429.6 9999 9999 9999 9999 9999 9999 9999 9999 9999 9999 9999 9999 9999 9999 9999 9999 9999 9999 9999 9999 9999 9999 9999 9999 9999 9999 428.9 9999 428.83 429 429.43 428.95 9999 9999 9999 429.02 429.22 430.89 429.39 431.45 430.72 430.85 431.11 431.1 432.21 432.63 433.44 430.44 9999 9999 9999 429.28 429.1 429.51 429.35 429.54 427.87 429.29 9999 9999 9999 9999 9999 429.25 431.5 431.06 431.39 431.6
460.75 460.31 459.71 458.59 457.14 455.98 454.43 452.95 450.94 449.7 448.53 445.52 443.81 443.66 441.99 441.89 439.39 438.65 436.05 435.64 433.76 432.54 431.77 430.17 9999 9999 9999 9999 9999 9999 9999 9999 9999 9999 9999 9999 9999 9999 9999 9999 9999 9999 9999 9999 9999 9999 9999 9999 9999 9999 9999 9999 9999 9999 9999 9999 9999 9999 9999 9999 431.67 430.5 430.91 9999 9999 9999 431.08 430.2 430.27 430.27 429.84 9999 9999 9999 9999 9999 9999 430.78 430.11 430.19 428.97 429.03 428.5 431 430.58 430.44 430.39 430.27 430.61 430.45 430.77 431.19 431.33 430.58 430.89 429.86 430.37 431.14 429.72 429.24 9999 9999 9999 9999 9999 9999 9999 9999 9999 9999 9999 9999 9999 9999 9999 9999 9999 9999 9999 9999 9999 9999 9999 9999 9999 9999 9999 9999 428.61 429.41 428.44 9999 9999 9999 9999 429.77 429.8 430.88 431.1 430.57 430.76 430.83 431.56 433.74 433.84 432.44 432.89 431.23 9999 9999 9999 428.94 429.85 429.49 428.09 9999 9999 9999 9999 429.83 429.14 429.02 429.19 430.56 431.11 431.03 431.1
462.03 461.8 461.69 459.62 458.89 458.68 456.75 455.08 453.77 452.48 450.69 449 448.03 446.2 445.38 442.6 441.24 439.77 438.59 438.46 437.8 436.02 433.38 432.86 432.27 9999 9999 9999 9999 9999 9999 9999 9999 9999 9999 9999 9999 9999 9999 9999 9999 9999 9999 9999 9999 9999 9999 9999 9999 9999 9999 9999 9999 9999 9999 9999 9999 9999 429.35 431.19 430.68 431.16 429.92 9999 9999 9999 431.36 430.36 430.44 430.46 430.5 430.64 9999 9999 430.11 429.9 430.64 430.61 430.57 430.67 428.6 428.77 9999 430.55 430.27 430.39 429.89 430.19 430.8 430.94 430.56 431.72 431.93 432.25 431.85 430.8 430.33 430.13 429.33 429.2 9999 9999 9999 9999 9999 9999 9999 9999 9999 9999 9999 9999 9999 9999 9999 9999 9999 9999 9999 9999 9999 9999 9999 9999 9999 9999 9999 9999 9999 428.56 427.96 9999 9999 9999 9999 429.52 429.64 430.33 430.87 430.49 430.42 430.67 432.49 433.48 432.36 432.01 432.26 432.33 430.9 9999 9999 429.69 429.85 428.49 9999 9999 9999 9999 429.4 429.4 429.45 428.81 428.8 430.49 430.91 430.88 430.79
464.94 464.57 462.97 461.79 460.79 461.05 459.52 458.26 457.19 455.76 452.85 450.84 449.55 448.7 447.19 444.73 443.48 442.28 441.52 441.16 439.72 439.71 437.56 436.48 435.33 433.87 432.26 9999 9999 9999 9999 9999 9999 9999 9999 9999 9999 9999 9999 9999 9999 9999 9999 9999 9999 9999 9999 9999 9999 9999 9999 9999 9999 9999 9999 9999 9999 9999 430.02 430.33 430.52 429.74 430.21 430.11 9999 9999 9999 429.79 430.27 431.06 430.68 430.27 9999 9999 430.61 430.41 430.67 430.42 431.33 431.28 429.23 428.65 9999 430.5 430.31 429.95 430 429.53 430.45 429.77 430.69 430.87 432.79 432.79 432.88 431.96 430.72 431.72 429.28 429.59 9999 9999 9999 9999 9999 9999 9999 9999 9999 9999 9999 9999 9999 9999 9999 9999 9999 9999 9999 9999 9999 9999 9999 9999 9999 9999 9999 9999 9999 9999 9999 9999 9999 9999 9999 430.21 428.85 430.71 430.7 430.38 429.84 430.7 433.48 432.37 432.62 432.29 431.76 431.46 431.45 9999 9999 9999 9999 9999 9999 9999 9999 9999 428.93 429.33 429.63 429.1 9999 430.66 430.79 431.55 431.81
466.27 466.02 464.78 464.51 464.1 462.51 461.51 460.84 458.37 457.23 456.56 455.04 452.39 450.6 447.5 446.1 445.56 445.59 444.96 444.85 442.64 442.6 440.11 438.53 438.49 437.8 436.93 436.52 433.14 431.57 430.25 9999 9999 9999 9999 9999 9999 9999 9999 9999 9999 9999 9999 9999 9999 9999 9999 9999 9999 9999 9999 9999 9999 9999 9999 9999 430.15 428.92 427.82 430.32 430.32 430.67 430.43 429.84 9999 9999 9999 430.16 430.03 430.11 430.09 430.05 430.11 430.18 430.22 430.48 430.68 430.55 430.59 430.91 428.7 428 9999 430.41 430.65 430.23 429.89 9999 9999 9999 430.95 430.49 432 432.6 433.19 433.26 431.4 430.92 429.89 428.55 9999 9999 9999 9999 9999 9999 9999 9999 9999 9999 9999 9999 9999 9999 9999 9999 9999 9999 9999 9999 9999 9999 9999 9999 9999 9999 9999 9999 9999 9999 9999 9999 9999 9999 9999 9999 429.89 430.09 430.78 430.56 430.43 430.51 432.26 432.3 432.36 431.55 431.66 431.8 431.72 429.93 9999 9999 9999 9999 9999 9999 9999 9999 429.17 429.1 428.92 9999 9999 430.09 431.72 431.68 431.35
469.48 468.01 466.13 466.33 465.96 465.73 464.73 464.25 461.67 460.06 458.91 457.81 454.75 452.81 450.89 449.6 447.34 448.33 447.56 448.19 446.87 445.14 445.18 442.85 440.31 439.39 439.53 438.68 437.33 437.04 436.89 433.7 431.66 9999 9999 9999 9999 9999 9999 9999 9999 9999 9999 9999 9999 9999 9999 9999 9999 9999 9999 9999 9999 9999 428.89 431.3 428.53 9999 9999 9999 428.84 428.7 429.82 9999 9999 9999 9999 430.41 430.22 430.52 429.78 430.5 430.31 430.27 430.5 430.46 430.07 430.53 430.28 430.39 428.9 9999 9999 430.23 430.9 430.35 430.82 430.57 429.85 9999 9999 429.91 431.48 432.39 433.24 432.8 432.59 432.17 432.07 429.03 428.94 9999 9999 9999 9999 9999 9999 9999 9999 9999 9999 9999 9999 9999 9999 9999 9999 9999 9999 9999 9999 9999 9999 9999 9999 9999 9999 9999 9999 9999 9999 9999 9999 9999 9999 9999 9999 429.66 430.22 430.73 431.23 432.02 432.29 432.67 431.8 431.85 431.31 431.12 430.97 429.96 429.2 9999 9999 9999 9999 9999 9999 9999 428.78 428.84 428.91 9999 9999 430.79 431.74 431.72 431.78
472.26 470.64 470.4 470.07 468.08 467.69 466.71 466.85 464.55 464.95 462.72 459.94 457.09 455.02 453.88 453.17 452.33 453.09 452.85 450.48 449.87 448.98 447.74 444.9 444.92 444.08 443.76 441.49 439.63 439.86 439.31 438.06 436.65 436.73 434.54 434.29 433.72 433.78 431.88 431.35 9999 9999 9999 9999 9999 9999 9999 9999 9999 9999 9999 9999 9999 431.67 431.35 428.11 9999 9999 9999 9999 9999 9999 9999 9999 9999 9999 9999 429.67 430.38 430.25 430.2 430.39 430.49 430.49 430.66 430.61 430.76 430.32 430.72 430.55 429.14 9999 430.25 431.31 429.99 430.87 430.36 430.38 430.73 430.91 430.6 430.71 430.94 431.53 431.62 432.25 432.38 432.12 431.7 430.6 429.28 428.45 9999 9999 9999 9999 9999 9999 9999 9999 9999 9999 9999 9999 9999 9999 9999 9999 9999 9999 9999 9999 9999 9999 9999 9999 9999 9999 9999 9999 9999 9999 9999 9999 9999 9999 9999 430.29 430.59 430.8 430.76 432.51 431.79 431.93 431.88 431.63 430.97 431.45 431.11 429.91 429.46 9999 9999 9999 9999 9999 9999 9999 9999 429.26 9999 9999 430.21 430.99 431.25 431.62 431.45
475.05 474.03 473.27 473.13 472.36 472 471.59 468.9 467.89 466.97 465.56 463.52 460.95 460.56 459.24 456.09 456.3 457.36 456.63 456.28 455.08 454.67 450.17 448.81 447.26 447.05 446.03 445.47 443.38 444.15 441.28 440.91 440.46 439.99 438.47 437.56 437.81 436.81 434.1 434.32 433.57 432.57 431.81 431 9999 9999 9999 9999 430.15 430.69 431.01 430.16 429.56 430.01 429.13 9999 9999 9999 9999 9999 9999 9999 9999 9999 9999 9999 9999 429.37 430.61 431.25 430.77 430.56 430.42 430.37 430.63 430.79 430.9 431.14 430.71 430.39 429.05 9999 429.7 430.61 430.71 430.87 430.3 430.55 430.63 430.7 430.56 430.67 430.26 430.42 430.09 430.51 432.39 432.2 430.9 431.54 430.11 429.04 9999 9999 9999 9999 9999 9999 9999 9999 9999 9999 9999 9999 9999 9999 9999 9999 9999 9999 9999 9999 9999 429.37 428.56 9999 9999 9999 9999 9999 9999 9999 9999 9999 9999 9999 9999 429.24 430.83 430.89 432.48 432.3 431.83 431.77 431.23 431.2 430.42 431.16 430.08 430.4 429.03 9999 9999 9999 429.88 431.15 430.55 9999 9999 9999 9999 9999 430.63 431.63 431.94 431.74 431.96
481.48 479.24 479.47 476.02 475.95 474.96 474.64 474.71 473.69 471.8 468.89 465.74 464.9 464.45 463.22 462.57 463.52 463.79 460.51 459.87 458.54 457.45 455.1 453.76 451.94 450.99 448.86 447.93 446.23 445.98 445.02 444.78 444.45 442.36 441.6 440.68 440.79 439.01 438.57 438.38 436.78 434.97 433.39 432.93 432.97 431.56 430.22 430.21 430.51 430.32 431.09 430.28 429.9 430.1 428.23 9999 9999 9999 9999 9999 9999 9999 9999 9999 9999 9999 9999 432.23 429.21 431.05 430.12 430.12 430.39 430.54 431.28 430.91 430.71 430.32 431.39 431.28 9999 9999 430.79 430.76 430.51 430.63 430.42 430.65 431.05 430.63 430.14 430.35 9999 9999 9999 9999 9999 429.98 430.7 430.4 431.01 429.41 9999 9999 9999 9999 9999 9999 9999 9999 9999 9999 9999 9999 9999 9999 9999 9999 9999 429.31 429.14 9999 429.48 429.55 429.7 429.49 9999 9999 9999 9999 9999 9999 9999 9999 9999 9999 9999 430.07 430.44 430.71 433.5 432.97 431.92 431.17 431.2 430.6 430.62 430.32 429.57 429.93 428.71 9999 9999 9999 429.34 429.89 430.46 9999 9999 9999 9999 430.11 431.27 431.2 431.17 432.22 430.89
487.33 486.43 483.16 481.96 481.21 480.21 478.36 478.47 477.23 474.6 473.02 472.44 471.35 468.47 467.72 467.58 468.44 468.55 466.73 465.8 465.41 460.37 458.94 457.35 455.39 454.72 453.05 452.07 450.57 448.17 447.5 447.67 446.95 446.8 446.06 445.79 442.94 442.15 440.95 440.33 440.47 438.59 439.17 438.02 435.05 433 431.73 431.35 431.49 430.34 430.2 430.04 430.54 430.54 9999 9999 9999 9999 9999 9999 9999 9999 9999 9999 430.71 9999 9999 9999 429.26 430.1 430.75 430.58 430.3 431.13 431.31 430.88 430.76 431.44 430.76 430.84 428.88 9999 429.94 430.81 430.44 430.45 430.41 431.13 431.13 430.93 430.73 430.12 9999 9999 9999 9999 9999 9999 9999 430.53 430.36 431.89 431.82 9999 9999 9999 9999 9999 9999 9999 9999 9999 9999 9999 9999 9999 9999 9999 430.56 431.06 430.34 430.25 431.32 431.62 430.69 430.15 430.49 9999 9999 9999 9999 9999 9999 9999 9999 9999 9999 430.36 430.33 430.98 432.85 432.96 432.67 431.56 430.71 430.06 430.08 429.58 429.74 428.74 429.08 9999 9999 9999 9999 428.69 428.43 428.48 9999 9999 429.66 431.22 431.13 431.11 431.33 431.6 431.9
492.67 489.37 487.03 485 484.21 485.18 485.27 484.14 482.86 478.57 477.57 476.56 476.28 475.67 474.68 474.11 473.33 472.34 471.2 469.54 469.16 466.49 463.61 462.14 458.9 457.6 456.34 454.59 454.23 453.28 452.58 453 450.71 449.21 447.9 448.13 446.84 445.47 445.19 444.24 442.38 441.65 441.26 440.37 438.72 437.39 436.14 433.22 432.39 431.17 430.6 431.28 430.35 430.77 430.33 9999 9999 9999 9999 9999 9999 430.17 430.29 430.32 430.79 429.43 9999 9999 428.51 429.27 430.5 430.67 429.86 430.81 430.79 431.14 430.41 430.93 431.03 429.99 428.66 9999 429.72 430.31 430.79 430.87 430.97 431.29 430.93 430.92 430.65 430.5 9999 9999 9999 9999 9999 9999 430.52 430.47 430.56 430.43 431.65 433.43 431.71 9999 9999 9999 9999 9999 9999 9999 9999 9999 9999 9999 430.02 431.8 432.29 431.9 431.75 431.29 431.03 431.56 430.51 430.29 429.33 9999 9999 9999 9999 9999 9999 9999 9999 9999 430.51 430.63 430.25 431.16 431.43 432.03 431.5 431.03 429.86 429.88 430.16 429.91 429.18 428.81 9999 9999 9999 9999 9999 429.32 429.44 429.16 9999 430.8 431.36 431.31 431.96 431.56 431.63 431.66 431.42
496.35 494.47 491.85 491.41 488.89 488.34 490.66 489.75 488.19 486.42 485.94 485.97 481.44 479.66 478.25 478.98 479.83 479.21 477.67 476.11 473.21 468.63 467.43 465.64 464.44 463.04 460.79 458.48 456.38 456.26 455.61 456.05 455.22 454.2 453 450.57 448.86 447.66 447.84 447.05 446.28 445.42 444.32 441.81 441.63 440.95 438.82 436.96 436.32 433.75 431.14 432.64 432.76 431.79 430.64 9999 9999 9999 9999 9999 430.93 430.29 430.39 430.66 430.3 430.17 429.18 9999 9999 9999 429.14 429.26 429.81 430.11 430.58 430.92 430.53 431.24 430.79 431 9999 9999 429.73 430.6 430.4 431.18 431.19 430.79 430.96 430.89 430.62 430.63 430.46 430.48 9999 9999 9999 9999 430.27 430.84 430.23 430.85 430.44 430.49 431.2 432.26 433.48 432.02 430.82 430.69 430.27 429.6 429.65 431.77 432.81 434.42 433.64 433.03 432.34 432.07 431.5 431.1 431.37 431.01 430.64 430.11 429.9 9999 9999 9999 9999 9999 9999 9999 9999 430.59 430.36 430.69 430.21 431.1 431.99 432.31 431.05 430.13 430.6 430.34 430.55 430.89 429.88 429.04 9999 9999 9999 9999 429.76 430.98 430.21 430.75 431.65 431.91 431.26 431.55 431.99 431.86 431.78 431.82 431.84
500.31 497.69 496.85 496.01 495.92 496.68 497.16 497.59 494.28 493.26 492.81 492.1 490.7 489.41 489.57 484.9 484.51 484.11 482.63 480.29 477.47 473.91 471.76 469.31 468.23 466.91 465.27 463.25 462.77 460.93 461.06 459.38 458.29 457.01 456.05 455.12 454.61 452.5 450.7 449.75 449.18 447.79 447.04 446.28 445.8 444.48 442.08 440.86 439.14 436.48 436.13 436.11 434.19 433.78 431.62 430.91 430.81 430.52 431.42 431.13 431.05 429.35 430.47 430.73 430.55 430.55 430.65 430.28 9999 9999 9999 428.88 430.49 430.54 431.19 430.73 430.42 430.72 430.4 430.65 431.26 9999 430.66 430.48 430.57 430.48 430.7 430.61 430.96 430.54 431.19 430.96 431.08 430.59 430.62 9999 9999 9999 430.96 430.91 430.19 430.9 429.67 430.26 430.81 430.87 430.91 430.86 432.49 434.8 434.73 434.67 434.41 434.07 434.33 434.07 433.58 432.91 432.56 431.66 430.86 431.3 431.27 430.77 430.9 430.48 429.72 9999 9999 9999 9999 9999 9999 9999 430.69 429.98 429.81 430.56 430.52 431.8 431.39 431.12 431.12 430.22 431.02 431.01 431.15 431.07 430.54 429.94 9999 9999 429.8 430.49 431.16 431.51 432.02 431.76 430.88 431.43 431.45 431.82 432.07 431.58 432.23 431.85 431.83
506.51 504.92 504.83 500.74 500.47 501.85 502.68 503.93 505.58 506.48 507.79 503.82 501.97 500.24 497.57 494.13 492.01 491.02 489.56 483.96 481.57 479.3 476.69 474.4 472.99 470.99 467.53 466.77 465.67 464.61 464.25 464.39 462.15 460.64 459.36 458.67 457.14 455.74 455.73 454.18 452.93 452.23 449.72 448.36 448.11 448.31 447.43 446.46 444.6 440.62 439.55 438.88 437.65 435.79 435.21 433.81 433.54 431.11 431.79 432.4 432.51 431.85 431.62 431.08 430.62 430.5 430.34 430.75 430.53 9999 9999 9999 9999 430.32 431.91 431.51 430.78 430.58 431.2 431.08 429.34 9999 430.35 430.64 430.85 430.8 430.84 430.98 430.99 430.61 9999 9999 430.66 431.21 431.41 430.65 430.99 430.38 430.38 429.71 431.3 430.49 430.38 431.03 430.45 431.45 433.78 435.05 435.42 434.97 434.64 434 434.2 434.34 433.54 432.71 432.89 432.22 431.65 431.35 431.66 430.97 430.62 430.54 430.62 430.71 430.29 429.58 9999 9999 9999 9999 9999 429.66 429.5 430.29 430.32 431.05 430.38 431.29 431.09 431.35 430.79 430.97 430.03 430.64 430.35 430.76 430.77 429.76 9999 9999 431.29 431.62 431.23 431.6 431.11 431.6 431.6 431.26 431.73 431.91 432.36 432.2 431.74 431.79 432.05
512.41 512.09 511.77 509.94 509.81 510.64 507.72 509.46 510.71 512.47 513.88 512.24 511.04 507.14 501.55 499.08 497.38 495.54 492.35 489.43 488.1 487.74 482.99 479.54 476.56 474.8 472.88 472.54 471.24 469.4 467.58 466.78 464.7 465.2 464.19 462.81 460.65 458.56 458.27 456.24 455.42 454.54 453.85 453.4 452.34 450.37 450.88 450.37 450.15 447.96 445.94 445.03 440.83 438.97 438.26 437.24 435.57 435.32 434.97 433.66 433.64 433.55 432.98 431.91 431.97 431.01 430.74 430.7 430.06 430.11 430.39 9999 9999 9999 428.96 430.35 430.54 430.94 430.72 431.1 431.73 9999 430.44 430.38 431.1 430.89 431.3 431.11 431.16 431.66 431.33 430.73 9999 430.79 430.94 430.98 431.06 430.85 430.52 430.3 9999 430.28 430.59 431.37 433.61 433.97 436.03 434.65 434.7 434.63 434.95 434.13 434.54 434.04 433.65 433.16 431.63 431.31 431.58 430.6 430.91 430.6 430.99 431.12 430.52 430.9 430.68 430.63 429.79 430 430.01 430.66 430.01 429.75 429.97 429.97 430.29 430.14 430.99 431.43 431.35 430.99 430.65 430.87 430.34 431.32 431.21 431.33 430.82 428.11 9999 9999 431.15 431.21 431.76 432.15 432.03 431.76 431.94 431.66 431.71 432.38 432.3 432.17 432.5 432.24 432.25
522.86 523.06 518.42 517.34 516.01 516.52 517.96 517.55 520.52 520.05 517.51 517.67 516.8 515.21 510.71 506.68 504.5 499.23 496.71 493.31 491.77 491.05 488.24 484.37 482.73 478.39 477.84 476.76 474.81 474.02 472.7 470.45 470.39 468.34 467.5 465.7 463.64 463.25 462.48 461.29 458.17 457.69 457.31 456.39 455.41 455.09 454.77 455.11 454.11 453.52 451.23 448.97 444.99 444.28 444.15 440 439.49 437.96 437.21 436.8 436.76 435.79 435.59 434.41 433.29 432.69 432.33 432.69 431.89 432.2 431.09 430.59 429.45 9999 9999 428.72 430.44 429.95 431.17 431.61 427.93 9999 431.69 430.51 431.02 430.59 431.18 431.2 431.17 431.23 430.88 430.89 430.9 430.94 430.86 431.05 430.84 430.52 430.6 430.97 430.84 430.53 431.14 433.45 434.98 434.74 434.54 434.08 434.41 433.06 432.78 433.53 433.76 434.04 432.83 432.27 432.52 431.1 430.52 430.77 430.56 431.38 431.39 431.26 430.68 431.33 430.48 430.47 430.64 430.42 429.29 429.71 429.89 429.31 429.72 429.5 430.09 430.38 431.36 431.56 430.7 430.89 431.2 431.24 430.49 430.67 430.7 430.31 430.57 9999 9999 430.52 431.22 431.58 431.8 431.91 432.41 431.52 431.22 431 432.3 431.7 432.02 431.83 431.88 431.35 431.8
529.75 529.88 531.54 530.32 528.07 523.61 522.49 523.22 525.66 524.96 524.91 525.42 524.23 520.16 516.83 511.69 509.22 505.71 502.74 500.53 497.92 493.85 491.6 488.44 486.25 485.33 482.77 481.16 478.44 476.68 475.43 474 474.04 474.8 472.81 471.01 466.7 466.51 465.56 463.97 464.08 462.08 461.85 458.94 458.69 457.45 458.16 458.75 458.18 456.42 453.93 451.48 449.62 447.7 446.51 444.2 443.14 440.7 439.91 438.89 438.77 438.34 437.93 437.18 436.99 436.44 434.72 434.46 433.21 433.66 433.14 432.41 430.97 429.91 9999 9999 9999 430.74 430.51 431.03 428.61 9999 430.92 430.56 431.14 431.28 431.75 430.85 431.4 431.55 431.35 431.41 430.96 431.39 431.03 430.8 430.96 430.84 430.77 430.85 430.73 432.07 432.03 433.03 434.33 433.93 431.4 9999 9999 9999 9999 9999 9999 431.49 432.63 432.32 431.2 430.87 430.8 430.85 431.23 431.53 431.21 431.38 431.14 430.99 431.14 431.13 431.03 430.6 9999 9999 430.04 430.08 429.88 430.47 430.33 431.12 432.67 432.33 430.25 431 430.22 430.85 430.78 430.95 431.14 431.4 430.49 9999 9999 431.37 430.86 431.67 432.1 432.33 431.67 431.51 432.15 431.31 431.75 431.66 432.21 432.2 431.25 431.5 431.14
539.24 536.43 537.55 537.82 537.42 536.66 534.06 535.68 531.07 530.2 529.97 529.94 528.2 526.75 523.12 520.66 514.56 510.38 507.03 505.16 503.15 499.97 498.49 494.46 490.75 488.98 487.94 486.73 483.75 483.36 481.85 479.3 479.17 478.5 476.47 474.8 472.63 471.32 472.01 468.77 467.46 466.54 465.56 464.38 465.03 463.56 463.78 460.76 460.26 458.45 456.38 455.06 454.68 453.61 449.45 447.33 445.03 444.36 441.33 442.15 442.74 442.17 440.43 438.97 439.07 437.67 436.97 438.17 436.53 434.81 435.31 433.84 432.46 432.19 430.98 9999 9999 9999 430.56 430.61 9999 9999 429.37 430.64 431.45 431.1 431.16 431.07 431.36 431.12 430.79 431.27 431.4 431.03 431.31 431.9 431.24 431.56 431.64 431.32 431.01 431.12 431.12 431.42 431.04 9999 9999 9999 9999 9999 9999 9999 9999 9999 431.93 432.32 431.61 431.01 431.19 431.64 430.91 431.45 430.75 431.55 431.29 431.07 430.8 431.37 431.24 429.51 9999 429.97 430.47 429.77 430.21 430.25 430.59 432.07 431.65 431.56 430.56 431.86 432.97 430.72 429.94 431.05 430.85 431.01 9999 9999 431.07 431 431.17 432.07 431.71 431.66 431.6 431.79 430.96 431.07 431.96 431.79 432.39 432.07 431.87 431.42 430.87
545.97 547.79 548.13 548.04 544.5 542.86 539.88 541.31 540.79 539.33 538.19 537.58 534.12 531.11 528.42 526.04 522.4 518 517.07 511.27 507.56 506.01 502.61 499.78 498.33 497.05 496.07 490.25 489.47 488.25 487.16 485.6 485.45 484.71 483.97 478.84 477.21 475.58 475.84 474.49 474.24 472.6 469.02 467.69 467.93 467.19 467.08 465.87 463.13 461.5 458.9 457.59 456.61 456.55 454.08 450.48 450.31 447.42 445.34 445.61 445.42 444.31 443.9 443.06 441.56 438.96 438.89 439.37 437.81 437.53 436.5 436.37 435.86 433.77 432.63 431.98 429.9 9999 9999 9999 9999 428.51 430.03 430.37 431.07 431.36 431.28 431.61 431.21 431.27 429.69 431.02 431.98 431.27 431.42 431.8 431.36 431.84 431.23 431.47 431.65 431.68 432.1 430.36 9999 9999 9999 9999 9999 9999 9999 9999 9999 9999 431.9 431.32 431.47 430.8 431.74 430.79 430.69 431.4 431.15 431.09 430.72 430.82 431.23 430.98 431.14 430.29 9999 430.68 430.76 430.33 430.37 430.54 430.89 431.09 431.61 430.69 431.78 431.82 431.14 429.78 429.19 428.63 9999 9999 9999 430.82 431 431.28 431.79 431.65 431.7 431.84 431.41 431.23 431.67 431.47 432.25 431.8 431.39 431.71 431.83 430.81 9999
552.06 553.21 553.14 551.99 551.09 549.44 548.68 547.03 546.69 545.64 543.7 542.78 542.04 540.26 537.5 532.8 529.15 525.12 523.74 520 517.13 515.48 509.18 506.07 503.79 502.63 500.81 499.62 497.01 496.21 493.63 491.23 490.11 489.28 487.67 485.51 485.52 484.45 480.88 479.76 478.22 477.54 476.44 474.49 473.63 472.19 471.35 468.47 467.15 465.24 463.25 461.2 460.44 458.37 456.7 454.41 453.55 453.57 451.43 450.35 449.05 445.6 445.38 444.39 443.52 442.41 442.53 441.68 439.94 439.39 437.74 437.94 437 436.15 435.62 433.25 430.91 430.34 9999 9999 9999 9999 429.06 430.45 430.92 431.13 431.29 431.38 431.57 431.67 431.17 431.46 431.61 431.69 431.79 431.83 432.5 433.36 432.76 432.69 432.39 432.4 432.26 9999 9999 9999 9999 9999 9999 9999 9999 9999 9999 9999 431.36 430.96 430.03 430.77 431.94 430.64 431.32 430.94 431.37 431.47 430.73 431.15 431.58 431.53 431 431.19 9999 430.27 431.77 431.16 430.71 430.54 431.76 431.34 431.35 431.5 432.05 431.69 429.26 429.25 9999 9999 9999 9999 430.3 430.77 430.48 431.1 431.52 431.22 431.57 431.78 431.51 431.33 432.09 431.2 431.16 431 431.22 431.47 431.6 9999 9999
557.91 558.43 558.86 556.29 556.14 554.62 554.85 555.58 554.8 554.62 549.97 548.83 548.39 547.29 545 543.8 543.18 541.29 531.85 527.79 523.88 522.27 519.28 516.54 514.36 512.15 506.78 504.92 503.54 502.81 500.66 499.59 498.35 494.66 492.8 491.88 490.61 489.75 489.75 488.23 488.49 483.87 480.73 479.11 478.44 478.43 476.55 474.48 472.94 468.55 465.39 463.27 461.65 460.67 460.4 458.87 456.34 455.49 455.33 453.54 451.11 449.81 449.1 448.23 446.08 445.36 444.69 443.62 442.6 442.11 440.87 439.06 438.57 437.96 435.99 434.43 433.49 432.43 431.31 9999 9999 9999 429.37 429.93 430.61 431.05 431.58 431.31 430.98 431.11 431.51 431.85 431.73 431.64 432.1 433.49 434.37 434.44 435.58 435.48 435.44 435.28 433.43 9999 9999 9999 9999 9999 9999 9999 9999 9999 9999 9999 9999 430.61 431.13 430.71 430.87 431.16 430.7 9999 430.75 430.76 430.85 431.17 431.2 431.54 431.19 431.23 431.17 430.75 430.62 431.88 431.33 430.89 431.2 431.21 431.66 431.57 431.2 430.51 9999 9999 9999 9999 9999 9999 430.7 430.39 430.83 431.11 431.36 431.33 431.9 431.89 431.26 431.74 431.17 431.16 431.5 431.62 430.97 430.75 431.54 9999 9999
562.44 562.08 562.86 563.6 563.62 563.61 560.26 561.77 562.61 562.89 561.1 561.7 561.26 557.54 552.39 550.36 549.91 546.9 543.57 539.69 536.04 529.72 526.55 523.57 520.94 519.58 517.27 515.25 513.09 509.15 506.82 505.25 505.41 503.26 501.6 500.97 496.5 495.35 494.03 494.54 494.08 493.5 490.76 488.69 483.32 482.28 479.56 478.29 476.88 473.68 470.63 467.6 463.99 462.82 463.4 462.34 461.85 461.22 459.72 456.65 454.55 453.23 452.2 450.79 450.18 449.18 449.52 446.64 444.72 444.12 442.45 441.6 440.69 439.45 437.82 435.47 435.11 433.5 432.78 431.32 9999 9999 9999 429.27 430.37 430.58 431.4 431.71 431.28 431.52 432.14 434.51 434.58 432.77 432.56 431.84 432.49 433.5 433.15 432.87 432.58 433.15 433.89 434.43 434.74 432.17 9999 9999 9999 9999 9999 9999 9999 9999 9999 431.45 431.52 430.76 431.12 430.79 430.92 431.24 430.96 431.39 431.3 431.52 431.01 431.4 431.65 430.61 431.67 431.25 430.11 431.03 430.8 431.16 431.85 430.2 427.89 9999 9999 9999 9999 9999 9999 9999 9999 9999 430.43 430.63 431.17 431.41 431.25 431.13 431.18 431.41 431.29 431.67 431.26 431.43 431.61 430.69 430.99 430.89 431.37 9999 9999
568 567.17 568.02 568.35 568.13 569.25 569.53 571.25 573.97 570.74 570.4 571.99 570.25 568.52 564.41 561.12 559.96 555 550.94 548.88 546.06 543.35 538.9 535.03 529.36 528.53 525.88 522.68 520.82 519.03 517.07 515.43 511.19 509.47 507.98 507.07 507.32 506.28 505.5 505.94 500.79 500.48 497.92 495.98 492.46 490.28 487.2 482.91 480.78 477.34 472.66 470.37 469.04 468.11 467.32 464.71 464.11 463.32 462.26 459.58 458.81 457.42 456.3 453.45 452.44 451.96 451.65 449.58 448.37 445.87 443.64 443.14 441.74 440.58 439.19 438.11 436.78 435.44 433.81 431.81 431.11 9999 9999 429.28 429.11 430.45 431.03 431.23 431.38 433.89 434.91 434.8 434.89 434.41 433.9 432.82 432.16 432.18 432 431.71 431.83 431.76 431.19 431.25 431.24 431.08 431.06 431.31 431.51 430.79 9999 9999 9999 9999 9999 430.2 431.09 430.76 431.34 431.03 9999 431.22 431.1 431.16 431.16 430.88 431.36 430.98 430.85 430.73 431.11 430.97 430.51 430.12 430.85 431.49 431.81 429.19 9999 9999 9999 9999 9999 9999 9999 9999 9999 429.35 430 429.87 431.03 431.53 431.4 9999 9999 9999 9999 431.1 431.38 431.64 431 431.07 430.9 430.98 430.55 431.67 9999
572.91 573.68 574.93 576.37 578 575.55 576.92 578.99 582.25 583.31 584.22 583.23 577.66 576.16 571.6 569.46 568.95 569.15 567.79 563.84 556.6 553.42 549.9 546.43 544.7 540.27 536.1 533.82 528.04 526.2 523.82 522.79 521.87 521.13 519.14 514.12 515.73 515.79 514.97 514.73 513.78 511.42 507.76 503.1 499.82 496.63 492.46 489.77 487.1 482.85 477.17 474.28 473.25 471.13 470.96 469.87 468.5 467.62 465.5 463.23 461.36 460.25 458.53 456.8 455.75 454.54 453.15 451.29 450.23 447.8 445.92 444.84 443.28 442.31 441.11 439.59 437.99 437.18 435.32 434 432.57 429.95 9999 9999 429.64 430.79 430.34 431.6 433.83 434.87 434.39 435.12 434.3 434.49 434.2 433.54 433.95 434.69 433.68 432.45 431.54 431.62 430.18 431.07 431.31 431.74 431.03 431.47 431.18 430.24 9999 9999 9999 9999 9999 9999 431.26 430.93 430.69 431.28 430.75 430.61 430.79 431.11 431.47 430.96 430.82 430.58 431.08 430.85 431.15 430.52 430.34 428.93 431.3 430.59 429.03 9999 9999 9999 9999 9999 9999 9999 9999 9999 9999 429.19 430.13 429.89 430.67 431.05 9999 9999 9999 9999 9999 431.33 431.93 431.65 431.32 430.58 429.7 430.16 430.6 431.51 431.34
577.16 578.38 579.46 580.27 582.56 585.79 588.26 588.66 589.41 589.68 589.64 588.24 587.47 584.84 584.03 578.03 577.56 580.94 580.35 578.44 573.91 571.62 568.62 558.99 554.54 549.97 545.71 542.14 541.68 540.73 537.7 531.71 531.01 530.21 529.36 528.84 528.47 530.01 525.75 524.04 519.92 516.12 513.17 510.57 508.49 503.67 498.23 494.78 491.52 487.24 484.2 481.93 480.34 478.79 474.05 473.89 472.81 470.11 468.77 466.66 465.58 462.66 459.69 459.07 457.66 457.45 456.38 454.73 452.58 449.84 448.07 446.45 445.35 444.66 442.71 441.42 438.74 437.1 435.97 434.58 433.13 431.09 9999 9999 429.21 430.5 430.85 431.01 431.44 432.31 432.05 433.22 434.03 434.37 434.33 433.84 434.08 434.24 430.21 430.14 430.9 429.17 9999 9999 9999 428.48 429.58 430.84 431.06 431.02 9999 9999 9999 9999 9999 9999 431.29 431.26 430.46 430.9 430.63 431 431.11 431.11 431.2 430.79 430.48 431.45 430.66 430.7 431.27 431.2 430.49 9999 9999 9999 9999 9999 9999 9999 9999 9999 9999 9999 9999 9999 9999 429.37 430.09 430.69 431.23 430.74 431.47 431.86 431.51 431.99 432.06 431.43 431.68 431.35 430.84 429.84 429.13 429.12 430.75 431.26 431.17
584.8 585.99 588.05 587.13 588.79 590.59 593.93 595.12 597.36 598.22 598.95 592.84 591.89 591.67 592.58 593.22 594.33 595.02 596.37 591.43 588.12 585.84 581.66 574.76 570.65 566.66 555.28 552.99 550.76 550.1 546.22 545.36 544.59 544.3 539.26 538.29 538.19 537.64 536.87 536.49 531 526.24 518.7 516.61 514.36 509.38 506.11 503.26 500.25 493.78 490.45 488.37 485.64 484.26 480.66 479.73 478.4 474.44 471.72 469.32 467.51 465.26 463.54 462.72 460.33 458.68 457.08 456.18 454.14 453.11 451.01 450.33 448.08 445.55 443.94 441.13 440.07 438.48 436.58 435.81 434.08 432.21 429.99 9999 9999 430.14 430.54 431.26 431.82 431.36 431.7 432.69 433.6 432.95 432.9 433.26 431.08 428.69 9999 9999 9999 9999 9999 9999 9999 9999 9999 429.36 429.98 431.14 430.76 431.03 430.57 9999 9999 9999 430.95 430.63 431.25 430.67 430.89 430.89 431.38 431.17 431.21 430.91 431.33 431.23 431.28 430.97 431.6 431 429.42 9999 9999 9999 9999 9999 9999 9999 9999 9999 9999 9999 9999 9999 9999 429.16 429.77 430.91 431.77 431.96 431.94 432.91 431.68 432.05 432.52 431.88 431.59 431.31 430.17 429.6 428.71 428.7 429.18 430.54 431.95
590.52 592.68 594.37 596.4 599.23 601.72 602.65 600.61 601.47 604.11 603.37 601.86 601.44 604.92 600.28 602.02 603.89 603.91 604.13 604.24 602.19 600.62 591.52 587.86 581.46 577.3 572.25 567.85 565.29 563.04 555.64 554.49 554.59 554.77 554.99 554.36 553.76 547.5 545.05 542.24 537.85 533.85 530.32 527.68 523.98 514.91 511.61 509.28 507.22 504.63 501.31 499.05 492.19 488.59 486.5 484.05 483.1 480.31 477.73 474.62 470.21 467.88 466.78 464.85 463.2 461.43 460.8 459.8 457.3 455.19 453.82 452.45 450.68 448.64 445.72 442.47 440.66 439.77 437.98 436.83 436.04 434.33 431.66 428.49 9999 429.6 430.84 430.39 430.64 430.58 430.71 431.57 432.01 430.93 428.77 9999 9999 9999 9999 9999 9999 9999 9999 9999 429.68 429.51 9999 9999 9999 431 431.39 430.91 431.17 432.04 431.47 431.33 430.88 430.41 430.9 430.86 430.24 431.17 430.73 430.74 431.37 430.99 430.94 430.96 431.23 431.03 430.67 431.05 9999 9999 9999 9999 9999 9999 9999 9999 9999 9999 9999 9999 9999 9999 9999 429.08 431.57 430.69 432.36 432.34 432.46 432.41 431.82 430.84 429.69 430.55 430.85 431.28 429.53 428.9 9999 9999 430.25 431.29 432.04
599.17 600.49 600.17 602.7 605.41 608.13 608.95 611.07 609.68 611.85 609.31 607.71 608.18 610.65 613.17 615.64 619.14 615.6 615.14 616.02 613.69 610.67 608.56 603.09 599.71 588.81 583.15 579.31 575.96 572.8 569.73 569.28 568.86 563.96 565.16 563.94 561.86 559.93 559.52 556.24 546.8 543.59 540.61 535.79 529.59 525.25 521.77 519.72 512.91 511.2 508.96 506.62 504.82 501.07 496.17 492.35 487.75 483.81 480.84 478.36 475.8 473.22 471.82 467.55 466.32 464.22 463.45 462.01 460.36 459.04 458.2 455.53 451.81 449.02 447.47 445.71 442.6 441.42 438.72 437.45 435.85 434.61 432.81 431.47 9999 427.54 431.03 429.87 430.14 430.94 429.61 428.72 9999 9999 9999 9999 9999 9999 429.92 429.8 430.67 430.75 430.49 430.64 429.8 429.75 429.76 9999 9999 9999 430.25 431.7 431.3 431.16 430.66 428.56 9999 429.24 429.87 430.91 431.46 431.5 431.28 430.57 431.1 430.46 431.05 430.41 431.18 431.17 431.06 431.46 9999 9999 9999 9999 9999 9999 9999 9999 9999 9999 9999 9999 9999 9999 9999 9999 432.22 431.14 431.69 432.13 430.95 431.44 430.18 428.56 428.57 429.7 430.37 429.59 428.95 428.11 9999 428.93 430.69 431.99 432.63
603.35 606.35 609.76 611.13 614.27 613.35 613.78 614.68 615.16 616.35 616.96 617.27 621 617.95 621.78 624.65 628.84 630.28 631.34 632.5 632.27 622.47 619.31 616.41 610.22 606.47 600.5 594.68 587.19 582.41 580.4 579.09 579.46 578.85 581.46 582.48 573.01 571.42 569.12 564.79 560.23 555.02 550.94 545.64 536.24 533.4 530.96 528.21 524.06 521.23 517.19 511.58 509.22 507.05 502.88 498.67 495.02 490.15 487.26 482.38 479.46 476.81 474.49 471.88 469.7 468.26 465.67 463.3 462.37 462.25 460.11 457.86 454.86 451.74 448.6 447.23 444.27 441.93 439.93 438.19 436.03 435.08 433.5 432.34 431 9999 430.18 429.52 429.41 430.05 9999 9999 9999 9999 9999 9999 9999 429.3 429.26 430.32 430.75 430.07 430.99 431.31 431.91 430.85 429.29 431.41 9999 9999 429.52 429.18 432.83 432.42 431.74 9999 9999 9999 429.14 431.05 431.41 429.86 429.14 9999 428.35 429.27 429.06 430.23 430.96 430.74 431.17 430.99 9999 9999 9999 9999 9999 9999 9999 9999 9999 9999 9999 9999 9999 9999 9999 430.9 431.3 431.31 431.97 431.64 429.18 429.12 428.59 9999 9999 9999 429.92 428.78 428.81 9999 9999 431 431.32 432.1 432.41
612.49 612.36 615.67 617.66 619.79 621.27 623.41 622.86 620.51 621.19 622.6 622.93 628.09 630.02 633.22 637.03 635.78 638.92 640.25 639.95 642.24 640.5 637.44 632.46 622.32 618.52 612.42 606 600.61 598.91 596.28 589.96 590.44 589.66 589.67 590.15 588.19 583.73 580.43 573.34 568.37 560.87 556.65 552.57 550.28 546.9 543.07 535.17 531.3 526.7 522.32 518.34 515.68 513.47 508.22 504.15 499.52 495.79 492.01 490.47 488.13 485.01 479.44 475.66 473.89 472.13 469.99 468.61 466.65 464.87 460.67 459.44 456.26 454.35 452.11 449.87 447.58 443.7 441.35 439.19 437.06 436.02 435.19 433.96 431.28 9999 9999 9999 9999 9999 9999 9999 9999 429.26 9999 429.23 430.91 432.19 430.51 430.16 430.72 430.13 430.14 430.85 432.28 432.09 433 429.83 429.33 9999 429.42 430.06 429.28 432.97 432.98 430.4 9999 9999 430.14 433.06 429.58 430.05 428.14 9999 9999 9999 9999 429.43 429.61 430.87 430.34 430.76 430.07 9999 9999 9999 9999 9999 9999 9999 9999 9999 9999 9999 9999 9999 9999 431.89 431.95 429.5 430.32 429.23 428.28 9999 9999 430.48 431.27 9999 9999 9999 9999 9999 429.86 431.09 431.79 431.88 432.24
617.93 621.49 622.95 626.13 625.57 627.37 628.55 628.1 627.75 628.59 630.24 633.64 633.25 637.1 641.71 644.96 649.39 652.54 653.98 650.82 650.11 648.61 646.45 644.09 639.6 634.47 630.3 617.26 611.64 608.5 606.93 606.78 605.03 603.05 600.98 596.24 593.4 590.19 585.38 580.38 575.51 569.32 564.04 560.93 559.28 555.29 551.07 547.08 540.16 536.08 528.48 526.22 522.75 519.16 515.97 510.99 507.42 501.34 499.45 496.94 494.01 491.16 486.14 482.55 479.75 474.94 472.26 470.74 469.62 466.73 464.48 462.14 459.03 455.57 455.3 451.62 448.06 445.72 443.03 440.99 438.84 436.7 435.53 433.61 432.64 431.18 9999 9999 9999 9999 9999 9999 9999 429.02 429.38 431.57 429.95 430.1 429.74 429.57 430.14 429.95 429.68 430.14 430.36 430.41 430.51 432.09 431.46 9999 9999 430.06 429.44 429.21 431.92 432.65 429.9 9999 431.35 432.46 429.15 430.73 429.82 9999 9999 9999 9999 9999 9999 9999 431.43 430.89 429.13 9999 9999 9999 9999 9999 9999 9999 9999 9999 9999 9999 9999 9999 431.43 432.5 431.46 430.43 428.85 428.31 9999 9999 430.61 431.63 431.36 429.87 428.76 429.11 429.78 431.78 431.8 431.27 432.55 431.98 432.34
624.22 626.22 628.78 631.45 633.03 634.16 635.43 633.05 633.72 635.1 635.7 640.35 645.54 649.05 653.43 653.39 656.25 658 659.4 659.72 659.22 657.75 658.11 654.35 651.16 646.14 641 635.95 631.2 627.51 618.43 616.5 612.64 610.57 607.72 605.12 602.49 598.74 590.98 586.72 580.95 575.81 575.01 573.43 568.1 561.23 555.57 552.34 548.19 544.06 539.03 534.41 532 524.61 520.59 517.51 514.56 514.08 511.77 508.7 503 495.08 490.93 487.45 484.79 481.19 478.14 473.83 471.29 469.37 466.08 463.71 461.17 459.34 457.22 454.8 450.99 446.57 445.35 442.59 440.27 438.82 435.9 434.91 433.53 431.86 430.45 429.72 9999 429.2 429.59 429.25 429.15 429.66 429.22 429.43 429.79 430.26 429.85 429.97 430.09 430.45 430.13 430.04 430.42 430.13 430.85 431.11 430.23 431.34 9999 429.75 430.18 430.49 429.83 432.07 430.71 9999 432.48 429.54 429.51 429.9 429.7 9999 9999 9999 9999 9999 9999 9999 428.96 429.38 9999 9999 9999 9999 9999 9999 9999 9999 9999 9999 9999 9999 9999 430.57 432.07 431.85 431.72 430.8 428.31 9999 9999 9999 431.14 431.81 431.82 430.93 430.02 430.63 429.63 431.2 432.95 432.33 432.69 432.25 432.65
630.4 632.56 635.38 635.89 637.64 638.96 639.45 640.15 640.52 640.39 640.43 644.02 648.6 653.37 657.13 660.9 664.09 664.68 663.82 664.85 665.02 664.58 663.71 662.8 662.63 660.23 651.8 648.48 642.23 640.41 637.65 630.49 627.84 619.41 617.15 613.29 609.82 607.06 606.36 597.9 590.07 581.74 579.64 579.66 575.12 568.15 562.12 559.06 556.57 550.05 545.29 540.08 535.71 530.98 528.69 527.01 523.46 523.46 519.88 514.99 509.83 503.79 498.42 494.45 489.25 485.88 481.02 478.29 475.85 472.16 469.72 466.25 463.45 461.02 458.72 456.38 453.88 450.95 447.36 444.69 440.11 438.6 436.5 435.45 434.46 433.52 432.31 430.58 429.78 429.91 429.48 430.16 430.41 430.17 429.97 430.07 430.44 430.13 430.71 430.37 430.32 430.3 430.21 429.83 430.82 430.28 430.59 430.28 430.81 430.7 9999 9999 429.18 430.01 430.74 430.37 430.66 430.22 430.28 428.83 428.67 9999 9999 9999 9999 9999 9999 9999 9999 9999 9999 9999 9999 9999 9999 9999 9999 9999 9999 9999 9999 9999 9999 429.02 430.53 431.51 431.35 431.58 431.96 431.46 429.02 9999 9999 429.56 430.7 431.4 431.53 431.28 430.3 431.48 433.4 430.99 431.29 432.62 433.13 432.06 430.12
634.31 636.59 639.99 641.75 642.7 643.41 642.91 643.79 644 645.21 648.01 652 655.49 659.54 661.88 665.26 667.31 668.57 669.44 670.26 670.79 668.04 666.87 666.7 666.26 665.34 663.14 658.91 655.52 648.33 646.38 641.52 638.58 635.12 633.16 628.23 623.47 614.65 610.37 603.23 595.56 591.25 587.1 585.36 578.68 573.9 568.23 563.19 559.81 556.07 551.42 545.31 539.02 536.43 536.23 536.87 538.26 536.29 531.38 521.28 515.68 510.38 503.34 499.07 494.64 489.44 485.82 481.51 478 473.85 472.63 469.52 466.44 463.74 461.96 457.81 453.74 452.41 448.49 444.8 442.86 439.77 437.46 436.31 435.24 434.5 432.9 431.47 431.06 429.75 429.6 429.95 430.2 430.21 430.21 430.17 430.37 430.35 430.63 431.33 430.44 430.52 430.21 430.55 430.75 430.23 430.44 430.27 430.33 430.22 430.47 9999 9999 429.52 430.06 430.76 431.23 431.5 429.53 9999 9999 9999 9999 9999 9999 9999 9999 9999 9999 9999 9999 9999 430.16 9999 9999 9999 9999 9999 9999 9999 9999 9999 430.84 430.58 431.44 431.41 431.18 431.23 432.7 431.52 429.27 429.59 429 430.15 430.59 431.24 431.92 430.68 430.91 431.82 432.6 433.05 432.95 432.87 430 429.18 9999
640.13 640.82 642.66 644.51 645.94 646.23 647.6 648.49 649.38 648.56 652.43 656.6 659.42 662.87 666.6 669.83 670.7 670.5 672.48 673.37 674.5 675.48 674.76 673.12 670.87 668.76 666.95 664.02 661.89 659.14 656.8 655.21 649.67 644.96 639.88 637.16 628.29 621.36 615 610.88 602.83 598.13 593.61 590.99 588.59 586.8 582.79 571.06 563.57 558.17 552.84 550.15 547.24 546.86 547.38 546.49 546.3 541.51 538.48 533.07 526.72 520.03 512.82 504.18 499 492.52 489.06 487.06 484.7 481.56 475.96 470.63 468.32 465.18 463.08 460.23 457.57 454.61 449.21 446.51 443.73 440.95 439.25 438.61 437.65 435.07 434.26 432.98 432.16 431.18 430.34 430.34 430.44 430.15 430.39 430.31 430.57 430.36 430.75 430.52 430.5 430.29 430.3 430.7 430.37 430.84 430.79 430.85 430.18 430.22 430.02 431.16 9999 428.95 429.85 431.51 431.88 430.92 9999 9999 9999 9999 9999 9999 9999 9999 9999 9999 9999 9999 9999 431.61 431.33 430.5 428.69 9999 9999 9999 9999 9999 430.53 431.34 431.11 431.05 431.32 431.62 431.85 431.77 432.4 432.51 430.83 429.61 429.65 430.66 430.95 431.14 432.61 431.58 431.41 431.81 432.85 432.33 432.86 432.12 430.02 9999 9999
643.24 645.64 647.31 648.75 649.91 649.74 651.02 652.82 654.59 656.7 659.92 662.37 664.98 668.2 670.05 672.47 673.84 675.81 677.63 677.87 677.2 678.1 678.36 677.01 676.28 675.91 673.8 671.3 666.21 663.86 661.89 662.36 659.98 656.56 651.45 640.78 634.01 627.15 620.76 616.41 612.31 608.86 602.66 598.27 595.99 594.64 589.3 579.08 570.81 562.89 559.34 556.23 557.57 557.73 557.15 556.95 553.93 550.58 543.58 538.82 532.54 525.51 517.73 509.75 503.51 497.93 492.1 490.55 486.93 484.76 480.29 475.75 471.77 466.97 464.11 462.07 460.75 457.3 452.22 447.91 445.57 442.15 440.28 439.15 437.36 435.76 435.27 434.46 433.75 432.27 430.99 430.34 430.22 430.6 430.8 430.8 430.46 430.84 430.51 430.68 430.42 430.97 430.6 430.82 430.89 430.62 430.51 429.79 430.3 430.72 430.67 430.53 9999 9999 429.1 430.26 428.95 9999 9999 430.88 431.43 9999 9999 9999 9999 9999 9999 9999 9999 9999 9999 431.28 431.64 430.95 430.99 430.1 9999 430.15 430.58 431.9 430.62 431.45 431.26 431.48 431.14 431.29 431.74 432.32 432.67 431.71 431.46 429.87 431.44 431.59 432.15 432.38 432.3 431.35 432.26 431.44 432.58 432.65 433.51 431.32 430.34 9999 9999
646.67 647.9 650.05 651.29 653.45 655.58 657.34 658.54 658.91 661.4 663.98 666.68 671.72 673.52 675.26 676.3 676.77 678.36 679.51 680.49 680.68 681.11 680.81 679.23 678.08 677.87 675.29 673.2 671.87 672.28 672.99 670.1 668.29 662.71 657.24 652.45 644.79 634.28 627.29 620.89 619.25 614.97 609.99 605.11 606.83 604.3 593.45 581.67 573.6 567.15 564.64 563.66 566.13 566.97 562.48 561.66 557.96 554.45 547.49 542.75 536.34 523.91 517.32 511.77 505.53 501.47 498.21 497.36 494.36 487.54 484.16 478.45 474.61 470.67 468.29 464.81 461.43 458.21 454.7 450.68 446.41 444.65 441.97 440.66 438.24 437.48 436.42 434.83 434.24 432.77 431.78 431.06 430.67 430.73 430.94 430.4 434.71 431.17 430.73 430.79 430.09 430.68 430.71 430.22 430.54 430.32 431.05 9999 9999 9999 430.76 430.33 430.86 9999 9999 429.14 9999 9999 9999 430.83 431.38 9999 9999 9999 9999 9999 9999 9999 9999 9999 9999 431.24 431.4 431.28 431.56 430.9 431.28 431.81 431.72 430.76 430.56 431.39 431.48 431.1 431.27 431.64 431.27 432.92 431.56 430.99 430.61 430.8 431.86 432.12 432 432.43 432.44 432.44 432.47 432.51 433.29 432.56 432.7 431.06 431.28 431.09 431.22
650.61 652.05 654.25 655.24 656.45 658.69 660.02 662.16 663.63 666.64 669.23 672.44 675.04 677.29 678.63 679.12 680.25 680.98 682.46 682.96 682.91 683.07 683.01 682.19 681.52 679.37 676.73 676.07 676.16 675.85 674.95 673.54 669.82 666.12 661.13 656.87 647.07 635.81 632.29 628.63 627.37 624.39 617 612.78 610.58 607.8 595.7 588.48 581.42 573.46 569.12 568.68 568.97 567.71 566.64 564.69 562 557.54 550.09 544.24 535.07 527.09 519.9 513.69 509.52 505.58 503.12 502.48 498.37 492.49 487.9 483.73 478.17 473.93 468.84 465.93 462.74 459.18 455.51 451.81 447.67 445.58 443.07 441.45 440.27 438.76 436.61 435.27 434.61 433.72 432.69 431.24 431 431.23 431.89 430.68 9999 9999 430.38 430.44 430.6 429.41 430.9 431.13 430.81 430.31 430.32 9999 9999 9999 9999 430.61 431.07 9999 9999 9999 9999 9999 431.85 431.37 431.65 9999 9999 9999 9999 9999 9999 9999 9999 9999 9999 431.77 431.71 431.49 430.71 431.24 431.63 432.22 431.63 431.32 431.5 431.26 431.65 431.16 431.48 431.67 432.12 432.98 431.09 431.08 430.89 430.74 431.73 433.01 431.98 431.84 432.08 432.17 432.62 433.06 430.8 431.65 430.32 430.08 432.59 432.57 433.93
653.68 655.7 657.12 659.61 661 662.48 663.27 663.91 666.26 668.92 673.16 676.12 678.39 680.54 680.32 681.62 682.32 682.91 684.5 684.92 685.48 685.79 685.16 683.88 682.92 681.73 680.73 679.61 678.38 677.18 675.99 673.24 671.24 667.28 663.73 656.61 645.82 638.2 636.02 634.2 631.34 628.72 628.24 624.89 619.8 609.42 601.6 594.79 588.58 583.82 579.05 576.81 571.81 569.55 567.74 566.16 563.48 561.02 555.13 544.79 537.39 528.73 521.51 516.39 513.02 512.44 513.01 508.86 501.7 497.16 490.91 485.9 482.08 474.52 470.75 467.18 462.42 460.56 456.48 453.74 449.4 446.53 445.28 442.92 440.72 438.75 437.01 436.15 435.5 434.73 434.43 433.56 432.58 432.02 433.9 432.31 430.75 431.54 431.29 430.94 431.74 430.7 430.24 9999 431.21 430.59 430.24 430.36 430.37 9999 429.42 430.78 431.39 430.22 9999 9999 9999 9999 430.32 430.56 430.82 9999 9999 9999 9999 9999 9999 9999 9999 9999 429.86 431.44 431.66 431.29 431.97 431.08 431.4 432.04 431.71 431.98 431.59 431.77 431.01 431.71 431.27 431.46 432.54 432.64 430.71 430.59 431.14 431.47 431.69 431.92 431.67 432.32 432.48 431.65 433.46 432.43 431.15 430.97 431.52 430.89 432.82 432.64 432.18
658.64 660.7 661.07 662.54 662.52 664.56 666.94 669.5 671.9 675.22 675.79 678.4 680.74 682.41 683.64 684.4 685.8 686.32 685.89 686.57 686.65 687.08 686.43 685.78 684.52 683.03 681.88 679.94 678.67 677.02 674.12 671.37 668.41 666.66 661.94 654.03 645.43 641.59 640.76 639.99 634.49 632.59 631.06 627.45 622.63 620.22 616.81 610.85 598.62 593.02 588.52 581.42 577.47 573.4 571.21 568.43 565.68 563.06 554.65 544.83 537.74 530.46 525.86 520.71 518.38 519.12 517.51 513.06 506.11 500.39 494.5 488.58 481.49 476.83 471.54 468.33 465.04 461.27 456.6 452.82 449.62 447.5 445.37 443.45 441.46 439.43 437.5 436.85 436.03 436.2 435.72 435.72 435.63 433.64 434.02 432.51 431.81 431.02 430.86 431.18 431.09 431.26 430.39 430.36 430.51 430.57 430.58 430.33 430.84 430.41 429.94 430.72 430.46 431.31 9999 9999 9999 9999 430.65 431.04 431.54 9999 9999 9999 9999 9999 9999 9999 9999 9999 431.27 431.43 431.33 431.05 431.87 431.33 431.54 431.69 431.49 432.68 430.94 430.8 430.15 431.48 432 432.37 432.72 432.54 432.04 431.59 430.5 431.19 432.04 432.2 432.02 431.81 431.83 432.7 432.24 430.97 431.22 431.01 430.81 431.27 433.07 432.95 433.2
661.53 663.85 665.57 666.29 668.14 668.68 672.19 674.56 677.26 679.85 680.81 681.9 683.88 684.57 685.26 686.4 687.08 687.25 687.95 688.83 688.17 687.69 687.19 686.32 685.31 684.12 682.02 679.53 678.85 675.15 672.27 670.25 667.81 664.69 658.93 649.94 646.04 644.5 643.29 641.2 637.58 634.69 632.81 630.28 627.19 625.4 622.46 618.37 613.6 606.17 597.45 586.63 582.61 576.94 572.88 571.05 569.8 563.76 555.6 546.74 538.59 533.15 529.32 526.59 526.3 524.28 519.33 513.9 508.52 502.34 497.38 489.17 483.56 478.99 474.15 471.25 466.9 462.59 457.85 453.65 450.8 448.31 445.75 443.12 441.44 439.52 438.15 437.92 437.25 436.19 436.3 436.29 434.37 434.39 433.61 431.84 430.84 431.22 431.07 430.67 430.37 430.97 430.64 431.11 430.69 430.91 430.61 430.57 430.85 430.51 431.08 430.56 430.39 430.71 429.88 9999 9999 9999 429.77 432.31 431.27 429.88 9999 9999 9999 9999 9999 9999 9999 430.67 431.57 431.54 431.56 431.12 431.25 431.32 430.56 430.57 431.46 9999 9999 9999 9999 9999 9999 430.79 432.79 432.18 433 432.02 431.34 431.54 432.84 432.21 431.45 432.38 431.88 432.02 432.35 430.74 431.54 431.64 431.33 431.05 432.83 432.19 431.65
667.25 667.19 668.69 670.05 672.49 675.03 678.07 680.11 681.25 681.86 683.62 683.92 685.61 687.34 688.2 688.7 688.09 689.2 689.63 689.53 688.88 688.49 687.89 686.15 684.63 682.96 681.78 677.96 675.15 672.41 670.23 666.25 665.4 662.08 653.6 647.79 645.8 643.85 642.84 641.53 639.2 635.14 632.71 631.71 629.33 626.17 623.71 619.64 614.12 609.45 603.16 597.32 595.02 590.22 579.1 573.43 569.59 564.67 558.26 551.19 542.48 537.1 531.9 531.65 528.37 525.01 521.73 516.88 511.34 504.94 496.82 491.34 485.48 481.12 477.03 472.82 468.55 461.74 458.38 454.52 451.25 448.12 446.53 443.82 441.72 439.22 438.64 437.76 437.8 437.23 437.28 437 435.44 435.54 435.52 433.04 431.71 431.4 431.43 430.83 430.91 431.26 431 431.47 431.12 430.81 430.4 431.04 430.29 430.67 430.68 431.11 430.64 430.81 430.53 9999 9999 9999 9999 430.74 431.12 430.95 428.61 9999 9999 9999 9999 9999 431.14 432.21 432.24 431.32 430.84 9999 9999 431.17 430.97 431.56 430.76 9999 9999 9999 9999 9999 9999 9999 432.99 431.7 432.37 431.52 431.14 431.62 432.09 431.66 432.18 431.68 432.01 432.54 430.78 432.1 432.09 432.12 431.52 430.97 431.69 432.44 432.36
670.27 672.07 673.47 674.98 675.13 679.16 680.14 681.57 683.6 685.22 687.32 688.2 689.2 689.36 689.81 690.46 690.33 690.85 690.73 690 689.95 688.79 687.47 685.51 684.29 682.13 679.19 677.01 673.63 670.63 666.96 663.64 658.73 653.13 648.93 647.64 644.85 643.01 642.09 640.3 638.81 636.53 633.94 632.29 630.88 627.48 624.13 619.76 617.21 612.72 607.48 603.75 598.59 593.8 585.25 579.47 573.92 569.11 561.48 553.45 545.87 538.27 534.94 533.15 530.24 526.8 522.26 517.38 509.98 504.92 499.55 494.27 489.26 483.32 478.14 471.87 468.91 463.76 459.97 455.54 453.03 449.43 445.94 443.86 442.2 440.05 439.37 439.09 438.24 437.64 437.39 437.49 436.5 436.27 436.13 435.21 432.44 431.66 430.87 430.91 431.19 430.92 431.09 431.01 431.27 431.28 431.12 431.46 430.52 430.73 430.48 431.03 430.48 431.21 430.57 430.89 9999 9999 9999 431.05 430.7 431.34 431.51 430.83 430.83 431.47 431.11 431.61 432.19 433.03 432.18 431.06 9999 9999 430.94 431.07 430.86 431.35 430.18 9999 9999 9999 9999 9999 9999 9999 430.95 432.36 432.63 432.32 431.89 431.98 432.3 431.61 432.38 432.08 432.41 431.15 431.95 432.07 431.95 433.07 431.98 431.27 432.74 432.94 432.11
673.32 675.18 676.14 678.87 681.36 683.31 684.77 685.03 686.73 688.5 689.52 691 690.85 691.27 692.36 691.57 691.81 692.12 691.3 690.57 689.5 688.24 686.32 685.12 683.15 680.65 678.19 675 672.12 667.82 664.94 660.42 654.32 652.14 648.23 645.57 643.7 641.76 640.89 639.85 637.16 635.51 633.76 631.3 629.25 626.39 623.42 620.94 617.5 613 609.73 605.03 600.46 593.6 587.84 582.35 577.69 573.29 567.56 559.16 548.03 541.37 536.15 534.75 530.95 527.65 523.59 517.5 511.23 506.88 501.48 495.66 489.23 485.23 477.44 473.03 469.25 464.86 460.07 456.6 453.52 449.07 446.26 444.05 442 440.84 439.24 439.1 438.07 436.08 435.54 436.15 436.17 437.55 436.53 435.49 435.32 433.61 432.61 431.15 431.11 431.52 430.68 430.78 431.32 431.79 431.38 430.82 431.02 431.32 430.91 430.61 430.83 430.62 430.57 430.46 9999 9999 9999 431.08 431.25 431.26 431.58 431.01 431.35 432.24 432.22 432.89 433.01 432.49 431.05 430.82 430.62 430.89 431.04 431.31 431.11 432.18 9999 9999 9999 430.84 431.95 431.81 9999 9999 9999 432.54 433.12 431.74 432.11 431.67 432.25 431.74 432.61 431.76 432.12 433.47 433.09 432.33 434.23 432.46 431.55 432.32 432.34 432.79 434.88
678.12 679.75 680.83 682.11 683.25 684.93 687.04 688.81 690.06 691.47 693.01 692.57 693.11 692.86 692.87 692.69 692.71 692.1 691.47 691.15 689.29 687.72 685.12 683.65 680.37 678.05 676.53 673.26 669.55 666.14 662.65 656.73 652.48 649.68 647.63 645.01 642.58 640.68 638.29 636.99 636.25 635.14 632.89 630.75 627.93 625.58 623.5 621.07 616.78 614.72 610.29 605.28 598.46 594.29 590.13 585.72 580.3 574.07 568.07 557.74 551.17 544.27 539.73 535.41 531.85 528.32 522.85 518.66 514.67 510.22 503.89 498.75 491.98 484.39 479.37 474.37 469.94 465.61 460.79 457.58 453 450.1 447.13 444.52 442.29 441.38 440.07 437.85 436.35 9999 9999 9999 9999 437.02 436.86 436.69 435.57 435.49 434.46 432.29 431.26 431.65 431.26 431.12 431 431.17 430.78 430.89 431.08 431.07 430.73 430.99 430.38 431.07 430.02 429.79 9999 9999 9999 430.52 430.9 431.19 431.04 431.63 430.85 432.17 432.99 433.13 431.27 430.78 430.97 431.36 431.39 431.16 431.05 430.81 431.89 431.28 9999 9999 430.53 430.62 430.93 431.23 432.04 9999 9999 433.17 432.13 430.55 432.04 432.04 432.16 432.24 432.89 432.83 432.62 432.15 434.18 432.51 432.49 433.24 431.8 431.61 432.32 433.6 432.42
681.38 682.87 683.69 685.26 687.04 689.03 689.32 690.47 691.98 694.17 694.34 694.39 694.76 694.41 693.74 693.66 692.41 692.27 691.15 690.04 687.64 686.64 684.42 680.99 678.49 676.16 673.86 670.74 668.01 664.93 659.09 655.03 651.94 647.73 645.08 641.88 640.01 638.94 637.42 635.61 634.48 632.73 630.49 628.98 626.4 625.04 622.62 619.79 616.74 614.22 610.34 603.33 599.18 594.55 590.18 583.37 576.92 572.3 564.9 560.21 553.76 547.28 541.01 536.53 533.29 528.95 525.41 521.31 516.14 510.89 505.64 500.13 492.35 486.19 480.09 474.76 469.78 465.77 461.48 457.21 453.93 450.59 447.5 445.34 443.16 441.96 439.25 437.58 436.22 9999 9999 9999 9999 9999 438.61 438.84 437.25 436.14 435.59 434.42 432.39 431.47 431.26 431.44 430.87 431.02 431.23 431.2 431.08 431.19 431.69 430.99 430.86 430.61 430.77 430.8 9999 9999 9999 431.08 430.91 431.41 430.91 431.24 431.86 432.57 433.3 434.14 430.72 431 431.18 431.29 431.44 431.62 431.72 432.22 431.92 430.94 9999 9999 430.58 430.7 431.23 430.66 431.78 9999 9999 431.75 430.87 432.83 433.6 432.07 432.28 432.25 431.09 9999 9999 9999 432.07 431.76 431.65 431.16 432.55 431.89 432.74 434.73 430.8
685.15 686.66 686.71 687.8 688.87 690.26 692.01 693.73 694.95 695.07 695.5 695.85 695.41 695.27 694.51 694.07 692.32 691.91 690.62 688.93 686.96 684.54 681.8 679.57 676.7 674.59 671.82 669.46 666.73 662.69 658.31 654.18 650.55 646.72 644.07 640.82 637.39 636.14 634.11 632.68 632.01 630.68 629.18 626.86 624.87 623.02 620.36 618.45 615.76 612.61 607.08 601.54 594.89 590.74 585.37 580.36 576.55 570.94 566.7 562.07 556.23 549.25 543.31 537.35 532.92 529.34 527.13 524.06 519.28 514.43 507.3 499.9 493.52 486.75 481.07 475.24 471.19 467.2 461.77 457.77 454.81 451.54 448.57 446.05 444.24 442.21 440.41 436.75 9999 9999 9999 9999 9999 9999 9999 438.45 439.64 438.44 436.94 436.17 433.42 431.95 430.84 431.56 430.76 430.81 431.14 431.2 430.59 431.18 431.19 431.14 430.9 430.97 430.69 430.32 9999 9999 429.95 430.4 431.07 431.12 431.25 430.99 431.62 431.08 432.39 430.77 430.82 431.25 431.63 431.25 431.83 431.65 431.5 431.64 432.36 430.32 9999 9999 430.98 431.81 432 432.19 431.58 431.03 9999 9999 431.11 433.29 432.1 431.88 9999 9999 9999 9999 9999 9999 9999 431.52 431.69 431.8 432.56 432.3 432.43 433.25 430.94
688.64 689.28 689.85 691.2 692.2 692.22 694.35 695.32 696.01 696.85 696.67 697.31 696.36 695.2 694.38 693.25 691.71 690.21 688.61 687.35 684.99 682.93 680.79 678.25 675.29 672.9 670.2 667.79 665.09 661.74 657.65 653.79 650.02 646.03 641.36 638.75 636.17 633.45 632.41 630.79 629.36 627.52 626.06 625.1 622.93 621.34 618.65 615.75 610.77 607.57 604.07 599.47 595.84 591.22 583.85 578.51 574.4 571.03 567.17 562.66 557.58 551.06 542.97 538.39 534.24 530.02 528.06 524.85 519.53 513.99 507.71 500.03 493.54 487.83 480.81 475.59 470.73 466.52 462.1 459.32 454.96 452.72 450.05 446.25 443.58 442.34 440.96 437.61 9999 9999 9999 9999 9999 9999 9999 9999 440.29 439.29 438.43 437 435.74 434.29 432.86 432.55 431.21 431.07 431.08 431.18 431.15 430.45 430.66 431.09 431.01 430.73 430.99 430.64 9999 9999 9999 430.65 430.99 430.75 431.63 431.41 431.41 431.8 430.78 430.28 431.57 431.35 431.66 432.15 430.9 431.31 431.81 431.26 431.46 431.25 9999 9999 431.01 431.19 430.94 432.01 431.17 431.01 432.3 432.9 431.96 432.51 432.3 9999 9999 9999 9999 431.48 431.27 431.83 9999 431.2 432.45 431.85 432.5 432.09 432.09 434 430.29
690.09 690.83 691.82 692.6 694.05 695.34 696.73 697.36 697.6 698.43 698.04 697.21 696.37 695.27 693.43 691.34 690.13 688.61 687.65 685.14 683.88 681.29 679.64 677.51 675.32 672.74 668.86 666.45 663.16 661.17 656.54 653.73 649.79 644.7 640.84 637.19 634.14 631.25 629.56 628.5 626.89 626.19 624.39 622.02 620.66 618.18 616.74 613.04 610.21 607.97 603.06 596.91 593.77 588.84 582.28 578.19 574.19 571.08 567.3 563.31 557.7 551.56 544.93 538.5 533.17 529.7 526.73 523.95 518.49 513.32 506.59 498.49 492.44 486.49 480.7 475.07 471.04 466.27 462.44 459.21 455.66 452.11 448.92 446.05 444.27 442.94 440.6 438.71 9999 9999 9999 9999 9999 9999 9999 9999 9999 435.32 435.64 438.02 436.04 435.73 434.03 432.32 431.83 431.14 431.27 431.22 431.36 431.78 430.93 430.86 430.79 431.08 430.45 430.52 9999 9999 9999 430.93 430.45 430.69 431.17 431.54 431.44 431.68 430.71 431.54 432.03 431.66 431.99 431.25 430.89 430.97 431.59 431.09 432.16 431.67 9999 9999 431.59 431.67 431.28 431.26 432.44 430.89 433.01 432.23 432.49 432.68 432.08 9999 9999 9999 431.47 431.26 432.21 433.15 9999 9999 431.9 431.28 431.84 432.1 431.96 433.06 433.46
692.22 693.62 694.69 694.96 695.26 697.02 698.13 698.62 698.94 699.24 698.93 697.91 696.23 694.8 693.08 690.34 687.69 686.09 684.81 683.8 682.4 680.68 678.67 676.66 674.32 670.89 668.14 665.22 662.33 660.51 656.29 653 648.51 644.73 641.13 636.63 633.36 629.85 627.43 626.19 624.32 622.79 621.94 620.99 619.35 617.12 614.38 611.3 607.58 605.33 600.28 595.88 592.5 586.13 581.3 577.45 573.89 570.77 567.49 563.3 556.52 551.59 545.8 538.69 534.01 530.42 526.42 521.45 516.72 512.35 505.77 500.06 492.14 487.18 480.67 475.21 471 465.61 461.79 458.41 455.81 451.6 449.63 446.29 444.45 442.47 441.62 439.61 435.19 9999 9999 9999 9999 9999 9999 9999 9999 9999 9999 436.24 437.56 437.02 434.75 433.28 432.07 431.81 431.25 431.21 430.9 431.49 431.14 431.24 431.05 430.87 431.45 430.89 429.2 9999 9999 430.78 430.81 431.1 430.78 430.91 430.97 431.29 430.65 432.15 431.83 432.79 432.21 431.77 431.48 431.38 431.66 431.49 431.7 431.67 9999 9999 431.1 431.56 431.96 432.26 430.98 430.81 432.67 431.77 432.11 432.71 9999 9999 9999 431.73 432.3 431.35 432.96 433.87 9999 9999 431.75 431.58 431.48 432.18 433.26 432.33 435.26
694.71 695.38 696.11 697.39 698.22 698.85 700.11 700.37 699.86 700.6 699.58 697.84 696.89 695.34 692.22 689.09 685.98 684.07 682.82 681.57 680.94 678.99 678.22 675.71 672.34 669.7 667.17 663.5 661.27 659.24 656.2 652.53 648.52 645.02 640.02 636.29 632.23 628.22 625.28 623.47 622.16 621 619.94 619.49 618.02 615.62 612.31 607.9 603.79 601.31 598.88 595.14 590.07 584.53 580.6 577.24 572.41 568.94 564.73 559.25 554.35 549.85 544.12 538.92 533.37 529.13 524.41 519.23 515.76 510.94 505.08 499.43 493.25 485.82 480.18 475.75 470.15 465.52 461.28 457.3 454.17 451.15 449.35 445.73 444.39 442.99 442.01 439.74 436.01 9999 9999 9999 9999 9999 9999 9999 9999 9999 9999 9999 437.03 437.48 436.09 435.43 434.67 433.91 432.14 431.56 431.01 431.46 431.48 431.12 430.81 431.59 430.8 431.03 429.27 9999 9999 430.11 431.05 430.63 431.14 431.11 430.95 430.65 430.29 431.07 431.27 432.52 431.84 431.86 431.04 431.16 431.33 431.96 431.09 431.05 9999 9999 431.1 431.22 432.03 432.43 432.56 433.33 433.95 433.47 433.35 432.3 432.7 9999 431.15 431.15 431.82 432.81 432.2 431.78 431.35 432.99 431.93 431.67 432.24 432.82 432.2 434.17 434.73
697.33 698.52 698.49 698.68 699.4 700.57 700.99 701.04 702 701.77 699.44 698.26 696.28 694.81 691.43 687.77 683.55 682.18 681.84 681.01 679.55 678.08 676.23 673.86 671.2 668.57 666.68 663.49 660.79 658.57 654.34 651.44 647.73 644.4 640.17 635.4 631.62 625.67 623.46 621.52 619.39 619.95 617.81 616.47 611.01 607.62 604.28 602.09 600.05 598.91 597.04 592.53 588.36 582.51 579.55 574.84 571.82 568.22 562.56 557.38 551.55 546.1 541.12 537.29 533.02 525.57 521.67 517.63 512.78 507.09 502.25 495.92 491.17 485.36 479.55 473.67 469.1 464.6 458.65 455.33 453.38 450.83 448.81 446.57 444.41 442.94 442.11 442.27 438.89 9999 9999 9999 9999 9999 9999 9999 9999 9999 9999 9999 9999 435.54 437.25 436.31 435.31 435.17 434.07 433.15 432.69 431.11 431.61 431.47 430.81 430.79 430.86 430.46 430.3 9999 9999 431.59 431.04 431.06 431.08 430.93 431.23 430.73 430.63 430.95 431.62 431.06 430.79 431.43 430.78 431.11 431.72 431.21 431.45 431.81 9999 9999 430.89 431.65 432.73 432.22 9999 9999 9999 9999 9999 431.3 434.04 9999 9999 431.44 431.8 432.24 432.96 431.63 433.15 433.04 431.92 431.78 431.75 432.04 432.69 432.63 434.97
698.98 700.15 700.88 700.8 701.24 701.04 701.9 702.71 702.68 702.15 700.38 699.32 696.93 694.97 691.15 686.78 683.7 681.47 679.92 678.55 677.16 676.13 674.82 672.79 670.23 667.74 664.18 662.44 659.09 657.12 653.12 650.38 647.72 644.1 639.36 633.19 629.56 626.5 621.99 619.2 617.26 615.04 612.03 609.51 607.34 605.08 603.15 600.82 598.8 594.45 591 589.01 585.39 580.49 578.79 572.79 568.98 564.69 559.26 554.38 549.71 544.48 540.23 533.2 528.58 524.02 519.74 517.13 510.82 505.23 498.55 492.62 486.96 481.59 477.74 471.76 467.63 462.24 457.55 455.12 452.48 450.35 448.81 447.17 444.64 443.11 443.19 441.82 441.37 9999 9999 9999 9999 9999 9999 9999 9999 9999 9999 9999 9999 9999 436.73 436.94 436.25 435.78 435.24 435.32 433.99 433.55 432.47 432.21 431.58 431.31 430.55 430.86 430.58 9999 9999 430.6 431.91 431.35 431.74 430.93 431.17 430.26 431.67 431.76 431.22 431.59 431.21 430.82 431.21 429.47 430.49 431.26 432.07 431.74 432.26 430.67 432.37 432.05 431.48 9999 9999 431.69 433.08 433.62 434.05 9999 9999 432.4 9999 9999 432.87 435.03 434.63 432.15 434.05 434.58 432.85 434.58 432.68 432.58 432.44 433.59 432.99
701.6 701.56 701.98 701.91 702.52 703.16 703.38 703.2 703.26 702.09 701.7 700.07 697.34 693.77 690.85 687.58 683.88 681.68 679.72 677.58 676 674.08 672.69 670.28 668.84 666.63 663.89 660.68 658.08 655.77 652.75 650.11 646.86 643.25 638.07 633.52 629.66 624.78 621.38 618.23 616.34 613.02 610.93 608.87 607.13 604.97 602.79 600.02 596.85 593.63 589.95 587.32 583.33 579.29 575.74 570.85 567.37 563.64 558.62 553.54 547.62 543.63 536.8 532.3 527.55 522.7 517.77 512.04 507.32 499.47 495.29 490.12 484.49 479.78 474.82 470.72 465.99 461.85 457.56 455.77 453.86 451.22 449.19 447.32 445.05 444.15 444.21 442.91 443.07 441.62 9999 9999 9999 9999 9999 9999 9999 9999 9999 9999 9999 9999 436.51 436.63 436.99 436.75 435.99 435.7 435.08 435.21 433.83 434.05 432.98 432.91 432.59 431.26 430.5 429.4 9999 430.62 431.57 431.13 431.08 430.9 431.09 430.35 428.98 429.36 429.93 430.36 431.51 431.07 430.63 430.78 9999 430.64 431.42 431.67 432.64 431.45 431.35 432.2 9999 9999 433.85 433.74 432.94 432.85 433.17 433.89 9999 431.26 432.89 432.36 431.8 434 431.24 431.72 432.13 434.2 434.31 434.63 433.71 434.3 434.48 432.75 430.28
703.2 703.86 704.16 704.03 703.42 703.78 704.16 704.56 704.42 703.47 702.01 700.08 696.62 694.35 690.89 688.83 685.6 682.79 679.35 676.86 674.81 672.76 671.34 669.28 667.34 664.29 661.66 659.33 657.07 655.13 651.77 649.68 645.92 641.12 637.64 633.8 629.08 624.79 620.84 617.11 613.13 610.74 609.67 608.33 607.16 606.02 603.88 601.32 597.9 595.66 590.44 587.77 583.96 579.47 574.91 569.83 566.29 562.36 557.63 552.69 547.41 541.15 536.81 532.17 526.66 522.27 516.09 511.21 503.52 498.43 492.62 487.46 482.4 478.99 473.15 469.22 465.23 461.13 458.64 456.55 454.18 452.09 449.21 446.79 445.92 445.64 444.59 444.02 443.51 441.47 438.46 9999 9999 9999 9999 9999 9999 9999 9999 9999 9999 9999 437.67 436.8 436.73 436.7 435.93 436.21 436.41 435.56 434.89 434.55 434.68 435.13 434.25 432.5 430.36 428.23 9999 430.48 430.85 431.26 431.25 430.72 430.65 429.12 9999 9999 9999 9999 431.16 431.89 431.75 431.54 430.15 431.41 431.42 431.77 431.29 431.7 432.51 432.52 9999 433.29 433.81 432.52 432.34 433.02 433.1 434.43 430.85 9999 432.64 433.19 434.08 430.66 429.5 429.74 430.25 429.82 430 430.24 430.33 431.56 430.63 430.46 433.55
704.55 705.45 705.14 704.49 705.02 704.77 704.47 704.85 704.87 703.81 702.43 699.93 697.08 695.22 692.43 689.24 686.39 683.38 679.33 676.98 674.98 672.37 670.41 668.95 666.27 663.48 660.53 658.78 655.46 653.37 650.34 647.71 644.32 639.61 636.62 633.62 628.86 623.87 620.42 614.86 611.88 609.19 607.04 606.42 605.66 604.79 603.46 600.83 598.89 595.89 593.26 590.22 584.91 577.9 574.35 570.34 565.5 562.1 558.08 552.39 545.27 540.39 535.22 530.61 524.58 518.73 512.38 505.44 500.58 495.16 490.28 484.9 480.41 476.54 471.73 467.72 464.4 461.23 458.72 457.69 454.25 451.61 450.14 447.72 446.47 445.45 445.11 444.35 442.67 443.04 442.51 437.94 9999 9999 9999 9999 9999 9999 9999 9999 9999 9999 436.7 436.51 436.81 436.37 436.21 436.13 435.6 435.72 435.41 434.59 434.97 435.26 434.47 430.89 429.54 9999 9999 431.09 430.82 430.78 430.99 431.49 429.4 9999 9999 9999 9999 9999 9999 432.29 431.26 431.42 430.32 431.71 431.47 431.51 432.57 430.67 428.95 9999 9999 433.79 433.2 429.35 429.08 429.64 430.75 432.09 428.64 9999 432.07 431.95 431.04 430.35 431.7 434.02 433.88 434.65 434.28 433.1 433.86 431.2 429.68 434.4 434.1
706.53 707.39 706.92 705.95 705.36 704.14 704.54 704.4 704.59 703.89 701.82 699.96 698.16 695.7 692.6 690.16 686.83 682.58 680.39 677.67 674.52 672.49 670.05 667.68 664.96 662.95 660.26 658.06 655.01 652.44 648.87 644.84 641.1 638.28 635.81 634.21 630.25 623.44 617.73 613.02 609.78 607.81 605.72 604.61 604.5 600.81 599.89 598.48 595.76 595 592.13 588.96 581.25 576.57 571.75 568.69 565.35 561.84 556.94 549.41 543.83 539.3 534.02 527.49 523.44 517.23 508.53 503.22 497.36 492.46 487.29 483.69 478.27 474.31 471.22 467.51 463.52 460.65 458.5 455.4 453.51 452.31 449.67 448.29 447.1 446.8 444.83 444.47 443.8 443.52 442.72 439.16 439.43 440.89 439.73 439.51 438.91 9999 9999 9999 9999 436.39 435.89 436.49 435.94 436.09 435.02 435.09 434.8 434.27 434.56 434.51 434.78 434.54 430.12 429.88 428.3 9999 9999 432.22 430.51 430.79 431.28 430.79 9999 9999 9999 9999 9999 9999 9999 9999 431.68 431.41 431.73 431.59 432.36 429.89 428.8 9999 9999 9999 431.75 9999 429.2 433.74 435.28 429.79 9999 9999 9999 431.07 432.19 432.43 430.18 430.7 434.27 435.08 432.54 432.13 432.94 432.97 433.31 434.15 432.81 432.4 432.06
707.8 707.6 708.01 707.37 706.19 705.41 704.38 703.93 704.36 703.25 701.76 699.29 697.82 695.83 693.3 689.2 686.73 682.91 680.36 676.87 675.13 672.29 669.14 666.67 664.37 662.46 659.75 657.04 653.73 650.52 646.82 643.3 640.01 637.71 634.62 633 625.82 621.11 616.83 611.47 609.26 604.97 602.21 600.05 598.97 597.99 597.34 595.69 594.26 590.62 588.63 585.79 580.49 576.43 571.37 568.03 563.95 557.93 552.94 546.64 542.98 537.22 531.67 525.02 518.21 512.01 505.19 500.69 495.61 491.35 486.55 480 476.42 472.53 468.43 467.17 463.15 460.99 457.56 456.34 453.88 453.27 451.26 448.84 447.31 446.34 445.04 445.23 444.44 442.75 440.33 440 441.42 441.24 439.45 438.89 438.89 438.25 438.08 436.71 436.05 436.2 435.87 435.14 435.53 435.28 434.6 434.06 434.07 433.37 433.02 432.2 433.46 431.09 430.56 429.98 9999 9999 429.68 433 431.15 431.72 431.8 430.28 9999 9999 9999 9999 9999 9999 9999 9999 9999 431.68 431.4 432.27 429.88 9999 9999 9999 430.94 431.6 431.29 9999 430.62 434.08 435.28 433.75 431.6 431.11 431.18 431.74 432.54 431.87 432.07 430.76 434.07 434.69 431.96 432.67 432.25 432.55 433.02 434.4 432.3 431.76 432.6
709.54 709.65 708.6 708.3 706.79 705.67 704.29 704.06 703.35 702.32 700.44 698.61 697.58 695.56 691.95 689.27 685.12 683.14 679.94 677.46 675.22 671.49 668.81 666.61 664.46 662 659.29 656.58 651.15 648.11 644.64 640.91 639.09 636.38 633.84 629.46 625.34 621.72 616.65 612.31 607.66 603.89 600.27 596.79 595.42 594.44 592.87 592.48 591.93 589.62 586.61 583.61 578.7 574.18 569.6 567.39 561.22 556.92 551.15 545.37 540.2 534.5 528.34 522.33 515.8 509.99 503.9 497.6 493.08 488.65 481.92 477.88 475.48 471.78 468.7 465.65 463.43 460.94 457.95 456.79 455.22 453.48 451.84 451.26 447.83 446.34 445.6 444.76 444.04 441.11 441.46 442.88 441.96 440.5 439.85 439.23 439.07 438.1 436.99 437.06 436.21 436.04 435.97 435.46 435.05 433.92 433.28 433.16 433.36 432.92 432.19 431.77 430.88 430.79 429.98 9999 9999 429.39 429.65 433.34 430.71 431.64 431.96 430.59 9999 9999 430.44 430.68 431.76 432.09 9999 9999 9999 431.36 431.54 430.7 9999 9999 9999 431.74 430.26 9999 431.8 9999 429.63 435.29 435.82 431.98 431.14 430.74 431.83 432.48 432.51 431.95 432.49 432.35 430.76 433.27 432.35 432.21 433.19 432.41 433.76 433.61 431.68 432.79 433.15
710.57 711.12 710.42 709.73 707.74 706.36 704.44 703.19 702.41 701.31 699.41 697.36 696.44 693.99 690.58 687.19 684.87 682.68 679.25 676.33 673.25 670.96 668.38 665.77 663.35 660.97 657.9 653.77 650.27 646.89 643.41 640.62 636.66 634.18 630.77 627.32 624.92 621.41 616.79 612.35 607.73 603.08 598.45 595.57 593.2 591.36 590.35 589.95 586.48 585.33 582.89 580.73 575.7 572.89 568.74 562.98 557.22 552.33 548.4 543.77 538.14 533.45 525.66 519.85 513.07 506.46 502.64 496.46 491.65 484.96 480.8 477.08 473.6 470.54 467.86 465.63 463.58 461.36 459.57 456.78 454.81 454 452.42 450.24 448.86 447.39 446.54 445.11 443.58 442.97 442.18 443.08 442.13 440.95 440.07 439.47 438.71 437.83 437.15 437.01 435.98 435.66 435.01 435.06 434.87 434.02 433.62 433.35 432.47 432.21 431.96 431.44 430.24 430.26 429.88 9999 9999 429.44 430.15 432.52 431.04 431.26 431.56 431.37 9999 9999 430.37 430.89 431.4 430.91 431.67 9999 9999 9999 431.81 9999 9999 433.08 431.68 431.21 430.59 432.27 431.42 431.45 430.32 431 435.54 432.7 431.1 9999 431.23 432.07 432.6 431.82 431.64 432.68 431.72 429.35 431.46 434.91 432.85 435.96 434.41 434.25 434.94 433.71 435
712.66 711.88 711.63 710.84 708.93 706.36 704.65 702.71 701.47 699.96 698.29 696.49 694.05 691.52 689.57 686.3 683.97 681.28 678.68 674.75 672.23 669.05 667.44 665.46 663.28 660.16 656.11 652.6 648.21 645.4 642.18 639.11 635.46 631.16 629.12 626.74 623.56 620.57 617.6 613.22 607.44 602.89 598.13 594.76 591.11 588.4 587.53 585.17 583.24 581.39 578.83 576.2 572.34 568.3 564.82 559.45 554.91 549.52 545.23 539.8 533.48 527.6 523.18 517.15 510.26 503.74 499.26 492.85 487.17 484.09 480.27 476.01 472.47 469.82 466.58 464.3 461.55 460.04 458.55 456.59 455.32 454.21 452.46 450.16 449.21 447.18 447.09 444.85 444.38 444.18 443.57 443.03 441.4 441.53 440.87 439.57 438.35 438.13 437.87 437.17 436.55 435.65 435.57 434.73 433.91 433.47 433.03 432 432.29 431.1 431.25 430.94 429.93 429.47 428.91 9999 9999 429.54 429.74 433.23 431.91 430.77 431.36 431.3 9999 9999 9999 430.04 428.72 430.64 431.28 430.34 9999 9999 431.41 9999 429.29 433.36 431.69 430.58 9999 432.05 431.52 432.26 9999 9999 430.49 434.48 434.09 433.07 433.01 433.82 432.53 433.1 432.29 432.65 432.89 433.68 432.11 433.24 432.7 433.91 436.12 435.07 432.32 435.54 434.82
713.27 713.19 713.04 711.93 708.99 706.88 704.7 702.87 700.97 699.42 697.64 694.85 692.89 690.62 687.73 686.68 683.81 680.22 675.63 673.92 671.2 667.63 665.91 663.96 661.47 657.37 654.47 651.38 647.13 644.23 640.82 637.63 632.51 629.19 626.58 623.64 622.21 619.84 616.7 611.99 608.08 602.96 599.28 594.47 590.61 586.84 582.65 579.98 578.08 575.45 574.8 572.92 568.39 564.42 559.75 555.18 550.44 546.94 541.89 536.73 530.11 524.54 518.41 512.76 506.29 501.95 496.18 488.99 485.2 482.22 478.47 474.63 471.54 467.62 465.14 463.02 460.3 457 455.55 455.06 453.27 451.13 450.75 450.96 450.16 447.54 446.24 444.94 445.17 443.94 443.13 443.26 441.95 441.14 440.25 439.08 438.47 438.38 437.54 437.58 436.93 436.39 435.34 435.08 434.1 433.45 432.71 433.02 432.22 431.57 431.09 430.29 430.24 429.1 430.01 9999 9999 429.21 430.04 433.33 432.82 431.27 430.89 431.56 9999 9999 9999 9999 9999 9999 428.44 429.9 9999 9999 431.53 9999 9999 433.25 431.63 430.54 431.24 431.24 431.34 431.61 431.96 9999 9999 9999 9999 432.8 433.95 431.72 428.91 430.39 433.96 431.87 432.28 433.46 432.77 429.54 432.67 432.84 432.64 432.84 432.34 432.93 9999
714.79 714.36 714.09 712.05 710.34 708.38 705.9 703.29 701 698.66 696.13 693.81 691.98 689.62 687.36 685.66 682.7 678.65 675.55 672.65 669.76 667.4 665.24 663.03 660.13 657.26 654.04 649.97 645.94 643.07 639.01 635.48 631.46 627.44 623.76 620.22 618.13 617.19 614.61 611.57 608.23 605.19 599.71 594.9 588.93 584.61 580.69 577.04 574.09 571.95 569.2 566.65 563.73 560.5 556.56 553.08 547.92 542.37 535.53 530.47 526.54 521.2 515.46 508.95 502.1 494.4 490.1 486.29 483.93 480.27 476.56 473.28 468.9 465.79 462.42 460.56 459.47 457.81 457.5 456.15 454.09 452.07 451.23 449.89 448.68 448.07 446.45 446.35 445.41 444.78 442.99 442.42 441.06 440.49 439.81 439.31 438.6 438.3 437.55 436.94 436.93 436.08 436.19 434.7 434.66 433.61 433.69 432.51 432.32 431.2 431.38 430.92 429.68 429.33 430.68 9999 9999 428.17 429.85 432.73 432.36 430.83 431.56 430.8 431.61 9999 9999 9999 9999 9999 9999 9999 9999 9999 432.25 9999 9999 433.44 432.1 431.5 430.8 431.51 431.59 432.42 433.16 431.98 433.67 434.34 9999 9999 9999 9999 430.24 429.63 429 432.69 432.8 434.28 432.17 429.64 430.56 432.41 432.2 433.1 431.07 9999 9999
716.32 715.86 714.66 713.29 711.43 708.7 706.39 704.19 700.32 698.02 695.97 693.44 690.92 688.82 686.57 684.02 681.73 678.51 675.41 672.31 669.24 667.18 663.99 662.03 658.64 656.31 652.85 648.94 645.28 641.31 639.07 635.06 631.45 626.7 622.48 618.57 614.85 612.49 610.81 610.25 607.69 604.91 600.88 594.38 588.92 584.89 579.93 575.76 571.92 569.49 565.24 562.28 559.44 554.49 550.79 547.17 543.1 537.92 532.04 526.57 520.96 515.88 509.98 505.42 496.52 492.59 488.13 485.08 481.47 477.19 474.48 470.75 466.97 464.45 464.1 461.76 460.64 459.47 456.82 455.32 453.66 452.85 451.87 450.72 449.18 447.88 446.6 445.7 444.42 443.8 443.3 442.44 440.95 439.9 439.96 439.29 438.37 437.78 437.09 436.45 435.83 435.75 434.77 434.4 434.87 434.05 433.15 432.72 431.88 431.82 432.46 430.87 429.48 430.2 430.27 9999 9999 9999 429.45 429.92 431.41 430.94 431.05 430.54 430.72 431.11 430.91 432.07 9999 9999 9999 9999 9999 430.7 432.29 431.69 9999 429.25 432.67 431.72 430.71 431.75 432.38 431.09 432.15 432 431.35 431.08 431.22 433.49 433.64 431.65 432.01 431.05 428.64 432.99 433.29 433.55 429.61 429.06 431.85 432.48 432.43 431.81 431.89 431.94 432.01
716.93 716.45 715.32 714.31 712.57 709.75 707.25 703.39 700.58 698.16 695.67 693.33 690.32 688.74 685.42 683.45 681.52 678.15 674.74 672.82 669.84 666.05 664.12 661.75 658.83 655.56 651.99 648.44 644.45 641.74 638.86 634.94 631.41 626.4 622.78 616.44 612.88 610.71 609.1 607.76 606.79 605.48 601 596.74 590.77 585.69 580.64 575.26 570.75 564.53 561.14 558.48 554.84 551.46 547.88 543.35 537.49 531.29 526.16 523.31 517.07 511.9 505.13 496.99 493.04 489.83 484.71 482.13 478.55 475.21 470.9 468.39 467.24 465.35 463.95 463.03 460.74 459.75 457.57 456.36 455.06 452.7 450.88 450.55 448.7 448.13 447.04 446.36 445.94 445.76 445.15 443.18 441.22 440.43 439.62 439.32 439.01 437.18 437.38 436.66 436.01 435.6 434.96 434.49 433.76 433.23 432.64 432.52 432.25 431.6 431.98 430.72 429.82 429.57 431.17 9999 9999 9999 9999 430.23 432.38 431.59 430.54 430.2 430.51 430.41 431.1 430.85 431.24 9999 9999 430.7 431.1 430.77 432.04 431.72 9999 9999 430.59 431.9 430.61 431.9 431.98 431.36 431.57 433.22 431.8 431.09 431.32 432.43 433.88 431.02 432.62 435.74 431.59 431.12 430.04 428.55 430.19 431.55 432.36 432.46 432.37 431.41 431.86 431.72 431.92
717.74 716.87 716.25 714.83 712.52 710.41 706.9 703.69 701.14 698.24 694.72 693.28 690.48 687.61 685.1 683.69 681.08 678.47 675.45 672.26 668.93 665.84 663.22 661.1 658.68 655.18 651.3 647.22 643.84 641.04 638.41 635.22 631.22 626.34 621.19 617.17 612.5 609.01 607.04 606.01 605.64 604 600.41 596.74 592.09 587.68 582.6 575.75 569.23 564.73 559.11 554.88 550.69 546.61 542.64 536.56 532.08 526.41 520.38 515.53 509.82 505.32 498.92 494.11 490.72 489.1 485.2 482.76 480.8 476.41 472.44 469.43 468.42 466.56 464.49 463.3 460.73 459.35 457.6 456 454.14 452.6 451.22 449.84 449.3 448.77 447.53 447.63 446.94 446.49 444.25 442.54 441.96 440.67 440.25 441.05 438.46 438.48 436.73 437.07 436.42 435.4 434.85 434.87 433.67 433.29 432.75 432.22 432.05 432.31 432.04 429.93 429.68 430.18 430.37 430.66 9999 9999 9999 9999 430.46 431.29 430.45 430.22 430.92 430.92 430.78 430.63 430.83 9999 430.06 432.31 431.18 432.01 431.2 430.88 431.89 9999 9999 429.81 432.34 431.28 431.6 431.51 431.34 432.13 431.69 431.21 431.4 432.9 431.31 433.75 9999 9999 435.53 433.21 431.92 431.99 432.43 432.22 432.3 432.51 432.22 432.03 432.08 431.95 431.53
718.5 717.58 716.62 715.14 713.68 709.44 706.86 704.23 701.34 698.32 695.39 692.5 690.17 687.47 685.3 683.66 681.1 678.39 675.69 671.32 668.29 666.58 663.96 660.34 658.3 655.47 649.95 646.49 643.91 640.97 637.88 634.86 630.82 625.44 621.03 616.63 612.79 609.1 605.67 603.27 602.09 601.24 599.06 596.79 592.79 589.08 584.41 576.94 572.05 566.01 559.73 554.53 549.57 544.87 539.58 534.12 528.37 522.39 516.56 513.7 510.18 506.53 503.26 500.53 496.4 491.05 490.75 487.81 484.83 482.23 477.7 472.93 469.39 466.28 463.94 461.75 461.23 458.79 458.17 456.57 455.01 453.67 451.33 451.17 449.68 448.48 447.1 446.46 445.84 444.61 443.67 442.33 442.91 442.15 441.11 439.26 438.99 437.91 437.27 436.48 435.73 435.45 434.88 434.48 433.92 433.79 432.6 432.42 432.13 431.23 431.01 429.74 430.1 430.51 430.72 430.86 430.86 9999 9999 9999 9999 431.31 431.16 430.51 430.37 430.47 430.89 430.12 430.93 9999 430.1 430.31 430.57 431.65 431.32 431.41 431.3 432.36 9999 9999 9999 431.73 431.21 431.4 431.56 431.17 431.93 432.26 431.67 432.11 430.27 431.85 9999 9999 430.93 432.36 432.36 431.4 432.65 432.67 432.08 432.83 432.19 432.61 9999 431.97 432.22
718.71 717.96 716.89 715.12 712.17 709.7 706.96 704.35 701.34 698.4 695.46 692.02 690.49 687.96 685.65 683.35 681.01 678.9 674.79 671.59 668.69 666.28 663.73 660.84 657.23 653.54 650.49 646.93 643.69 640.19 637.44 633.97 629.79 625.55 621.34 616.81 611.94 607.9 603.4 600.06 598.62 597.92 596.43 593.88 592.75 589.94 584.62 579.89 573.55 567.88 561.95 556.69 549.71 545.34 540.73 535.01 530.39 525.53 522.89 520.25 517.09 512.1 512.15 507.97 506.71 503.03 502.84 500.81 498.11 489.32 484.85 479.5 474.34 466.85 464.12 463.1 461.4 459.6 458.41 457.04 455.74 454.29 453.16 451.88 450.12 448.93 447.74 446.76 446.18 446.11 444.82 443.81 443 442.3 441.06 439.98 439.46 438.47 437.99 436.58 436.22 435.59 435.18 434.79 434.1 433.35 433.15 432.66 431.51 431.61 431.11 430.61 430.35 430.7 430.55 430.93 430.97 430.65 9999 9999 9999 430.2 431.44 431.01 430.58 430.21 430.6 430.89 431.79 9999 9999 430.23 430.61 430.41 432.07 430.42 431.18 431.14 431.52 9999 9999 9999 431.25 431.67 431.4 431.49 431.34 432.2 432.24 432.64 9999 9999 9999 9999 431.01 431.56 431.76 432.29 431.96 431.97 432.36 432.53 432.79 432.92 432.19 9999 432.03
718.51 717.85 716.03 713.85 712.04 709.76 706.66 704.42 701.55 697.42 695.21 692.44 689.73 687.82 685.64 683.48 680.21 678.18 674.76 671.96 668.61 666.12 663.6 659.23 656.51 653.16 649.64 647.07 643.83 640.31 636.09 632.22 629.14 625.31 621.13 616.66 612.18 606.48 601.51 597.82 595.25 594.84 594.76 592.9 591.42 589 586.17 582.77 576.82 569.12 562.82 555.81 552.8 549.05 545.94 541.37 536.69 531.72 527.53 527.21 523.4 523.24 521.34 517.83 512.45 509.29 506.5 506.87 503.65 500.84 496.9 489.97 477.15 470.35 465.4 463.14 461.05 460.65 458.81 457.15 455.94 454.84 453.71 452.12 450.55 449.66 450.13 448.17 447.86 447.5 446.79 445.32 444.73 442.53 441.21 441.14 440.26 439.07 438.28 437.55 436.81 435.63 435.05 434.51 434.08 433.42 432.87 432.52 431.63 431.33 430.92 430.5 430.32 430.37 430.2 430.67 430.38 431 430.37 9999 9999 9999 430.01 432.45 430.71 431.06 430.84 430.34 431.12 9999 9999 9999 430.48 430.56 432.49 431.34 431.08 431.01 431.59 431.64 9999 9999 9999 430.7 431.25 431.33 431.46 431.45 430.82 431.43 432.64 9999 9999 431.31 431.06 431.25 431.75 431.59 431.22 431.97 431.9 432.39 432.91 432.93 432.88 432.66 9999
717.89 716.94 715.19 713.51 711.02 708.9 706.78 703.74 700.38 697.47 695.16 693.45 689.27 687.74 686.29 683.21 680.74 678.41 675.15 671.82 669.43 666.19 662.44 659.79 657 653.56 650.12 647.33 643.48 639.36 635.73 632.16 628.5 624.8 620.41 615.63 610.11 605.88 601.82 597.41 594.95 593.35 592.69 590.93 589.47 589.05 586.45 583.51 578.77 571.42 563.44 559.74 555.28 554.44 550.68 547.77 544.1 538.58 534.42 533.91 529.97 527.28 524.89 523.24 517.19 514.93 512.84 509.32 507.77 505.42 501.02 492.79 484.43 474.96 468.11 464.02 462.19 460.99 459.2 457.63 457.11 455.75 453.76 452.2 451.91 451.43 450.16 450.41 448.91 448.3 447.33 446.22 444.49 443.56 443.16 442.55 440.86 439.36 439.32 437.25 436.93 436.28 436.11 434.86 433.72 433.84 433.48 432.48 431.84 431.96 431.16 430.31 430.33 430.4 430.19 429.86 429.54 430.17 429.96 430.19 9999 9999 9999 429.39 431.06 432.04 434.33 433.35 431.49 9999 9999 9999 9999 430.04 431.18 430.99 432.45 430.88 430.82 431.16 431.68 9999 9999 9999 430.98 431.23 430.85 431.56 430.96 431.65 431.42 430.3 431.87 431.46 431.75 431.23 431.86 431.93 431.29 431.4 432.31 432.56 432.56 433.1 433.18 433.05 433.04
716.65 715.73 714.61 712.38 710.09 707.84 705.18 702.26 699.25 697.15 694.86 692.75 690.57 688.62 685.29 683.64 680.86 678.29 675.61 672.84 669.26 665.15 661.83 660.23 657.11 653.46 650.42 646.75 642.07 638.26 635.41 631.7 627.63 623.72 619.61 614.01 609.32 604.85 601.61 597.96 594.18 592.51 590.53 587.95 586.87 585.32 584.01 581.32 578.82 569.27 564.52 560.94 559.37 557.43 555.62 552.02 547.19 543.71 538.57 535.9 534.42 532.32 528.84 524.24 519.57 516.53 516.78 515.15 512.77 509.2 501.43 494.83 487.3 477.89 468.03 465.18 463.26 462.95 460.72 458.08 458.33 456.77 456 454.16 454.94 453.7 451.85 451.57 451.04 449.27 449.05 447.95 447.05 444.41 444.48 442.47 440.88 440.18 439.32 438.62 437.44 436.48 436.39 435.25 434.43 433.6 433.19 432.46 432.26 431.83 430.4 430.96 430.33 430.55 430.65 429.93 429.97 429.86 429.34 429.27 430.51 9999 9999 9999 9999 9999 9999 429.04 431.12 431.98 431.92 430.33 430.25 430.27 430.97 430.61 430.36 430.38 430.76 431.52 431.54 430.99 9999 9999 430.22 430.9 430.85 430.95 430.8 432.09 431.77 431.69 431.06 430.57 431.09 431.56 431.76 431.35 431.52 431.76 432.66 432.9 432.41 432.95 432.69 433.39 433.47
715.7 714.14 712.86 710.84 707.94 706.2 703.46 700.8 698.47 696.22 694.37 692.44 690.92 688.32 685.56 683.13 680.74 678.12 675.86 672.42 668.24 664.83 662.44 659.61 657.3 654.16 649.74 645.49 642.04 638.14 634.62 630.11 627.24 622.54 616.89 613.12 608.48 604.91 601.32 597.08 593.62 589.14 586.24 585.23 583.17 581.08 581.28 579.24 574.87 570.79 567.24 562.9 560.35 558.49 556.69 552.37 550.07 546.43 542.86 541.7 535.74 532.67 528.54 525.79 523.61 520.56 518.8 517.6 513.46 509.95 504.03 496.94 490.76 481.46 469.57 466.07 464.58 463.31 461.31 460.35 460.6 457.65 456.51 456.37 456.11 454.89 453.26 452.39 451.51 450.58 449.61 448.22 447.14 446.67 445.36 443.62 441.76 440.93 440.2 439.06 438.29 437.38 436.1 435.51 434.61 433.98 433.81 433.09 432.83 431.53 430.93 430.94 430.77 430.46 430.41 430.69 430.02 430.2 430.31 429.69 429.87 429.94 9999 9999 9999 9999 9999 9999 9999 9999 430.54 433.25 432.41 432.93 431.98 433.39 433.04 431.14 431.19 9999 9999 429.18 9999 9999 430.4 429.83 429.78 431.28 431.27 431.29 432.33 432.08 431.89 431.71 431.44 431.09 431.86 431.85 431.81 431.75 431.9 432.91 433.15 432.66 432.91 432.99 433.49
713.71 713.02 711.3 709.19 706.65 703.65 702.24 699.68 698.32 696.36 694.38 692.79 690.38 687.6 685.7 683.32 680.76 678.33 675.73 671.27 668.63 665.19 662.25 659.84 656.77 653.85 649.2 644.78 641.19 636.85 633.15 630.35 626.22 620.07 616.36 612.53 608.06 605.16 600.58 595.55 590.99 588.03 585.02 582.84 580.27 578.6 577.61 575.23 572.15 569.81 567.36 564.23 560.68 556.9 555.54 551.69 549.24 548.22 546.86 543.75 537.58 533.83 528.75 528.08 526.18 524.68 522.17 518.61 515.1 510.41 503.97 497.5 489.9 479.86 469.35 467.49 465.98 464.09 462.94 461.53 461.63 460.19 458.09 458.17 456.6 456.65 455.16 454.19 452.79 451.67 451.51 450.71 448.6 447.95 446.2 444.07 443.26 442.74 442.03 439.52 438.33 437.64 436.81 436.33 435.33 434.67 433.67 433.17 431.69 431.2 431.19 430.43 430.45 430.55 430.34 430.62 430.46 431.02 430.79 431.38 431.55 9999 9999 429.84 432.25 431.21 430.69 431.54 9999 9999 9999 9999 9999 9999 430.06 429.9 428.97 431.3 9999 9999 9999 9999 9999 9999 429.17 9999 428.64 431.07 431.4 431.09 432.11 431.53 430.77 432.11 431.77 431.22 432.22 431.84 431.24 432.7 432.3 432.83 432.8 432.35 433.54 432.72 433.1
712.09 710.95 708.69 708 704.94 702.68 700.6 698.17 696.55 695.25 693.78 692.01 689.89 688.5 685.51 683.8 680.74 677.56 674.36 671.13 668.15 665.96 662.85 659.8 655.76 652.55 649.64 644.56 640.64 636.52 633.5 628.65 624.98 620.36 615.64 611.75 608.17 604.45 599.03 595.44 592.05 589.51 586.03 583.49 581.37 577.06 574.44 572.31 571.04 568.16 565.96 563.54 558.86 556.02 553.67 552.97 551.73 549.49 548.67 543.23 540 534.3 531.68 530.11 529.04 525.43 522.54 519.54 515.6 511.11 505.7 499.58 491.02 476.36 470.76 469.77 468.64 466.91 464.94 464.03 462.48 461.47 461.04 460.02 458.74 457.92 456.55 455.82 455.37 453.93 452.3 451.64 450.24 448.18 446.73 445.25 444.4 443.49 442.45 441.18 440.52 439.11 438.1 436.91 436.2 434.87 434.32 433.65 432.4 432.51 431.14 430.95 430.81 430.29 432.35 431.89 431.47 432.24 431.96 431.17 429.01 9999 430.5 430.49 429.9 430.22 430.26 430.53 431.05 431.08 9999 9999 9999 9999 9999 9999 9999 9999 9999 9999 9999 9999 9999 9999 429.62 429.44 431.11 431.07 430.45 431.81 430.93 431.71 431.69 432.02 431.43 431.93 431.83 431.87 431.4 431.63 431.82 432.58 432.23 433.34 433.33 432.9 432.94
711.13 709.63 707.18 705.35 703.45 700.66 698.91 697.66 696.18 694.23 693.07 691.15 688.95 687.38 685.47 683.6 679.37 676.67 674.39 671.09 668.36 665.1 662.52 659.12 656.42 652.45 649.12 644.46 640.42 637.04 632.71 629.14 624.98 620.44 616.46 612.28 608.29 603.33 599.67 595.76 592.62 589.99 588.06 584.47 579.96 576.65 574.19 571.77 569.94 567.04 564.51 561.18 558.91 556.17 555.05 553.96 554.1 551.09 547.14 543.88 539.84 536.23 535.07 532.79 529.51 526.62 524.02 520.85 516.61 512.6 506.65 500.95 485.57 475.85 473 473.32 470.59 468.81 466.99 464.95 464.33 463.57 463.37 461.09 459.94 458.54 458.41 457.43 454.95 455.36 454.05 452.71 450.85 450.49 448.21 447.26 446.22 445.59 443.3 442.62 440.95 440.24 439.08 438.13 436.9 435.79 435.08 433.6 432.69 431.89 431.16 430.93 430.35 430.55 431.79 431.12 431.52 431.95 431.64 430.8 429.51 9999 9999 431.07 430.6 430.78 430.36 431.02 431.05 430.77 430.64 431.12 430.75 430.26 430.67 430.82 430.24 9999 9999 9999 430.56 430.17 430.49 432.13 9999 430.11 430.3 430.76 430.76 431.57 431.25 431.12 431.81 431.82 432.32 431.64 431.91 432.05 431.4 432.02 431.85 432.03 433.04 432.28 433 432.95 433.04
708.87 707.64 706.14 704.32 702.07 699.87 698.11 696.53 694.66 692.89 692.65 690.82 689.21 687.5 685.43 682.3 680.1 676.23 674.18 670.84 668.28 665.76 660.93 658.92 656.23 652.77 648.79 644.73 640.88 635.72 632.76 629.61 624.5 621.07 616.72 612.89 607.32 604.76 601.58 597.58 593.76 590.33 587.03 583.4 579.44 575.79 572.72 570.19 568.64 567.31 563.47 561.38 558.87 555.85 554.69 555.09 552.82 549.01 547.58 545.59 541.7 540.54 539.1 536.6 530.1 526.59 522.51 519.9 516.69 511.25 505.46 494.86 482.87 476.2 473.95 474.52 473.75 471.46 468.92 466.46 465.88 465.01 464.7 463.21 462.48 461.3 459.66 458.5 457.08 456.94 455.6 454.6 453.2 451.67 450.19 449.32 447.1 446.59 445.02 444.04 442.8 441.32 440.27 438.54 437.91 436.5 435.11 434.17 433.26 431.87 431.59 430.99 430.64 430.84 431.13 431.73 431.71 431.49 431.38 429.44 429.31 9999 9999 427.9 430.76 431.28 431.41 430.45 430.72 430.37 430.52 431.05 430.39 430.49 430.41 430.38 430.76 430.1 430.37 431.08 429.93 430.42 430.28 431.01 430.57 429.68 429.38 430.28 430.9 430.65 430.73 430.91 431.52 431.76 431.62 432.14 432.42 432.23 431.96 432.46 432 432.01 432.76 432.9 433.12 432.9 433.22
