699.22 697.65 696.8 694.85 693.22 690.69 688.4 686.12 682.8 680.47 677.41 675 675.37 675.32 674.79 674.06 674.19 672.5 672.02 669.91 668.86 666.62 663.73 661.76 658.48 655.71 651.56 648.37 646.07 642.26 638.68 634.5 632.81 630.5 627.14 623.74 621.05 618.03 612.97 609.76 605.63 602.27 597.67 593.51 589.85 585.44 581.03 578.05 575.06 571.3 568.55 565.97 565.49 565.41 562.95 560.58 559 557.32 557.1 554.84 554.9 554.98 552.65 548.89 547.72 548.33 550.09 548.03 545.35 545.3 544.37 542.48 536.39 531.3 527.65 523.51 518.22 513.82 509.37 507.83 502.11 500.89 500.69 497.94 496.06 493.14 492 488.94 486.34 485.14 483.1 480.96 479.42 478.08 476.3 473.32 471.8 471.34 469.58 468.8 467.36 467.16 465.54 462.37 460.65 457.24 454.18 451.29 450.21 448.63 445.2 442.56 440.85 439.91 437.67 435.15 433.78 432.53 430.59 430.32 9999 9999 9999 429.3 429.27 429.56 429.44 429.81 429.21 9999 9999 9999 9999 428.72 9999 9999 9999 9999 9999 9999 9999 9999 429.41 429.33 429.58 429.38 429.53 429.9 429.56 429.66 429.4 429.82 430.07 429.75 430.43 429.63 9999 429.85 430.1 430.37 430.07 431.11 432.24 434.62 434.96 435.77 434.64 434.88 434.44 434.84 434.25 435.29 435.35 434.62 434.96 435.49 435.29 434.81 434.61 434.8 435.17 434.95 435.68 435.15 436.52 436.5 436.17 435.94 436.31 436.2 436.99 436.58 435.64 434.89 434.9 434.82 435.2 435.06 435.29 435.31 435.61 435.6 435.22 435.69 435.74 436.21 435.71 435.83 436.66 436.52 437.14 436.86 436.67 436.98 437.03 437.65 437.08 437.6 437.28 436.92 437.62 437.37 437.37 437.44 437.54 437.7 438.09 438.62 438.24 438.62 437.75 438.16 438.06 438.8 438.39 438.57 438.69 438.51 438.66 439.25 438.64 438.88 438.96 439.28 439.09 439.83 439.73 440.13 440.42 438.93 9999 9999 9999 9999 9999 440.46 440.47 441.5 440.85 440.82 9999 441.4 441.2 441.72 441.72 441.89 442.01
698.26 697.05 695.21 694.19 692.5 690.87 688.07 685.77 683.36 679.81 676.78 674.94 673.37 673.21 673.39 673.58 673 672.58 671.38 670.47 667.95 666.33 663.79 661.64 658.52 654.99 651.77 649.7 646.07 643.36 638.66 636.27 633.66 630.95 627.39 625.24 622.4 617.67 613.54 610.22 606.94 603.29 599.03 595.32 590.41 586.33 582.96 579.31 576.52 572.3 569.11 568.52 568.86 566.24 564.18 563.06 562.2 560.68 558.82 557.98 557.95 558.07 555.43 553.1 553.69 555.44 555.31 552.85 548.23 547.27 548.09 546.38 545.11 541.78 537.53 534.09 526.39 521.23 513.94 509.92 507.62 507.25 505.27 501.85 499.37 495.2 494.41 492.93 491.38 489.11 487.39 484.58 481.88 481.04 478.7 477.63 475.98 473.66 471.34 471.32 469.7 469.13 468.13 466.17 464.02 461.75 456.87 453.76 451.38 449.92 447.96 445.83 444.53 440.52 438.9 436.7 436.19 434.54 433.02 432.67 430.34 428.95 9999 9999 9999 429.1 429.5 429.48 428.91 9999 9999 9999 9999 9999 9999 9999 9999 9999 9999 9999 9999 9999 9999 429.79 429.26 429.5 429.61 429.58 429.53 429.65 429.47 429.53 429.95 429.61 429.93 430.05 430.04 430.23 430.06 430.26 429.62 429.81 431.97 435.12 435.71 435.48 435.3 434.66 434.96 434.67 434.41 434.75 434.59 435.53 435.43 435.43 435.29 435.34 435.46 435.32 435.47 436.1 435.35 435.44 436.6 436.97 436.74 436.66 436.61 436.23 437.45 436.46 436.14 435.84 435.24 434.9 434.73 435.53 435.3 435.2 435.27 435.45 435.94 435.52 435.77 435.74 435.98 436.28 436.41 436.62 436.97 437.13 436.85 437.45 437.57 437.44 437.46 437.5 437.39 437.55 437.6 437.75 438.04 437.77 437.95 438.12 438.18 437.83 438.31 438.89 438.75 438.33 438.64 439.11 438.33 438.96 439.31 438.48 438.79 438.46 439.18 439.25 439.5 438.96 439.73 439.48 440.17 439.79 440.3 439.81 9999 9999 9999 9999 440.38 440.56 440.86 441.61 440.71 440.87 9999 440.99 441.12 441.49 441.25 441.71 442.35
697.29 695.74 694.8 693.63 692.12 690.6 688.62 686.42 683.12 680.82 677.56 674.7 672.84 672.94 672.79 672.25 671.81 671.22 670.87 670.09 668.11 666.41 662.81 660.94 658.54 656.1 652.25 650.05 646.68 642.86 640.02 637.11 634.39 631.08 628.87 625.46 621.99 618.5 615.06 611.7 608.58 604.23 600.08 594.45 592 589.22 585.51 581.23 577.26 571.77 569.3 570.45 570.36 568.64 568.1 566.86 564.2 561.32 560.39 560.3 561.26 561.79 560.62 559.12 557.66 557.67 556.43 555.45 553.89 551.85 551.72 550.85 549.33 549.19 543.63 537.44 534.6 528.69 519.97 514.1 511.64 509.75 508.46 505.98 503.12 501 498.13 495.13 494.06 491.6 490.78 487.53 487.43 484.36 481.99 480.36 478.24 477.03 475.13 474.43 474.01 471.62 469.92 468.32 466.57 463.45 461.81 457.99 455.89 452.75 451.02 449.05 446.07 444 441.56 440.87 438.5 437.5 434.31 432.78 430.54 429.32 429.11 9999 9999 9999 429.96 429.78 9999 9999 9999 9999 9999 9999 430.25 429.46 429.51 429.3 9999 9999 9999 429.95 429.17 9999 9999 9999 9999 429.65 429.46 9999 9999 429.94 430.19 430.16 429.67 430.14 429.94 430.75 430.43 9999 9999 430.6 431.03 434.43 435.7 435.65 435.67 435.31 435.21 434.96 434.53 435.39 435.24 435.13 435.32 435.81 435.18 435.57 435.45 435.84 435.88 435.54 436.03 435.66 436.59 437.19 437.26 436.39 437.54 436.96 437.39 437.24 436.85 436.08 435.29 435.19 435.22 435.27 435.34 434.99 435.03 436.32 435.95 436.71 436.25 436.53 435.86 436.14 436.78 436.95 436.83 437.19 437.09 437.33 437.37 437.76 437.61 437.83 437.32 437.78 437.6 438.14 437.86 437.96 437.93 438.3 438 438.15 437.65 438.41 438.73 438.39 438.32 438.76 438.65 438.4 438.93 439.53 438.34 438.75 438.43 438.55 438.97 439.54 438.86 439.27 439.37 440.63 440.08 440.14 440.12 9999 440.64 440.3 441.04 440.37 440.4 440.7 441.23 441.35 440.87 441.04 441.14 441.56 441.14 442.02 441.98
697.13 695.47 694.15 693.13 691.46 690.37 688.57 685.88 684.2 682.21 679.75 676.28 674.59 673.09 672.38 671.43 671.15 670.42 669.96 668.93 667.27 665.21 663.09 660.67 658.23 655.53 653.06 649.99 646.67 642.95 640.1 637.49 634.53 631.6 627.58 625.49 622.62 618.93 615.29 613.51 609.33 604.53 600.46 596.65 593.01 590.42 587.38 583.26 578.02 575.14 573.44 573.67 572.89 571.08 570.36 568.44 565.89 565.12 562.78 562.75 564.53 564.86 564.15 562.58 561.91 560.34 559.54 558.18 556.53 554.25 554.34 554.18 552.84 550.98 548.52 543.53 538.59 531.84 524.37 520.07 516.58 515.27 511.67 508.99 506.16 505.41 502.38 499.64 498.55 495.8 493.72 491.71 489.8 487.91 485.94 483.8 482.47 479.05 478.17 476.76 475.98 474.95 472.95 471.73 469.59 467.23 463.93 460.69 459.54 456.88 455.58 453.61 449.99 447.87 444.87 443.54 442.18 439.61 437.77 435.95 432.88 431.52 430.99 430.16 429.5 430.13 430.38 429.85 429.28 9999 9999 9999 9999 9999 429.48 429.73 430.2 430.08 428.78 9999 430 429.64 429.47 429.41 9999 430.35 9999 9999 429.91 9999 9999 430.32 430.25 429.85 430.31 9999 429.18 430.55 430.36 430.35 430.12 9999 430.52 430.19 433.94 435.49 436.11 435.26 435.52 435.89 435.49 435.48 435 435.83 435.66 435.65 435.72 435.12 435.31 435.54 435.87 436.32 436 436.68 436.82 436.83 437.29 437.64 437.27 437.43 437.36 437.75 436.41 436.64 436.29 435.56 435.6 435.35 435.71 435.23 435.64 436.15 436.65 435.98 436.53 436 436.36 436 436.7 436.29 437.45 437.58 437.4 437.2 437.7 437.72 437.73 437.22 437.47 437.64 437.55 437.27 437.79 437.86 438.09 437.81 438.38 438.5 438.72 438.32 438.5 438.33 438.41 438.7 438.63 438.74 438.95 439.15 439.26 439.14 438.53 439.2 439.48 439.17 439.27 439.83 439.87 439.91 440.01 440.1 440.35 440.22 440.41 440.68 440.3 441.05 440.62 440.7 440.8 440.88 441.35 440.14 441.17 441.36 441.82 441.4 441.35
696.7 695.4 693.29 692.6 691.19 690.3 688.72 687.56 686.27 683.69 680.95 678.11 676.08 673.81 672.84 670.72 670.34 670.38 669.69 668.23 666.4 664.84 663.22 660.65 658.63 655.53 651.74 649.59 646.77 644.26 641.1 638.63 635.53 631.22 628.44 625.16 622.49 619.6 616.63 613.77 609.85 606.02 601.85 598.61 595.81 592.43 589.31 583.36 580.77 577.47 575.87 575.58 575.04 574.51 572.35 568.99 566.82 566.06 565.58 566.24 567.36 568.29 567.21 564.99 562.87 561.73 561.1 560.95 557.65 556.18 556.43 555.45 554.57 553.34 552.32 547.99 543.76 539.13 529.59 525.78 522.17 519.19 516.29 514.17 512.86 507.41 504.82 502.79 502.11 499.8 498.99 497.28 495.84 491.28 488.7 487.24 485.13 483.83 481.72 481.59 478.6 477.03 475.24 473.78 471.83 470.02 468.05 465.7 461.82 459.23 458.61 457.04 454.91 452.65 450.94 446.57 444.25 441.26 440.09 437.84 436.41 435.02 434.92 432.05 430.99 430.59 430.94 430.52 429.75 429.55 9999 9999 9999 9999 9999 429.59 429.45 429.76 430.01 9999 429.11 429.28 429.94 429.56 429.28 9999 429.72 429.91 9999 9999 9999 429.64 429.52 429.91 430.07 430.07 430.17 429.52 430.56 430.49 430.48 429.91 9999 9999 430.71 431.26 433.6 436.06 435.05 435.84 435.15 436.38 436.23 435.36 435.53 435.56 436.29 435.43 435.2 436.03 436.55 436.21 436.39 436.91 437.7 437.51 437.45 437.4 437.17 437.33 436.78 436.48 436.74 437.2 436.93 436.33 436.04 435.73 435.65 436.07 435.74 435.81 435.96 436.62 436.41 436.21 436.3 436.22 436.36 436.74 436.65 437.14 437.49 437.17 437.5 437.88 437.69 438.04 437.8 438.31 437.49 438.1 437.83 438.46 437.84 438.17 438.28 438.26 438.57 438.55 438.15 438.26 438.68 439.14 438.77 438.6 438.81 439.07 438.92 438.48 439.46 439.52 438.83 438.8 439.96 439.79 439.87 439.94 440.31 439.95 440.34 440.31 440.48 440.69 441.21 440.47 440.46 440.62 440.73 441.62 441.51 441.17 441.47 442.03 441.68 441.55 442.4
696.02 694.72 692.99 691.91 689.95 690.04 688.29 687.5 686.78 685.07 682.26 679.47 677.3 675.27 673.81 672 671.52 669.98 669.45 668.4 666.96 664.19 662.84 660.61 657.82 654.54 652.48 649.51 647.65 644.13 641.08 638.51 634.68 631.24 628.13 625.83 622.35 619.8 617.28 613.77 611.92 607.88 604.68 599.95 597.11 594.2 589.57 585.15 582.5 580.37 578.81 578.45 577.62 575.89 574.33 571.25 569.08 567.72 566.43 567.95 569.44 569.86 569.09 567.35 564.17 562.94 562.54 560.47 557.8 558.17 559.17 559.57 558.42 555.6 553.51 550.89 547.45 543.93 538.21 532.85 528.12 522.31 520.11 518.2 515.95 513.75 511.46 508.28 505.55 505.15 501.6 500.09 498.86 495.57 493.74 491.1 489.08 487.41 485.96 484 482.9 480.76 479.35 476.67 474.09 473.65 471.44 468.98 467.27 464.6 463.92 460.49 458.21 456.07 454.24 451.51 449.16 445.66 441.72 440.95 438.68 436.96 436.47 434.53 433.86 433.74 431.4 430.96 430.51 430.67 429.96 430.17 430.21 429.91 430.2 9999 9999 9999 9999 9999 9999 429.01 429.06 430.03 429.68 429.17 429.57 430.02 430.27 429.6 9999 9999 9999 430.23 430.43 430.1 430.69 429.84 430.24 430.41 430.27 430.39 430.64 9999 9999 430.5 430.88 431.3 435.07 436.35 436.1 436.84 436.8 436.82 435.6 435.98 435.68 435.62 436.15 435.91 435.89 436.46 437.07 437.3 437.55 437.52 438.18 437.51 437.72 437.84 437.67 437.59 437.47 436.94 437.21 436.99 436.35 436.09 435.84 436.13 435.99 436.02 436.34 436.18 436.58 436.82 436.39 436.78 436.16 436.86 437.04 436.99 437.51 437.56 438.3 437.52 437.86 437.83 437.58 437.68 437.7 437.48 437.89 438.32 437.77 438.09 438.36 437.97 438.63 438.96 438.78 438.5 438.83 439.23 438.65 439.19 438.88 439.1 438.3 439.25 439.22 439.17 438.74 439.26 439.57 439.79 439.9 439.88 440.27 440.38 440.55 440.25 440.11 441.17 440.91 441.36 441.05 440.94 441.98 440.96 441.35 441.89 441.3 441.43 441.4 441.38 442.1
696.16 693.75 692.65 690.9 689.48 689 688.02 687.03 686.66 685.06 683.1 680.54 678.6 677.4 675.96 673.37 672.2 670.71 668.99 667.77 666.05 664.27 662.2 660.15 656.57 654.55 651.89 649.78 646.91 644.77 642.01 637.56 634.77 631.68 629.24 627.05 623.82 621.2 617.54 615.69 612.62 609.66 605.61 602.89 598.97 594.92 590.89 587.38 584.48 582.35 581.64 580.98 579.87 577.98 574.87 572.77 571.04 569.36 568.55 570.49 571.92 571.18 570.52 568 565.48 564.5 562.82 560.58 559.54 559.49 560.89 561.05 559.81 558.65 557.92 556.25 551.36 547.53 543.45 536.56 531.79 528.35 526.99 525.71 519.53 517.89 515.07 512.74 510.5 510.54 507.29 504.17 501.95 499.36 497.05 495.31 494.66 494.83 490.52 488.17 485.59 484.5 483.62 481.03 480.44 477.49 474.3 471.81 469.66 468.15 467.37 464.78 464.26 462.52 457.01 455.2 453.42 450.68 447.16 444.91 442.83 440.14 439.28 436.88 436.12 434.2 434.95 432.89 432.01 430.52 430.74 430.29 430.68 430.85 430.45 430.44 429.57 429.91 9999 9999 429.84 9999 9999 9999 429.84 429.76 429.49 9999 430.36 430.04 9999 9999 9999 429.96 430.04 429.68 430.26 429.75 429.89 430.45 430.15 430.08 430.68 430.09 9999 9999 430.69 430.63 430.95 435 436.94 437.11 436.45 436.87 436.21 436.4 436.08 435.32 436.78 436.47 436.11 435.69 437.22 437.78 437.66 437.95 437.52 437.41 437.37 437.72 437.69 437.2 436.88 437.5 437.55 437.71 436.78 436.35 436.42 436.01 436.61 436.56 436.4 436.34 436.38 436.97 436.75 436.32 436.65 436.6 437.16 437.74 437.44 437.77 438.07 438.25 438.1 438.38 438.26 438.27 437.47 438.07 437.45 437.86 437.66 438.28 438.61 438.37 438.26 438.39 438.8 438.84 438.69 439.12 438.06 438.92 439.33 439.17 438.97 438.92 439.5 439.39 439.55 439.08 439.69 440.24 439.75 440.09 440.31 440.58 440.4 440.12 440.69 440.4 440.94 440.78 441.35 441.17 441.05 441.69 441.47 441.76 441.93 441.66 441.85 441.73 441.92
694.9 693.36 691.15 690.3 688.78 688.31 687.26 687.06 686.35 685.71 683.95 681.19 679.74 678.5 677.18 675.29 673.34 672.01 670.52 667.89 666.65 664.11 662.6 659 657.11 654.76 652.57 649.73 647 645.09 641.76 638.43 635.33 632.82 630 627.52 625.65 621.81 620.06 616.89 614.71 611.49 607.2 604.33 600.07 596.45 594.12 590.99 587.68 584.65 582.03 581.3 580.77 579.69 577.7 576.46 574.56 571.32 570.97 571.09 573.47 573.86 570.95 568.82 567 565.79 563.61 561.38 562.06 560.92 561.69 562.19 560.51 560.14 561.74 559.36 556.05 553.88 549.77 543 538.1 535.25 533.15 530.14 527.17 524.55 521.26 517.53 515.13 514.1 511.48 510.44 507.56 505.51 503.88 500.35 499.62 497.46 494.42 492.58 491.04 490.21 486.21 485.53 483.63 481.28 479.61 477.71 475.72 473.99 470.23 468.8 467.57 466.38 464.15 461.91 461.81 456.47 453.89 448.35 446.01 443.88 442.28 439.8 439.13 437.53 436.29 435 435.21 433.43 432.2 431.29 431.33 430.99 430.83 430.81 430.63 430.73 430.54 429.88 429.87 429.51 429.67 9999 9999 429.42 429.34 9999 9999 429.36 429.71 9999 9999 9999 9999 9999 9999 9999 430.53 9999 430.31 430.49 430.65 430.71 430.85 9999 430.89 430.75 430.88 431.38 435.16 436.98 436.71 437.44 437.05 436.06 436.48 436 435.8 436.35 436.15 436.51 437.89 437.48 438.02 437.85 438.25 437.53 437.59 437.62 438.02 437.42 437.07 437.18 438.05 437.89 437.43 436.47 436.58 436.71 436.49 436.77 436.27 437.14 437.19 436.71 436.52 436.8 436.72 436.74 436.89 437.98 437.46 438.72 437.36 437.96 437.85 438.36 438.18 438.59 438.35 438.08 438.06 438.27 438.58 438.5 438.5 438.29 438.82 438.6 438.39 438.57 438.55 438.73 438.93 439.11 439.08 439.12 439.39 439.21 439.41 439.5 439.21 439.86 439.75 440.18 439.66 440.34 440.1 440.38 440.09 440.7 440.94 441.08 440.86 441.05 441.08 441.28 441.16 441.06 441.89 441.26 441.12 441.36 441.84 441.7 441.62
694.23 692.23 690.84 690.14 687.98 687.47 686.8 686.23 685.3 685.08 684.09 682.3 681.43 680.07 678.79 676.33 675.69 673.26 671.32 669.34 667.53 665.93 661.9 659.99 657.59 655.48 654.14 651.71 648.99 644.92 642 639.72 636.38 634.05 631.51 628.56 626.29 622.69 620.84 618.17 615.25 612.27 608.78 606.26 603.93 599.82 596.92 593.43 590.76 587.28 585.07 583.37 581.59 580.85 579.4 578.8 578.21 576.23 575.96 575.26 574.11 574.48 572.21 570.12 569.65 568.22 566.9 563.98 564.14 562.67 563.35 563.64 563.96 563.44 566.21 563.92 559.87 559.01 554.25 552.18 548.42 542.65 539.65 535.32 531.98 529.11 525.96 524.36 522.49 520.74 517.09 514.37 512.97 511.17 508.48 508.33 508.28 504.69 498.47 496.85 495.14 493.97 493.37 490.92 488.87 484.99 483.25 481.41 479.52 477.94 476.47 474.66 473.33 470.16 466.77 465.73 464.59 463.31 460.28 455.47 450.32 447.45 444.74 442.78 441.57 441.11 438.34 438.86 435.78 434.49 434.44 432.92 431.52 431.18 431 430.75 430.62 430.82 430.93 430.46 429.42 429.98 429.89 429.16 9999 9999 9999 9999 9999 9999 9999 9999 430.23 9999 9999 9999 9999 9999 430.32 9999 9999 431.26 430.91 9999 9999 9999 431.25 431.01 431.21 430.37 430.87 431.61 436.76 437.81 437.34 436.44 436.19 436.35 437.13 436.85 436.67 437.45 437.67 438.46 437.9 437.47 437.94 438.48 437.4 437.64 437.81 438.09 437.03 437.7 438.59 438.44 437.1 436.83 436.4 436.53 436.6 436.87 436.23 436.77 436.76 437.14 436.91 436.86 436.62 436.86 437.19 437.29 437.47 437.92 438.44 438.09 438.62 438.09 438.44 438.2 437.91 438.46 438.41 438.43 438.8 438.93 438.69 438.51 438.57 438.54 439.1 438.16 438.89 438.73 438.92 439.31 438.81 439.39 439.32 439.09 439.36 439.24 439.61 439.17 439.78 440.29 440.23 440.23 439.88 440.89 440.69 440.34 440.45 440.59 441.13 441.1 441.49 441.22 441.53 441.28 441.57 441.6 441.72 441.99 441.82 441.99 441.98
691.67 690.67 689.71 688.8 687.66 686.15 685.67 685.2 684.47 684.26 683.51 683.25 682.5 681.35 679.6 678.23 676.89 674.45 672.3 670.55 667.61 666.22 663.52 661.68 659.24 656.51 654.74 651.83 648.61 645.65 643.63 641.01 638.88 634.82 632.04 629 626.7 624.72 622.2 619.8 616.85 612.68 610.93 608.59 606.13 602.68 599.11 597.73 592.72 590.19 587.61 586.27 584.21 584.04 582.89 581.85 581.18 580.37 578.94 578.55 577.53 575.8 574.23 572.39 571.58 570.14 569.06 568.29 567.85 567.3 566.35 565.07 566.25 567.07 568.19 569.85 565.98 564.22 560.97 556.13 553.18 547.96 546.84 542.27 540.88 537.59 531.42 530.32 527.53 525.3 523.93 521.86 521.77 516.42 514.83 515.38 513.17 508.94 506.32 504.45 503.56 499.46 497.38 495.13 493.79 492.11 490.5 489.08 483.98 482.47 480 477.91 476.69 474.95 472.16 470.44 467.4 463.65 460.22 458.25 455.4 450.74 448.53 446.39 443.14 442.4 441.05 438.98 438.85 438.43 436.83 434.14 432.79 432.96 431.85 431.27 431.09 431.2 430.76 430.7 430.23 429.56 429.83 429.85 9999 9999 429.6 429.82 429.88 429.96 430.3 9999 9999 9999 9999 9999 9999 9999 9999 9999 9999 9999 9999 430.99 430.98 9999 9999 9999 430.75 430.99 431.22 431.15 431.35 437.54 437.93 437.15 436.06 436.11 436.21 437.11 437.26 436.49 437.42 438.11 437.7 438.27 438.23 438.35 438.12 438.6 438.31 438.5 438.07 437.95 438.4 438.8 438.24 437.8 437.17 437.1 436.37 436.74 437.1 437.59 436.97 437.51 437.1 437.15 437.37 437.21 437.21 437.66 437.92 438.03 438.1 438.13 438.29 438.89 437.82 438.11 438.07 438.1 439.04 438.26 438.57 438.8 438.14 438.3 438.93 438.75 438.18 438.77 439.02 439.17 438.39 438.85 439.1 439.35 439.42 439.26 439.37 439.32 439.84 439.81 439.55 439.64 440.04 439.7 440.08 440.35 440.01 440.74 440.68 440.63 441.2 441.23 441.09 441.95 441.21 441.88 441 441.72 441.3 442.18 442.16 442.44 441.97
689.91 688.57 687.11 685.97 685.33 685.24 684.62 683.6 683.69 683.19 683.05 682.42 682.47 681.48 680.37 678.9 677.16 675.51 674.4 671.06 669.27 666.17 664.96 662.37 660.52 658.2 655.32 654.02 649.63 646.88 644.43 642.13 640.13 635.94 632.83 630.53 627.23 625.16 623 621.04 619.05 616.64 614.08 610.8 608.58 605.98 602.71 599.67 597.03 594.48 591.72 588.47 586.55 585.38 584.36 584.01 584.75 583.65 582.26 580.57 579.25 577.18 576.76 575.92 574.03 572.48 570.25 570.51 569.95 569.68 568.28 568.86 570.32 571.15 570.13 571.44 570.18 569.43 567.67 563.68 561.77 556.15 551.39 547.29 545.54 542.47 539.62 536.9 533.97 530.41 529.45 526.59 527.18 524.73 524.01 522.28 517.06 514.21 512.7 511.18 509.32 507.11 505.13 502.91 498.84 497.75 495.74 493.65 492 488.49 486.72 482.09 480.14 478.36 476.52 473.77 470.83 467.26 465 460.61 457.42 454.59 451.81 448.98 447.87 446.36 442.9 441.88 439.69 439.41 437.5 437.04 435.44 434.79 433.19 432.29 431.21 431.45 431.32 430.97 430.7 430.44 429.84 429.74 430.03 9999 429.97 429.82 430.35 429.7 429.81 9999 9999 9999 9999 9999 9999 9999 9999 9999 9999 9999 9999 9999 9999 430.8 9999 9999 431.31 431.26 431.52 431.29 431.28 434.03 437.57 437.27 436.8 436.12 436.68 436.68 437.17 437.84 437.9 438.39 438.1 438.9 439.1 438.55 437.88 438.76 438.37 438.41 438.85 438.14 438.31 438.32 437.95 437.89 438.48 437.41 436.83 436.98 437.13 437.66 437.38 437.46 437.5 437.12 437.32 437.48 437.37 437.21 437.18 438 438.03 437.95 438.33 438.67 9999 438.41 438.67 438.66 438.99 438.93 438.52 438.23 438.39 438.86 439.53 439.13 438.94 438.92 439.14 439.09 439.01 438.54 438.96 439.23 439.29 439.25 439.63 439.91 439.48 440.25 439.85 440.07 440.13 440.21 439.86 440.33 440.21 440.56 440.51 441.29 440.97 441.28 441.41 441.5 441.89 441.83 441.42 441.69 442.01 441.56 441.74 442.04 441.55
686.44 685.91 684.93 684.23 683.95 683.28 682.62 681.74 682.46 682.11 682.34 682.26 682.06 681.32 680.3 679.52 677.31 675.69 673.79 671.67 670 667.7 666.23 663.89 660.83 659.17 657.79 654.88 652.49 649.01 646.12 643.98 639.67 636.92 633.94 631.64 628.58 626.42 624.72 622.67 621.06 619.03 617.26 614.56 612.15 609.48 606.58 602.07 599.42 597.57 595.29 593.4 590.32 588.54 586.25 585.86 585.69 584.99 583.95 583.56 581.64 580.36 578.04 577.33 576.72 574.69 572.37 571.89 572.94 571.3 570.95 571.12 572.56 574.36 574.97 575.46 576.24 573.9 572.27 572.36 565.02 561.31 559.42 555.18 552.14 547.32 545.25 541.52 539.3 539.41 537.62 537.2 532 530.71 530.26 529.5 525.9 525.68 523.1 521.27 516.4 513.78 511.59 510.74 508.43 505.59 504.93 499.76 496.18 493.93 491.8 489.99 487.98 485.49 482.61 475.74 473.07 470.69 468.26 464.67 462.15 459.72 454.55 453.05 450.51 448.13 447.08 444.96 444.17 441.95 439.08 438.7 436.69 436.65 434.48 433.9 432.04 431.65 431.06 431.23 430.76 430.98 430.52 430.28 429.27 430.24 429.3 429.79 429.26 429.92 429.85 9999 430.16 9999 9999 430.15 9999 9999 9999 9999 9999 9999 9999 9999 9999 9999 9999 9999 9999 431.31 430.85 431.35 431.95 431.17 436.3 436.93 436.7 436.8 436.9 436.87 436.94 437.64 438.26 438.48 438.79 438.85 438.73 438.92 439.07 438.41 438.53 438.38 438.7 438.42 438.77 439.36 438.83 438.86 438.45 437.45 437.5 437.65 437.36 437 437.5 436.88 437.89 437.71 437.68 437.74 437.22 437.82 437.58 438.2 438.54 438.27 438.44 438.15 437.95 438.87 438.62 438.77 438.43 438.57 438.93 439.09 439 438.67 438.63 439.13 439.26 439.17 439.41 438.99 438.92 439.25 439.26 440.05 438.97 439.52 439.49 439.42 439.04 439.93 439.91 440.08 439.66 440.07 439.74 440.06 440.5 439.95 440.74 441.03 440.61 440.86 441.61 441.26 441.77 442.01 441.63 442.23 442.22 441.67 441.75 441.99 441.64
684.89 682.32 681.29 680.45 681.2 681.67 681.39 680.41 680.14 680.27 680.79 680.98 681.38 680.64 680 678.37 677.19 676.03 674.03 672.21 670.49 668.33 665.86 664.53 661.64 660.07 657.66 655.77 652.93 650.1 647.24 643.52 641.25 638 635.82 632.64 630.62 628.64 626.48 625.15 623.6 622.4 619.07 616.81 614.49 611.88 609.15 607.08 603.99 602.2 598.19 595.47 592.96 591.24 589.8 589.15 588.68 586.99 585.87 584.28 583.43 582.79 581.26 580.53 579.01 575.68 573.9 572.84 574.24 574.4 574.2 575.05 576.07 576.61 576.73 577.59 577.62 576.76 577.12 575.48 569.86 567.44 562.74 559.24 557.48 555.2 553.09 550.06 544.41 546.39 543.02 540.02 540.47 538.72 539.73 536.69 533.65 532.34 529.79 528.18 526.41 524.41 522.06 517.15 515.34 514.39 511.86 509.09 506.24 503.99 497.45 495.18 492.89 491.09 485.61 483.21 478.76 475.71 471.12 468.5 465.24 462.5 460.04 456.69 454.82 451.7 450.3 447.27 445.2 443.19 441.84 440.91 439.06 438.39 436.4 434.36 433.27 433.04 432.76 432.25 431.27 431.53 430.98 430.74 430.6 430.09 430.01 429.55 430.27 430.19 430.16 429.96 9999 9999 9999 9999 9999 9999 9999 9999 9999 9999 9999 9999 9999 9999 431.03 9999 431.65 9999 431.46 431.74 432.12 431.79 431.18 434.53 436.63 436.9 437.07 436.9 437.05 437.31 438.16 438.28 438.87 438.84 438.79 438.69 438.89 438.51 438.25 438.88 439.27 439.04 439.14 438.65 439.65 439.08 438.63 438.38 437.87 437.27 437.52 437.05 437.01 437.71 437.55 437.79 437.19 437.59 437.77 437.72 438.4 438.07 438.22 438.47 438.12 438.44 437.38 9999 438.4 438.74 438.74 438.76 438.73 438.95 439.08 438.99 438.93 439.24 438.97 438.95 439.02 439.12 439.53 439.56 439.98 439.46 439.27 439.38 439.73 439.87 439.61 439.78 439.44 439.99 439.96 440.53 440.04 440.3 440.44 440.5 440.89 441.64 440.96 441.28 441.34 441.36 441.8 442.1 441.91 442.25 442.3 441.49 441.84 441.7 442
681.22 679.63 678.64 678.85 678.83 678.09 678.51 678.83 679.33 679.55 679.8 680.45 680.69 680.02 678.85 678.22 676.56 675.22 673.98 672.01 670.34 668.58 666.54 663.56 661.63 659.91 657.06 655.27 653.36 650.72 647.28 644.63 642.46 640.01 637.47 635.09 633.15 631.46 628.9 627.3 625.3 623.76 621.65 619.07 617.39 614.15 612.23 609.41 607.55 605.35 602.21 600.64 598.95 594.49 592.66 591.11 589.5 588.75 587.9 587.28 586.34 583.84 583.22 582.64 579.59 577.94 576.3 576.63 575.27 576.55 576.93 577.52 578.08 578.28 578.89 579.52 579.11 579.09 578.45 577.31 576.05 571.13 568.77 564.47 562.56 560.17 558.66 556.08 554.11 555.18 551.96 548.26 548.81 546.69 547.25 545.65 545.15 543.41 537.48 536.12 534.51 533.02 530.03 529.15 527.2 525.33 517.83 515.95 512.82 509.28 506.28 503.67 501.42 494.27 490.98 485.57 483.27 480.05 476.65 472.93 470.53 466.14 463.15 460.59 457.45 455.77 452.38 451.09 447.25 445.41 444.04 442.96 442.06 440.52 438.86 438.36 435.45 435.26 434.46 434.36 431.91 432.14 431.51 431.8 430.72 431.18 431.81 430.42 9999 429.49 429.84 429.95 430.12 9999 9999 9999 9999 431.18 430.51 431.14 9999 9999 9999 9999 9999 9999 9999 9999 431.27 9999 9999 9999 431 431.49 431.33 432.65 437.13 435.99 437.14 436.99 437.15 437.61 438.84 439.17 439.23 438.92 438.87 439.08 438.85 439.14 438.98 438.82 438.3 439.14 439.35 439.23 438.8 439.33 438.7 439.44 438.23 437.58 438.23 437.56 437.45 437.75 437.91 437.58 437.94 438.01 437.8 437.81 437.93 437.63 438.06 438.46 439.01 438.84 436.93 9999 438.67 438.8 438.77 438.86 439.23 438.86 438.67 438.96 439.21 439.92 438.85 439.15 439.5 439.36 439.45 439.41 439.57 439.53 439.37 439.35 439.57 439.46 439.55 439.56 439.93 440.21 440.01 440.41 440.88 440.25 440.32 440.61 441.04 440.93 441.57 441.49 441.5 441.93 441.72 441.86 441.57 441.78 442.07 442 442.4 442.4 442.36
677.52 676.97 676.08 676.99 677.25 676.09 676.53 676.47 676.59 677.13 678.67 679.2 679.15 678.59 677.62 677.19 675.13 673.84 672.4 671.34 668.99 667.28 664.83 662.34 661.11 658.87 657.2 655.02 652.09 650.54 648.53 646.65 644.3 641.35 639.05 637.28 635.45 633.94 631.95 629.73 628.29 625.98 623.26 620.98 619.62 618.22 615.69 613.93 611.73 607.76 606.04 603.7 601.82 599.42 596.49 594.24 592.12 590.52 589.51 588.97 588.62 587.6 586.71 585.23 582.21 580.44 578.67 578.36 578.24 577.67 579.98 579.8 579.61 579.98 580.76 580.41 581.52 581.29 581.55 579.71 578.65 575.18 572.18 571.18 570.01 570.22 565.69 562.46 560.16 560.65 557.56 558.8 557.65 557 553.24 552.57 552.91 550.96 550.47 549.57 547.04 544.86 540.83 539 535.38 532.66 528.55 527.2 523.62 516.58 513.93 510 507.13 503.55 497.95 493.34 489.25 484.1 480.08 477.27 474.65 472.51 469.2 466.12 461.18 458.3 455.1 452.31 450.11 447.97 446.34 445.48 443.07 442.27 441.49 439.1 438.08 437.36 436.34 434.71 432.53 431.86 432.04 431.99 432.52 432.31 432.64 431.86 430.62 430.33 429.79 9999 434.82 9999 9999 9999 430.54 430.78 430.83 430.89 431.89 9999 9999 9999 9999 9999 9999 9999 9999 9999 9999 9999 9999 431.76 431.6 431.9 434.96 436.76 437.42 437.03 437.27 438.22 439.3 439.2 439.46 439.15 439.43 439.7 439.51 438.91 439.4 439.28 438.68 439.23 439.68 439.89 439.31 439.49 439.31 439.88 438.39 438.3 438.49 437.64 437.93 437.87 437.45 438.04 437.92 437.97 437.85 437.99 437.91 438.29 438.86 438.63 438.79 438.25 437.45 9999 9999 438.92 438.53 439.01 438.8 439.08 439.01 438.96 439.09 439.23 439.06 439.78 439.27 439.39 439.72 438.98 439.87 439.8 439.63 440.15 439.98 440.28 439.95 439.93 439.93 440.03 439.89 439.62 440.46 441 440.65 441.21 441.42 440.3 441.03 441.6 441.52 442.16 441.35 442.01 441.91 441.75 441.93 441.89 442.18 442.31 442.64
676.46 675.84 675.87 675.87 675.99 675.42 675.82 676.34 675.83 676.4 677.07 676.34 676.27 676.17 676.01 675.36 674.32 673.24 671.43 669.68 668.45 666.74 664.43 663.13 661.41 659.25 657.41 654.55 653.12 650.92 648.86 647.28 645.87 644.62 642.07 640.53 637.38 635.46 633.71 632.01 630.21 627.94 626.37 623.95 621.64 619.47 618.51 616.03 613.81 612.29 611.23 608.46 604.93 602.89 599.96 596.39 595.38 594.54 593.67 591.44 590.31 589.67 587.48 586.69 584.8 582.91 582.54 581.59 580.27 581.65 582.11 582.8 583.24 583.11 582.11 582.82 583.63 583.82 583.69 583.46 583 581.35 575.39 575.2 573.63 573.36 573.5 571.43 569.78 565.61 562.48 562.8 561.89 562.21 563.03 562.27 563.61 559.3 558.61 558.84 555.82 555.99 552.67 550.23 548.91 541.91 537.67 535.13 532.07 528.82 524.8 520.47 513.31 508.03 503.27 498.06 495.21 489.2 487.06 483.16 478.65 475.82 474.02 469.85 464.83 460.76 458.2 454.42 451.94 449.78 448.67 447.69 447.03 445.02 443.57 440.76 439.59 439.22 437.4 435.97 434.26 432.79 432.14 432.2 432.4 433.06 432.96 432.28 432.13 431.87 9999 430.26 430.43 9999 430 430.16 430.47 430.44 430.58 431.48 430.67 430.92 430.77 9999 9999 9999 9999 9999 9999 9999 9999 9999 9999 431.35 431.83 431.6 431.88 436.58 437.22 437.53 437.7 438.53 439.24 439.42 439.34 438.97 439.49 439.35 439.69 439.45 439.53 439.91 439.77 439.57 439.21 439.6 439.48 439.73 440.08 439.25 438.7 438.04 437.98 438.05 437.29 437.79 438.17 437.81 438.13 438.03 438.38 438.06 438.02 438.5 438.86 438.69 439.11 439.16 438.95 9999 9999 438.39 438.95 438.66 439.23 438.86 439.43 438.76 439.16 439.25 439.44 439.35 438.95 439.83 439.51 439.48 439.29 439.53 439.74 439.94 439.81 439.91 439.22 439.57 439.51 439.9 439.73 440.18 440.32 440.77 440.7 440.78 441.38 441.4 441.18 442.36 441.66 441.36 442.14 441.9 442 441.48 442.05 442.57 442.95 442.22 442.97
675.75 676 675.74 675.66 676.03 675.51 675.33 675.1 675.6 675.66 675.05 675.09 675.43 674.74 674.4 674.24 673.69 672.45 670.68 669.38 667.82 666.1 664.98 663.19 660.83 658.91 656.82 655.19 653.74 652.15 650.68 649.47 646.57 644.87 643.54 642.42 640.27 638.6 636.99 635.16 631.48 629.49 628.13 626.9 624.38 623.09 621.98 618.23 617.32 614.44 613.35 610.85 609.07 606.26 604.07 600.07 597.87 596.87 595.66 595.3 593.54 591.39 589.65 588.75 587.05 584.99 585.9 584.83 584.83 585.23 583.92 584.91 585.04 585.74 586.51 587.07 587.77 588.09 585.79 585.2 584.69 584.64 583 581.42 579.98 577.25 577.59 575.61 572.99 570.12 568.8 569.53 569.25 567.97 568.83 570.79 569.91 568.81 569.04 568.45 565.33 563.3 560.96 560 558.09 555.75 552.07 549.02 541.22 535.84 531.85 528.62 524.08 518.4 514.47 504.15 497.8 494.24 489.58 487.17 484.84 482.07 478.34 471.39 467.61 463.77 460.43 458.16 455.53 454.24 450.51 449.85 448.78 447 444.66 443.28 441.95 440.56 438.43 437.53 436.13 434.62 433.01 433.02 433.39 434 433.45 433.68 433.1 432.14 9999 430.34 430.24 9999 430.04 429.79 430.21 431.16 430.37 430.9 431.04 431.18 431.78 9999 9999 9999 9999 9999 9999 9999 9999 9999 9999 9999 431.91 431.86 431.4 434.43 437.02 437.28 438.09 439.18 439.75 439.42 440 439.41 440.1 439.3 439.53 440.05 439.75 439.72 439.39 439.58 439.58 440.17 439.82 439.24 439.66 439.75 438.89 438.6 438.58 438.48 438.61 437.92 438.35 438.43 438.89 437.86 438.35 438.26 438.13 438.38 438.44 439.11 438.72 439.06 439.16 438.36 9999 438.51 439.33 439.42 439.24 438.65 439.53 439.13 439.1 439.25 439.85 439.09 439.5 439.28 439.63 439.69 439.24 439.49 439.82 439.89 439.18 439.49 439.59 439.85 439.95 439.79 439.64 440.14 440.72 440.68 440.49 440.84 441.34 441.13 441.47 441.16 441.57 441.94 441.47 441.75 442.32 442.26 442.67 441.98 442.7 442.65 442.49
675.92 675.76 675.06 676.09 675.7 675.52 675.12 675.05 675.95 675.57 675.11 675.02 674.4 674.83 674.24 673.88 673.08 671.4 669.98 669.23 667.92 666.23 665.38 663.51 661.99 660.28 658.74 657.21 654.56 653.21 652.13 650.37 648.41 646.99 645.88 643.64 642.37 640.93 638.96 636.4 634.25 632.3 630.62 628.85 626.76 626.02 624.61 622.91 620.83 618.86 615.14 612.79 610.06 608.05 607.14 603.41 601.22 600.43 598.59 597.15 594.97 593.31 592.64 592.65 591.32 590.32 588.2 587.52 587.8 588.34 588.78 589.2 590.03 588.3 589.05 590.37 590.56 590.38 590.31 590.96 590.54 588.12 586.93 585.65 584.75 583.34 582.38 580.9 577.39 575.95 573.7 573.71 573.84 573.26 575.1 576.15 575.83 577.03 575.18 575.68 574.32 574.35 572.97 567.56 565.74 565.16 561.69 558.75 554.52 549.37 544.2 535.94 531.36 526.35 519.56 512.4 506.49 502.09 495.8 491.56 488.57 484.65 479.77 475.93 471.32 468.36 463.96 460.8 458.13 455.56 454.76 453.04 451.3 448.23 447.11 444 443.17 441.71 440.73 439.74 438.77 436.99 435.3 435.2 434.38 434.66 434.92 434.32 433.38 432.26 430.76 430.38 431 430.57 9999 9999 9999 9999 430.49 431.17 430.65 430.68 431.57 9999 9999 9999 9999 9999 9999 9999 9999 9999 9999 432.44 431.99 431.93 432.3 432.35 436.47 437.44 439.24 439.26 439.25 439.82 440.06 439.89 439.81 440.1 440.24 440.18 440.19 439.58 439.47 439.51 439.82 440.08 439.69 439.62 439.94 439.86 438.7 439.19 438.86 438.6 438.45 439.1 438.39 438.74 438.23 438.67 437.99 438.77 438.23 438.71 439.07 438.96 438.84 439.19 439.05 9999 9999 439.35 439.61 439.39 439.58 439.45 439.57 440.23 439.29 438.99 439.26 439.88 439.41 439.4 439.88 439.75 439.64 439.29 439.81 440.12 439.48 439.62 440.2 439.36 439.79 440.07 440.55 439.89 440.29 440.67 440.82 440.98 441 440.76 441.18 441.56 441.36 442.16 441.85 442.27 442.27 442.87 442.46 442.45 442.81 442.28 442.31
675.9 676.23 676.07 676.61 676.27 675.9 676.11 676.41 676.63 676 676.14 675.83 676.44 675.54 675.1 674.31 673.36 672.64 670.55 669.6 668.25 667.67 666.53 665.52 663.45 662.26 660.79 658.88 657.13 655.89 654.02 650.54 649.65 648.34 646.73 646.38 644.18 642.58 639.99 638.06 636.38 634.78 632.44 632.18 629.92 628.14 626.21 624.28 623.66 621.31 619.55 616 613.88 611.65 608.33 606.01 603.53 603.38 601.69 600.58 598.22 596.04 595.85 594.9 594.3 592.48 593.28 592.86 593.18 591.99 592.03 592.64 592.02 593.2 593.43 594.35 593.96 593.34 593.41 594.24 594.66 594.45 592.78 591.84 587.99 585.93 585.72 584.75 585.27 583.01 581.06 577.87 577.1 577.18 578.06 580.15 581.31 582.74 584.33 582.06 580.99 580.97 580.18 580.03 579.61 578.95 576.64 566.83 564.51 560.84 554.86 548.46 543.29 536.04 526.38 519.85 513.29 507.91 503.02 499 493.08 488.19 483.03 478.93 476.28 472.28 468.21 463.56 462.2 458.12 456.59 455.58 453.83 451.58 449.98 448.21 446.58 443.57 441.94 440.96 440.41 438.91 439.21 438.36 436.42 434.81 435.27 435.41 434.92 433.74 432.64 430.41 430.34 430.59 430.55 430.38 431.07 431.12 431.16 430.4 430.45 9999 9999 9999 9999 9999 9999 9999 9999 431.81 431.75 9999 9999 433.24 432.04 431.92 432.02 432.01 436.46 437.83 438.44 439.28 439.84 439.48 440.05 440 440.61 440.05 440.41 439.55 439.77 440.1 440.58 440.05 440.08 440.73 439.88 439.73 440.33 439.18 439 439.33 439.19 439.29 438.74 438.83 438.48 438.63 438.77 438.36 438.9 438.66 438.47 438.63 438.73 438.92 438.94 439.43 438.73 9999 9999 438.82 439.3 439.27 439.4 439.88 439.43 440.22 439.54 439.26 439.79 439.51 439.36 439.57 439.62 439.52 439.62 439.78 439.78 440.12 439.87 440.16 440.3 439.86 440.35 439.85 440.31 440.13 440.55 440.52 441.03 441.17 440.94 441.36 441.17 441.38 441.67 441.83 441.83 442.03 442.14 442.43 442.56 442.89 442.48 443.4 442.99
677.6 678.03 678.39 677.27 677.28 678.1 678.11 678.67 678.64 679.29 679.93 678.61 677.37 676.97 676.26 675.91 674.04 672.66 671.65 670.69 669.91 668.13 667.6 666.73 665.92 664.83 662.11 661.16 659.65 657.19 655.52 653.7 652.38 651.1 649.06 647.61 646.11 644.68 642.28 640.87 638.58 637.49 635.06 632.82 632.17 631.56 629.7 628.14 626.21 623.84 620.5 617.75 615.13 613.44 610.77 609.77 607.87 605.08 603.64 602.7 601 600.25 599.39 599.76 596.27 595.88 596.37 596.47 596.91 597.05 597.28 597.64 595.4 595.48 596.34 597.78 597.51 597.37 597.42 598.61 598.39 598.33 596.5 596.04 594 592.9 592.28 588.75 588.49 586.32 585.76 585.49 583 583.35 583.24 583.49 585.55 585.77 588.49 588.44 590.42 590.38 587.3 586.51 587.41 584.95 583.26 579.34 579.32 576.16 564.69 558.66 550.07 543.51 537.55 530.47 523.2 513.7 508.18 501.58 497.47 492.91 487.92 484.57 480.9 474.78 469.51 466.48 464.44 461.85 459.72 457.97 455.5 453.65 451.17 450.1 448.17 446.73 444.83 444.3 440.85 440.12 439.66 439.49 438.63 436.93 437.2 437.03 437.19 436.49 435.33 432.55 431.02 430.28 430.57 430.37 430.88 431.03 431.44 431.75 431.37 432.1 9999 9999 9999 9999 9999 9999 9999 431.78 431.5 9999 431.58 9999 431.83 431.82 432.14 432.12 434.74 437.91 438.47 439.85 439.83 440.02 440.27 440.36 440.11 440.51 440.67 440.42 440.61 440.31 440.43 440.01 440.52 440.47 440.44 440.26 440.41 440.04 439.26 439.34 439.26 439.11 439.08 438.58 439.52 438.9 438.53 439.27 438.94 438.65 438.25 438.77 438.49 438.82 439.03 440.32 438.23 9999 9999 9999 439.82 439.64 438.83 439.43 439.62 440 439.09 439.3 439.62 439.66 439.52 439.84 439.91 440.31 439.96 440.24 440.24 439.73 439.86 440.04 440.08 439.92 440.26 440.2 440.32 440.27 441.46 440.41 441.08 440.87 441.35 441.42 441.34 441.38 442.14 441.76 442.27 442.12 441.91 442.46 442.74 442.88 442.68 442.69 443.05
679.48 680.71 680.96 680.94 681.45 681.46 681.33 680.87 681.23 682.28 682.21 681.83 680.96 680.04 677.6 676.29 675.08 673.91 672.78 671.67 671.35 670.53 669.27 668.39 667.54 666.56 665.82 664.02 661.68 660.1 657.34 655.48 654.04 653.17 651.77 650.93 648.98 646.07 644.16 642.45 640.91 639.13 637.2 636.08 635.6 632.94 632.01 629.92 628.09 625.21 623.79 620.51 616.58 614.86 612.67 611.57 609.9 608.19 606.85 606.87 603.83 603.32 602.93 602.31 601.32 600.95 601.2 601.5 600.44 600.69 600.79 600.69 599.95 600.01 600.54 600.29 600.64 600.43 600.32 601.06 601.81 601.72 602.09 598.74 597.37 596.25 595.07 595.54 594.78 594.39 590.18 588.91 587.44 587.95 586.04 588.36 588.09 590.89 592.11 593.35 593.92 596.08 598 598.53 602.33 595.21 594.21 592.03 587.96 583.31 579.34 570.56 562.05 550.52 544 536.85 528.94 522.45 515.66 511.15 502.7 497.21 492.44 488.16 483.32 478.22 474.41 471.46 466.31 464.05 462.22 460.45 458.29 456.4 454.51 451.95 449.59 448.07 446.23 444.68 442.52 441.85 440.52 440.32 439.45 437.65 437.52 439.06 439.17 439.97 437.87 436.19 433.38 430.73 430.71 431.05 430.86 431.47 431.39 431.94 432.13 432.25 432.82 432.12 9999 9999 9999 9999 9999 431.77 431.81 431.37 431.52 432.15 431.93 432.36 432.12 432.14 433.18 439.1 438.65 440.11 440.17 440.09 440.69 440.25 439.95 440.41 440.47 440.69 440.68 441.18 440.57 440.68 440.3 440.91 440.68 440.27 440.36 440.3 439.04 439.28 439.16 439.18 439.48 438.73 438.79 439.03 439.06 439.5 439.05 439.13 439.2 438.46 438.99 439.02 439.41 439.93 439.07 9999 9999 9999 439.86 440 439.18 439.6 439.69 439.55 439.85 439.56 439.58 439.73 440.03 439.99 439.53 440.44 439.86 439.7 440.13 440.06 439.74 439.66 440.1 440.4 440.25 439.76 440.4 440.96 440.59 440.62 441.39 440.95 441.39 441.49 441.58 441.29 441.99 441.53 441.88 442.27 442.24 442.48 442.35 442.69 442.53 443.54 443
683.27 684.24 682.6 683.51 683.78 684.04 684.31 684.66 684.7 684.95 683.78 682.9 682.26 681.39 680.88 679.3 677.44 675.48 673.58 673.84 672.32 672.32 671.36 671.59 669.92 668.39 667.52 665.52 664.2 662.37 660.86 659.25 657.53 654.8 654.18 652.77 650.13 648.49 647.23 645.07 643.31 640.52 639.16 637.96 637.76 636.74 634.73 633.15 630.18 628.17 625.46 623.1 620.16 617.49 615.48 612.9 611.48 610.26 608.93 608.51 607.92 607.83 607.45 606.05 605.81 604.24 605.07 604.91 605.49 605.65 605.15 603.88 603.75 603.54 603.93 604.38 605.22 604.9 603.73 604.49 604.1 604.94 604.07 604.05 602.84 602.22 600.09 600.38 599.7 598.31 596.91 595.49 594.43 591.22 591 590.56 591.18 592.85 596.27 597.92 599.2 599.88 601.17 605.34 609.4 611.23 611.01 608.78 596.85 591.74 588.1 580.35 571.16 562.52 553.46 545.49 534.28 526.56 521.99 517.2 510.94 506.43 501.88 492.68 485.85 481.05 477.45 474.03 471.39 468.27 465.99 461.57 460.46 458 456.22 454.54 452.14 449.77 446.91 445.39 443.72 443.29 440.76 440.66 439.64 438.75 438.72 439.78 440.45 440.8 441 440.68 438.74 431.01 431.12 431.84 431.32 431.22 431.99 431.78 432.74 432.42 432.75 433.51 434.96 9999 9999 9999 9999 431.89 431.53 431.52 9999 9999 432.16 431.78 432.51 432.76 433.32 439.01 439.17 440.18 439.87 440.71 439.84 440.46 441.16 440.95 441 440.73 440.81 441.23 441.18 440.7 440.42 440.59 440.65 441.29 441.04 440.51 439.89 439.78 439.42 439.21 439.11 438.69 438.95 438.88 439.25 439.54 439.22 439.44 438.62 439.01 439.18 439.51 439.72 439.83 439.09 9999 9999 9999 440.48 439.78 440.14 439.57 439.42 440.08 439.71 439.57 440.03 440.28 440.1 439.79 440.06 440.26 440.19 439.67 440.41 439.83 439.94 439.88 440.29 439.74 440.15 440.37 440.13 440.67 440.68 440.97 441.22 441.2 441.08 441.3 441.25 441.67 441.71 441.97 442.3 442.12 442.38 442.07 442.74 442.29 442.83 442.91 443.17
685.46 686.23 686.88 687.24 687.86 687.07 686.37 687.47 686.4 687.47 687.01 686.45 684.92 682.58 681.57 679.98 679.24 676.99 675.89 674.92 674.33 673.47 673.6 672.69 672.43 671.46 669.51 668.43 666.82 664.66 663.37 661.67 659.7 658.19 657.04 655.76 652.66 650.76 648.67 647.59 645.84 644.42 642.85 642.14 640.11 638.59 636.45 634.16 632.84 630.52 627.9 624.24 621.82 618.9 616.99 615.17 613.37 612.93 612.93 611.78 611.16 611.08 611.1 610.82 610.38 610.08 608.48 607.62 608.38 608.78 609.21 608.75 608.46 608.7 607.01 607.58 607.71 607.9 607.25 608.15 608.77 606.71 607.14 606.59 606.31 606.36 605.75 605.35 606.31 602.29 601.38 599.91 599.27 598.47 596.99 596.63 596.61 594.82 595.63 598.19 601.28 602.61 605.48 610.28 613.96 616.62 619.51 617.46 614.48 605.86 599.78 593.47 579.92 570.59 561.26 550.65 540.78 533.34 528.15 522.18 516.97 512.78 503.79 495.93 488.73 485.04 480.67 476.9 473.85 470.38 468.17 465.2 463.32 460.79 457.55 456.45 453.2 450.05 448.28 445.91 444.54 443.13 441.81 440.92 440.17 439.66 440.7 442.14 443.1 442.44 442.48 442.5 442.74 439.31 431.82 430.74 430.65 431.38 432.96 435.97 440.24 444.88 445.61 447.7 440.1 9999 9999 9999 9999 9999 431.92 9999 431.62 431.76 432 432.65 432.48 432.25 435.69 439.75 439.95 440.38 440.07 440.61 440.99 440.95 440.94 441.07 440.58 441.47 441.27 441.12 440.69 440.6 440.76 441.63 441.04 440.87 441.56 439.02 439.3 439.5 438.99 438.97 439.08 439.13 438.82 439.37 439.24 439.47 438.94 439.1 439.27 439.14 439.43 439.39 439.75 440.07 438.14 9999 9999 9999 439.78 440.01 439.6 439.76 440.33 439.3 439.78 440.11 439.99 439.5 440.05 440.19 440.16 439.68 440.62 439.97 439.62 440.02 440.05 440.41 440.32 440.16 439.79 439.86 440.26 440.59 441.1 441.09 440.94 441.21 441.17 441.54 441.97 441.69 441.45 441.58 442.09 442.27 442.88 442.63 442.77 442.85 442.9 442.98 443.02
687.99 687.86 688.75 689.2 689.46 689.2 689.15 689.48 689.13 689.15 688.35 687.37 686.16 685.29 683.34 682.7 680.06 678.69 676.92 676.87 675.97 675.91 674.84 674.11 673.66 671.94 671.26 670.21 669.63 667.91 666.23 663.67 662.49 660.96 660.12 657.57 655.82 654.12 651.87 649.74 648.32 646.89 645.21 644.6 642.84 640.85 638.99 636.49 634.24 632.01 629.56 626.86 624.28 623.1 619.42 617.5 616.04 615.68 615.34 615.22 615.4 615.49 614.43 614.44 614.1 613.71 613.17 612.45 613.08 611.91 612.59 612.63 612.27 612.45 611.9 612.71 613.55 611.13 610.7 611.44 611.14 611.79 611.98 611.88 611.83 609.83 609.71 609.64 610.15 610.26 610.53 607.64 603.11 602.43 601.43 600.81 600.77 598.46 597.61 597.1 599.34 602.57 604.92 609.07 613.81 620.82 627.04 628.2 623.79 615.58 608.29 600.45 590.06 579.19 564.18 552.5 544.56 538.66 533.3 528.23 524.39 518.66 509.26 499.78 491.48 487.87 484.19 481.88 479.57 475.83 471.82 468.7 465.74 463.07 459.89 456.28 454.43 450.9 449 446.54 444.89 443.45 442.32 441.12 440.85 441.01 440.68 442.99 445.11 446.09 446.24 448 447.22 446.2 439.8 436.62 438.13 441.79 447.01 449.12 449.21 449.05 448.86 446.13 438.83 9999 9999 9999 431.77 431.65 9999 9999 432.15 431.97 432.79 432.63 432.51 432.7 436.37 439.69 440.68 440.86 440.98 440.74 441.05 440.8 441.12 441.33 441.65 441.43 441.42 440.88 441.44 441 441.36 442.09 441.47 441.28 441.35 439.95 439.32 439.7 439.74 439.08 439.16 439.12 439.81 439.9 439.72 439.21 439.3 439.62 439.21 439.6 439.41 440.09 439.77 440.52 9999 9999 9999 9999 439.13 439.98 439.79 440.17 440.23 440.12 439.93 440.7 441.09 440.23 440.25 440.45 441 440.06 440.45 440.17 440.17 439.49 440.17 440.02 439.92 439.77 439.68 441.29 442.03 441.35 440.74 441.03 441.27 441.03 441.69 441.53 441.6 441.97 442.17 441.92 441.92 442.12 442.66 442.81 443.33 442.51 443.28 443.23 443.24
688.84 689.82 691.53 691.39 691.01 690.65 690.71 690.12 690.11 690 689.87 689.03 687.02 686.2 684.58 683.56 681.82 680.62 679.21 677.32 677.31 676.79 675.79 674.84 674.47 673.09 673.63 671.55 670.84 670.42 668.25 666.74 665.87 663.88 662.51 660.2 657.75 654.93 654.07 652.28 650.94 649.88 647.95 646.32 644.37 642.48 641.34 639.38 637.08 634.7 632.17 628.79 627.18 625.62 624.98 623.85 622.08 619 619.32 618.63 617.55 618.33 618.41 618.62 618.62 617.32 616.8 616.19 615.73 616.55 616.99 616.87 617.59 615.49 616.65 616.27 616.62 616.73 616.12 616.65 614.27 614.46 615.31 615.28 615.37 615.96 615.45 616.21 614.84 614.9 613.93 613.38 611.15 609.9 608.97 604.24 603.68 603.56 601.06 599.46 597.78 598.53 601.62 605.96 610.43 615.11 623.89 630.29 632.54 622.04 612.16 604.44 593.54 579.26 567.99 559.74 552.73 545.36 537.22 531.31 524.25 518.14 510.11 501.23 496.5 491.54 487.3 484.29 482.93 479.8 475.99 471.55 468.64 464.86 460.71 456.9 455.57 452.79 452.09 447.73 445.91 443.69 442.92 441.96 442.08 442.09 442.25 443.55 447.63 448.58 448.36 449.02 448.63 448.74 449.47 446.48 448.04 449.85 450.19 449.25 448.98 448.08 446.76 445.2 440.71 435.07 9999 9999 431.75 431.89 431.52 9999 9999 431.69 432.76 433.14 433.29 433.1 436.81 440.11 440.25 441.55 441.05 440.97 441.09 441.22 441.51 440.96 441.27 441.21 441.68 441.99 441.04 441.46 441.56 441.97 441.6 441.76 441.89 440.4 440.06 439.67 439.44 439.66 439.48 440.29 439.62 440.11 439.81 439.32 439.71 439.78 439.17 439.23 439.08 439.96 440.07 439.13 9999 9999 9999 9999 439.46 440.3 440.12 440.76 440.27 440.81 440.18 440.37 440.29 440.63 440.5 440.55 440.71 440.58 440.61 440.68 440.68 440.25 440.61 441.03 440.19 440.92 442.29 442.11 441.7 441.56 442.46 441.74 441.82 441.68 441.38 441.71 441.65 441.45 441.62 442.01 442.57 442.7 442.84 442.74 442.73 443.35 443.32 443.45 444.5
690.27 690.73 691.5 692.2 691.92 691.52 691.64 691.64 690.82 690.91 690.28 689 687.95 687.31 686.3 684.35 683.52 682 680.79 679.5 678.89 677.28 676.19 675.37 674.52 674.67 674.19 674.04 673.34 672.37 670.2 668.82 667.44 666.91 664.23 662.11 660.56 658.45 655.69 654.09 653.37 652.01 650.92 649.17 647.4 644.83 642.56 640.69 638.97 637.25 634.98 633.34 631.37 628.77 627.99 627.18 625.84 624.97 623.67 622.25 622.93 621.33 620.98 621.59 621.84 622.26 621.25 621.51 620.11 620.09 620.76 621.23 621.58 621.67 621.72 622.54 620.32 620.7 619.89 619.79 620.39 620.33 620.38 618.81 619.11 619.74 620.24 620.25 621.32 621.32 623.03 619.71 617.17 615.42 614.55 612.48 610.17 609.56 604.73 603.16 599.95 598.77 599.59 602.57 607.41 612.31 619.03 623.58 624.29 621.58 614.31 606.29 591.67 581.39 572.39 565.44 557.55 549.63 543.64 531.56 522.03 516.89 508.85 502.7 497.85 495.62 491.58 490.37 485.23 483.04 480.2 475.34 470.92 466.35 462.23 460.32 456.25 453.53 451.61 449.1 446.55 444.73 444.12 442.64 442.6 442.64 443.37 444.41 447.49 449.11 449.17 448.75 448.8 449.2 449.36 450.03 450.71 449.41 450.24 449.49 448.62 448.57 447.35 445.41 442.3 435.2 9999 9999 431.8 432.46 9999 9999 9999 9999 432.07 432.97 432.93 432.74 436.15 440.02 440.58 440.88 441.61 441.67 441.21 440.84 442.13 441.27 441.53 441.65 441.41 441.92 442 442.22 441.6 441.77 441.65 442.02 442.12 439.78 439.79 439.7 439.51 439.35 439.55 439.92 439.4 440.32 439.63 439.96 440.24 439.31 439.79 439.55 440.25 440.65 440.49 438.25 9999 9999 9999 9999 9999 438 438.52 438.83 439.87 440.55 439.9 439.61 439.18 439.24 439.88 440.3 440.97 440.9 440.34 440.67 441.33 440.81 440.9 440.94 441.1 441.66 441.88 441.85 441.89 441.74 442.07 441.93 441.51 441.5 441.69 441.3 441.95 442.26 442.29 442.34 443 442.85 442.97 443.06 442.74 443.46 443.51 443.74 443.83
690.88 691.61 691.8 692.12 692.39 691.83 691.63 690.98 691.24 691.49 690.63 689.29 688.82 688.14 686.37 685.6 684.88 684.07 681.88 681.01 679.36 677.57 676.21 675.7 675.72 676.03 675.38 675.18 674.61 673.98 672.55 671.51 670.43 667.64 665.81 663.9 662 659.9 658.52 657.11 656.29 653.81 652.59 651.28 649.1 646.63 645.22 642.99 641.57 638.44 636.73 636.3 634.48 634.11 633.08 631.84 629.13 627.68 627.72 626.72 625.77 625.06 625.78 625.92 624.9 624.61 624.47 624.97 624.78 625.21 625.73 624.3 624.97 624.97 626.09 626.29 626.37 626.42 626.26 624.09 624.35 624.62 624.23 624.99 625.44 625.93 626.49 625.6 625.55 626.63 627.41 626.41 625.9 624.44 619.2 616.65 614.95 612.92 610.68 609.48 606.3 602.64 599.81 601.67 606.52 609.26 611.31 614.27 616.11 617.52 613.24 602.1 592.55 585.67 579.9 572.7 562.82 553.35 542.25 530.34 521.22 516.25 511.69 507.01 502.32 499.63 498.7 494.86 489.72 486.42 482.73 477.48 471.2 468.39 464.37 462.08 457.56 455.3 452.66 449.41 447.26 446.01 443.67 443.92 444.77 444.07 443.98 444.48 445.47 447.12 446.79 447.27 448.22 448.54 449.43 450.2 450.15 450.05 449.14 449.12 448.61 447.61 447.04 446.15 444.01 436.63 9999 9999 9999 9999 9999 9999 432.06 9999 432.71 432.81 432.83 432.83 436.53 440.85 440.7 440.9 441.06 441.15 441.62 441.57 441.79 441.74 441.92 442 442.15 441.7 442.01 442.45 442.45 442.4 442.03 442.42 441.91 439.29 439.36 439.81 440.08 439.63 440.01 439.8 439.74 439.89 439.63 439.6 439.99 439.87 440.25 439.58 440.64 441.2 439.64 9999 9999 9999 9999 9999 9999 9999 9999 438.03 438.73 439.67 440.34 438.66 439.23 439.05 438.36 440.64 441.1 440.9 440.92 440.94 441.37 441.17 441.65 441.36 441.38 441.67 441.78 442.12 442.12 441.88 441.99 442.3 441.97 442.38 441.73 441.66 441.87 441.73 443.09 442.48 442.82 442.91 442.53 443.43 443.97 443.65 443.39 444.86 444.04
691 691.61 691.89 692.4 691.62 691.74 691.33 690.98 691.01 690.68 690.14 689.06 688.23 687 686.71 685.84 685.02 684.49 683.62 682.21 680.27 678.69 677.32 677.18 676.65 676.76 676.71 676.79 676.48 674.83 673.31 673.24 671.55 670.43 668.16 665.6 663.38 661.93 660.82 659.44 658.36 656.6 655.3 654.33 651.12 648.27 647 644.76 643.18 642.39 641.21 640.05 637.91 637.45 635.44 634.06 633.36 633.03 632.27 629.67 629.24 628.34 629.03 629.12 629.43 629.23 629.85 627.92 628.38 628.4 629.24 630.58 629.9 630.87 631.66 629.71 629.97 629.65 630.37 630.69 630.87 630.71 628.62 629.08 629.61 629.94 630.71 631.02 632.05 634.05 632.23 631.25 628.74 628.94 628.34 626.51 621.1 616.63 614.71 613.47 610.67 607.47 604.6 604.72 606.09 608.25 608.43 609.12 610.38 610.39 606.36 600.48 594.04 588.12 581.51 572.83 559.94 550.14 539.04 530.56 523.7 519.32 514.49 510.08 507.28 505.33 503.54 499.04 493.51 488.92 483.05 478.97 475.54 471.81 466.41 462.19 459.21 456.84 453.98 451.42 449.08 447.21 445.43 444.73 444.75 444.72 445.15 445.3 445.28 446.12 446.67 447.52 447.82 448.46 449 450.64 450.6 449.98 449.81 448.72 448.52 447.52 446.63 444.88 442.81 432.28 9999 9999 9999 9999 9999 9999 432.17 432.33 432.95 433.05 433.4 433.79 434.4 440.25 440.98 441.76 441.3 441.08 441.77 441.57 442.31 441.45 442.03 441.47 441.92 442.41 442.03 442.67 442.39 442.41 442.58 442.45 442.05 440.07 440.22 440.25 439.73 439.67 439.75 440.23 439.99 440.01 440.15 439.87 439.98 440.12 439.85 440.5 441.08 440.92 438.5 9999 9999 9999 9999 9999 9999 9999 9999 9999 9999 438.56 437.66 438.08 438.27 438.22 438.87 440.15 441.65 441.62 441.7 441.23 441.83 441.93 442.09 442.11 442.31 442.55 442.46 442.68 441.66 442.45 442.52 442.27 442.94 442.51 443.08 442.51 441.87 442.14 442.74 443.18 443.23 443.7 443.52 443.87 444.17 443.97 444.33 443.93 445.01
691.12 691.04 691.23 691.43 690.51 690.51 689.69 690.41 690.21 689.65 689.43 688.2 687.5 686.71 686.01 685.85 685 684.37 684.15 682.18 681.67 680.12 679.35 679.22 678.15 678.57 678.98 678.53 677.01 676.5 676.1 674.91 673.79 671 668.79 666.92 665.36 663.75 662.55 661.28 658.78 657.79 656.4 655.5 652.97 651.22 649.03 647.42 645.58 644.66 643.28 642.92 641.07 640.03 639.31 637.51 636.2 634.88 635.2 634.4 633.63 633.41 633.55 632.27 632.08 631.69 632.46 633.06 633.9 633.98 633.09 633.02 633.59 634.25 635.71 636.07 635.42 635.59 633.86 635.17 634.77 634.75 634.4 634.81 634.91 633.51 634.52 634.47 636.49 638.16 638.67 638.45 638.84 634.23 633.35 629.99 626.36 624.17 621.28 619.43 614.63 610.5 607.8 606.65 606.2 606.44 605.74 605.52 606.74 606.04 604.13 600.08 595.43 589.64 581.65 569.29 558.58 548.12 538.58 531.95 527.63 522.94 520.56 514.4 511.25 508.23 505.9 503.03 497.81 489.75 485.51 480.9 476.73 474.21 469.97 464.81 461.12 457.94 455.19 452.03 450.17 448.45 447.36 446.32 445.69 445.32 446.04 445.91 447.06 445.88 447.01 447.33 448.28 448.26 449.5 450.72 448.88 450.01 449.68 448.98 447.64 447.72 445.81 442.97 436.04 431.69 9999 9999 9999 9999 9999 9999 432.27 432.23 432.36 432.89 432.64 433.49 435.46 440.64 441 441.65 440.98 441.16 441.87 441.42 442.06 442.12 442.45 442.43 441.96 442.54 442.3 442.61 442.11 442.43 442.71 442.96 442.12 440.2 440.31 440.55 440.46 440.04 440.29 440.23 439.91 440.09 440.14 440.4 440.5 440.25 440.52 441.09 440.88 440.7 437.95 9999 9999 9999 9999 9999 9999 9999 9999 9999 9999 9999 9999 9999 439.16 438.35 438.85 440.52 441.65 442.25 441.6 442.58 442.16 442.86 442.6 442.66 442.78 442.85 442.65 442.86 442.7 442.52 442.86 442.46 443.16 443.01 443.4 443.84 443.77 443.05 442.44 443.55 444.27 444.55 445.51 444.95 445.57 445.3 445.68 445.48 446.09
689.34 690.29 690.35 690.19 689.56 689.36 689.1 688.7 688.68 687.7 686.94 686.53 686.21 685.64 685.78 685.03 684.72 684.56 683.78 682.83 682.42 681.09 680.2 679.59 679.59 679.2 679.34 679.5 678.29 677.97 677.3 675.24 674.5 672.49 670.21 667.94 666.16 664.75 662.65 660.92 660.39 658.43 658.37 656.21 654.5 652.56 651.28 650.44 648.76 647.66 646.74 644.94 643.74 642.72 641.75 641.3 640.58 639.79 637.82 637.43 636.14 636.35 636.03 635.88 636.71 637.27 635.64 636.86 637.11 637.6 637.87 638.49 638.95 638.07 638.94 639.28 639.69 639.43 639.42 640.56 640.8 639.52 639.45 639.26 638.95 640.26 640.5 641.05 640.43 641.77 642.18 642.42 643.7 640.4 638.45 636.56 630.77 629.17 627.01 624.1 618.96 614.91 612.4 608.92 607.1 606.52 604.45 604.13 602.83 601.3 599.61 597.96 593.35 588.93 577.36 566.66 555.68 546.69 540.04 535.5 530.37 527.49 525.9 521.98 518.44 513.46 508.23 504.51 498.59 492.97 488.33 484.09 480.17 475.6 471.92 465.82 461.56 458.64 455.74 453.72 451.22 449.49 447.68 446.96 446.69 446.83 446.58 447.05 445.95 446.9 447 447.99 447.67 448.95 449.86 451.28 449.92 450.59 450.25 448.94 447.61 445.97 443.02 437.41 432.76 9999 9999 9999 9999 9999 9999 9999 432.31 432.44 433.17 433.29 433.39 433.2 435.07 440.89 440.97 441.38 441.36 441.57 442.18 441.94 442.62 442.43 442.85 442.71 442.67 442.46 442.87 443.3 442.63 442.78 442.49 443.03 442.79 440.6 440.65 441.06 440.84 440.6 440.71 439.83 440.68 440.19 440.49 440.61 440.59 440.63 440.53 440.87 441.04 441.32 439.81 9999 9999 9999 9999 9999 9999 9999 9999 9999 9999 9999 9999 9999 9999 438.61 439.09 441.01 442.38 442.12 442.3 442.51 442.95 443.13 443.9 443.08 443.98 444.71 443.67 443.87 443.36 444.21 444.05 444.36 444.45 444.78 444.39 444.47 443.97 445.73 445.11 447.13 449.47 447.78 448.95 448.16 447.98 449.86 448.78 449.96 448.53
688.62 689.35 688.8 688.26 688.37 687.41 686.42 685.98 686.86 686.15 685.23 684.27 684.77 683.77 683.63 684.1 684.32 683.75 683.31 682.81 682.98 681.94 681.33 680.51 680.2 680.3 679.99 679.37 679.62 678.9 678.38 676.75 674.32 672.76 670.37 668.49 667.62 665.15 663.7 661.96 661.13 660.13 659.2 657.35 656.98 656.33 653.37 651.84 651 650.66 648.36 647.85 646.84 645.86 644.31 643.93 643.39 642.43 641.73 640.83 640.37 639.27 638.42 638.71 638.92 640 640.78 641.31 641.38 640.63 641.43 642.36 643.48 644.52 645.32 645.83 643.43 644.13 644.24 645.02 645.67 645.49 646.66 645.8 643.69 644.36 644.34 645.03 645.56 646.79 647.75 648.27 647.21 645.03 641.95 639.94 637.91 636.94 634.13 625.06 620.91 617.89 614.13 611.61 608.61 606.13 603.2 602.1 600.52 599.24 596.93 593.63 589.19 581.87 574.61 564.8 555.26 546.46 541.39 537.25 535.25 534.79 530.94 528.47 522.98 517.41 511.7 506.53 501.19 495.87 489.07 484.84 481.56 477.85 471.97 468 463.85 460.11 456.72 454.16 451.69 449.97 449.55 448.04 447.94 447.31 447.94 447.47 447.52 447.96 447.47 447.39 447.87 448.67 450.4 450.38 451.16 450.4 449.78 448.51 446.82 442.36 437.86 433.42 432.9 9999 9999 9999 9999 432.28 9999 9999 9999 433.1 432.99 433.42 433.96 433.53 435.11 441.23 441.64 441.02 441.44 441.75 442.22 442.1 442.66 442.34 442.63 442.6 441.78 442.6 443 442.91 443.04 443.42 442.62 443.34 442.88 441.01 440.93 440.85 440.6 440.65 440.34 440.46 440.88 440.32 440.61 440.97 441.18 441.37 441.26 441.09 441.4 441.06 440.53 9999 9999 9999 9999 9999 9999 9999 9999 9999 9999 9999 9999 9999 438.73 439.4 440.05 441.08 442.52 443.21 444.52 444.48 445.07 446.59 446.32 446.24 446.81 448.54 448.65 449.66 450.62 446.6 446.53 447.2 446.95 447.37 449.12 450.01 451.66 448.79 451.69 453.85 455.44 454.58 455.75 454.8 451.94 453.78 455.8 454.89 452.99
686.69 687.59 687.32 687.06 686.6 685.71 684.15 684.29 683.99 683.42 682.71 683.04 682.74 682.6 682.87 682.74 682.87 683.06 683.28 683.26 682.5 682.67 681.91 681.5 680.79 680.52 680.18 679.71 679.56 679.35 678.25 677.24 675.7 673.46 671.96 669.23 667.45 665.89 664.28 663.51 661.87 660.96 660.01 658.93 658.57 657.6 657.31 655.58 654.39 651.79 651 649.64 648.88 648.22 647.76 646.97 646.63 644.73 644.45 643.99 643.43 643.23 642.81 643.23 641.53 643.07 643.59 643.9 645.11 646.03 647.42 647.92 647.32 648.18 649.03 649.4 650.08 650.66 650.78 651.37 649.43 649.83 650.87 649.77 650.33 650.3 650.86 648.76 649.14 650.07 650.67 651.71 651.69 650.74 647.61 642.82 642.17 641.74 637.86 630.38 625.05 621.99 616.7 613.44 610.22 606.15 603.05 601.1 598.21 595.63 594.49 591.04 585.23 577.84 569.11 560.85 553.34 546.74 542.53 538.18 538.16 537.8 535.63 531.46 526.62 519.71 513.52 508.43 503.6 497.85 493.25 488.29 480.75 477.64 473.7 469.86 465.33 461.64 458.79 454.67 452.05 451.32 449.63 449.53 448.81 448.66 448.09 448.04 447.95 448.01 448.15 448.15 448.89 449.42 450.99 452.02 450.89 451.79 451.4 446.69 439.27 435.17 434.39 433.32 431.63 9999 9999 9999 9999 432.66 9999 9999 9999 433.22 433.65 433.91 433.6 433.51 435.16 440.69 442.09 441.21 441.69 441.97 441.82 441.99 442.72 442.71 443.12 442.89 442.79 442.75 443.47 442.58 443.42 443.85 443.55 443.4 442.3 440.96 440.72 440.87 440.99 441.03 441.24 440.9 441.09 440.67 440.73 441.02 440.94 441.37 441.11 441.35 441.2 441.29 441.68 439.77 9999 9999 9999 9999 9999 9999 9999 9999 9999 439.88 441.62 440.44 441.03 441.76 443.72 444.35 445.1 447.77 448.88 447.46 448.27 449.63 452.58 454.59 458.23 456.9 457.7 459.08 458.8 458.41 456.14 456.12 450.62 452.24 455.93 457.54 460.52 463.15 464.71 462.97 461.9 460.55 460.64 460.07 460.25 459.49 458.8 458.67 456.25
685.93 686.02 685.68 684.81 682.95 681.8 681.06 680.88 680.73 680.79 680.58 680.19 679.93 680.39 681.29 681.61 681.91 682.39 682.86 682.58 681.82 681.62 681.53 680.92 680.63 680.22 680.02 680.07 680.21 680.15 679.21 678.03 676.34 674.92 673.11 669.87 669.35 667.25 665.18 663.82 662.8 662.09 661.46 661.27 660.4 660.01 658.68 658.11 656.86 655.34 654.52 653.02 650.63 650.41 650.33 649.74 648.77 648.18 647.64 647.09 645.72 645.87 645.93 646.59 646.15 647.04 647.36 648.37 647.93 649.52 650.07 651.59 652.46 653.44 654.61 653.52 654.53 654.31 654.55 654.87 655.46 656.1 656.67 654.31 654.87 654.25 654.13 654.92 654.9 654.52 653.95 653.98 654.09 653.44 649.64 647.78 645.71 642.11 638.13 632.02 627.54 624.55 619.64 615.69 610.26 606.75 603.42 600.27 596.88 594.14 590.59 584.73 580.15 574.63 567.09 559.08 552.42 545.25 541.93 540.06 539.22 539.74 537.24 533.22 527.86 522.44 515.99 510.69 504.94 499.81 494.18 488.27 481.59 478.51 474.35 470.6 466.34 462.47 458.24 455.7 453.86 451.61 451.01 450.69 449.66 449.93 449.13 448.96 448.93 449.16 448.67 448.93 449.24 450.14 449.38 450.81 450.94 449.92 447.93 442.71 435.47 434.6 433.37 432.95 433.12 432.29 9999 9999 9999 9999 9999 9999 433.4 433.24 433.75 434.24 434.05 433.94 435.81 439.87 441.23 441.76 442 442.43 442.25 442.55 442.74 442.66 442.7 442.94 443.27 443.09 443.3 442.66 443.31 443.75 443.74 443.94 442.23 440.83 441.37 441.93 441.54 441.8 441.11 440.99 441.03 441.35 442.06 441.39 441.25 441.4 441.2 441.12 441.89 442 442.29 440.13 9999 9999 9999 9999 9999 9999 9999 440.28 440.72 442.37 442.54 442.94 445.33 445.67 446.02 448.76 449.87 456.73 456.43 457.09 458.7 454.37 456.83 462.33 468.09 468.73 472.25 473.85 469.59 468.51 467.81 464.95 463.87 463.34 467.29 468.75 467.13 470.04 469.95 467.12 466.67 464.94 464.5 463.44 463.14 463.39 462.39 460.85 461.06
683.69 683.75 683.68 681.58 680.36 678.93 677.73 677.04 677.57 677.8 678.32 678.35 678.68 678.42 678.47 679.12 679.61 680.01 680.91 681.32 680.45 680.83 680.39 680.34 680.48 680.07 679.76 680.27 680.01 680.11 679.99 678.84 677.01 675.47 672.34 671 669.57 668.3 666.79 665.76 664.3 663.39 662.38 662.5 661.85 661.64 660.92 659.7 658.56 657.67 656.59 654.89 654.71 654.17 653.38 652.84 651.09 650.87 650.12 649.86 650.17 649.4 649.67 648.68 649.8 650.43 650.19 652.28 652.85 654.17 655.59 654.9 656.52 656.96 658.08 658.98 659.18 660.19 658.65 659.23 659.24 660.17 660.33 660.58 660.87 660.17 658.42 658.48 657.77 657.94 658.22 657.85 658.2 655.14 652.42 650.22 646.95 643.76 639.08 634.54 630.72 625.8 619.36 615.32 611.7 607.52 603.55 599.93 596.6 592.04 587.46 583.53 577.45 570.67 564.21 557.86 548.8 543.67 540.51 539.09 539.64 541 538.62 533.64 528.13 523.34 518.42 512.46 505.85 501.38 494.19 489.15 483.15 479.3 475.39 472.36 468.26 461.77 458.72 455.84 453.7 452.4 451.97 451.74 451.62 451.26 450.52 449.42 449.14 449.36 449.18 449.05 450.06 450.44 450.24 450.77 451.1 449.73 446.48 441.74 435.39 433.98 433.41 433.13 432.47 432.26 432.72 432.75 9999 9999 9999 9999 432.44 433.71 433.69 434.31 434.2 434.17 437.51 440.91 440.43 441.16 441.64 442.43 442.58 442.78 442.18 442.96 443 443.92 443.33 442.57 443.18 443.15 443.64 443.68 444.07 444.76 442.16 441.4 441.61 441.76 441.77 441.19 441.57 441.38 441.68 441.8 440.94 441.82 441.87 442.09 441.53 441.61 442.24 442.8 441.96 440.89 9999 9999 9999 9999 9999 9999 440.89 442.52 443.16 442.23 443.93 445.74 446.96 449.13 451.4 456.2 461.09 462.9 465.18 466.38 468.78 468.43 469.12 474.27 474.98 475.4 476.88 478.38 479.02 478.61 478.28 474.47 474.34 472.65 473.52 471.59 473.6 473.29 470.13 468.65 466.97 465.81 466.84 465.95 465.96 466.39 464.66 463.1 462.01
681.33 681.12 680.09 678 675.65 675.2 673.77 674.03 674.51 674.61 675.47 675.34 674.74 676.91 677.36 677.64 678.54 678.12 678.87 679.15 680.39 680.03 679.95 680.21 680.39 679.8 680.73 680.25 680.5 680.78 680.02 679.34 677.19 675.59 673.58 672.33 670.48 668.8 668.39 666.19 665.22 664.99 664.66 664.45 663.52 663.12 662.08 661.99 660.88 660.64 659.84 658.35 656.98 656.8 655.38 655.48 654.99 654.61 654.59 652.44 652.06 653.32 653.08 653.27 653.54 654.54 653.66 655.22 656.29 657.41 659.41 659.88 660.81 662.54 662.27 662.32 663.33 664.14 664.85 665.06 665.23 665.8 663.85 664.55 664.3 665.07 663.91 663.54 662.8 661.03 660.61 660.41 660.36 659.94 656.97 654.83 651.38 645.16 640.42 636.47 631.35 625.13 620.64 615.96 611.72 608.07 602.72 599.74 593.87 589.69 585.79 580.72 577.79 571.12 563.82 553.92 547.73 541.74 538.77 536.82 536.99 537.53 536.07 532.58 527.92 523.26 518.05 513.14 506.86 500.28 495.04 489.4 484.27 479.32 475.86 471.68 467.4 462.39 459.59 457.66 455.28 453.29 453.46 452.56 452.44 451.9 451.58 451.26 451.25 449.45 449.61 449.76 450.29 450.32 450.5 451.34 450.77 449.45 446.41 441.5 435.84 434.66 434.22 433.23 432.92 432.78 432.55 9999 9999 9999 9999 9999 432.96 433.17 433.45 434.88 434.45 434.53 435.95 441.04 440.23 440.54 441.5 441.38 441.79 441.4 441.62 442.59 442.87 443.9 443.24 443.6 443.45 444.06 443.94 443.65 444.09 443.97 442.82 441.62 442.08 441.97 441.73 441.69 442.11 441.6 441.84 442.82 442.02 441.76 442.12 441.41 441.92 441.81 442.21 442.98 442.01 441.36 437.83 9999 9999 9999 9999 438.81 441 441.89 443.59 446.39 448.11 448.72 449.52 452.5 456.06 458.61 461.95 464.44 467.23 470.35 473.74 476.14 475.89 476.35 479.34 480.47 481.92 482.21 483.31 482.79 480.53 480.18 479.77 479.59 477.43 474.76 473.95 473.82 472.45 470.03 469.49 470.11 467.82 468.09 467.94 467.78 466.87 465.89 463.35
676.49 677.79 677.35 674.71 671.87 670.46 669.5 669.46 670.3 672.36 672.8 672.61 673.05 673.23 674.33 674.97 676.61 677.17 676.92 678.71 678.96 679.88 680.12 680.17 680.23 680.31 680.43 680.64 681.21 680.52 680.16 679.49 678.01 676.22 674.22 673.18 671.5 670.6 669.09 667.23 666.87 666.17 666.52 666.16 665.54 665.39 664.47 663.26 662.71 662.69 662.27 661.52 661.46 661.04 659 658.13 658.33 657.54 657.59 657.04 656.93 656.91 655.59 655.9 657.01 657.57 658.5 659.71 660.97 662.18 661.54 663.47 664.87 666.34 667.59 667.74 668.94 667.74 668.52 668.29 669.3 669.51 669.47 669.68 669.39 667.86 667.1 666.44 665.54 664.59 664.22 663.2 662.62 660.48 657.97 654.62 650.94 646.64 643.08 638.22 630.91 625.14 619.54 616.52 611.28 606.28 601.38 595.76 592.21 588.07 583.49 578.63 573.92 568.7 560.07 554.32 549.11 542.26 537.34 533.45 531.9 531.31 533.11 530.97 526.02 520.96 516.91 511.37 505.5 500.84 495.13 490.35 485.74 481.09 475.39 472.05 468.13 463.48 461.17 458.32 455.92 454.66 454.17 454.07 453 453.13 452.51 451.94 451.41 450.92 450.6 450.44 450.44 450.73 450.17 450.99 450.08 449.37 447.36 443.03 437.28 435.61 434.77 433.6 433.95 433.35 9999 9999 9999 9999 432.67 9999 433.65 434.13 432.89 434.43 435.03 434.14 434.79 439.65 441.29 441.9 441.06 441.48 441.55 441.47 441.52 442.58 443.33 443.4 444.1 443.48 443.54 444.31 444.07 443.97 444.43 444.45 442.8 442.28 442.03 442.32 442.11 442.33 441.79 442.03 442.46 442.5 442.57 441.82 441.84 442.08 442.04 442.36 442.57 442.96 443.01 440.48 439.42 9999 9999 9999 9999 437.25 440.15 442.51 445.81 447.5 450.31 452.19 453.85 457.13 458.1 458.87 462.03 466.41 467.72 474.32 475.6 476.65 477.78 481.01 486.72 486.21 486.54 487.76 488.26 486.36 484.52 483.02 481.31 480.4 477.79 479.11 478.36 475.86 474.7 472.63 472.03 471.52 471.41 471.66 471.62 470.75 469.32 467.46 464.89
674.18 673.05 672.26 668.99 669.09 667.44 667.11 667.18 667.49 668.78 670.67 671.47 671.8 672.14 672.57 672.77 674.48 675.39 675.91 677.55 678.27 679.13 679.75 680.65 680.52 681.53 681.02 681.29 681.1 681.66 680.49 679.84 678.53 677.45 675.85 674.08 672.58 670.99 669.87 669.57 669.1 668.6 667.61 667.34 666.91 667 666.21 665.84 664.89 665.02 663.17 663.5 662.72 663.78 663.17 662.98 662.54 661.79 660.19 659.65 659.41 660.23 659.8 660.34 661.52 660.85 661.22 662.49 663.52 665.08 666.09 668.83 670.5 669.88 670.72 671.8 672.74 673.1 673.74 674 672.94 672.78 672.52 672.69 672.12 672.67 671.84 671.29 668.5 666.71 666.03 665.15 663.03 661 657.69 653.53 650.53 647.84 643 635.9 629.3 624.95 620.26 615.25 610.43 604.61 597.7 592.56 587.43 582.58 579.18 574.83 570.43 564.2 560.03 555.1 548.55 540.88 536.56 531.08 528.19 527.23 526.05 524.72 521.5 518.69 512.72 507.82 503.82 499.57 494.57 489.52 484.73 479.51 475.37 472.57 468.41 464.43 462.05 458.68 456.72 456.25 455.25 454.57 454.3 454.14 453.45 453.17 451.45 451.48 451.3 450.94 450.29 450.03 449.7 450.08 449.46 448.95 447.16 443.8 438.45 436.19 435.17 434.8 434.57 433.26 9999 9999 9999 433.15 432.44 9999 433.79 433.94 434.28 433.87 434.52 435.14 434.5 439.28 441.13 440.96 441.35 441.23 441.64 441.99 442.32 442.03 443.09 443.9 443.5 443.9 444.21 443.95 444.69 444.46 443.52 444.46 443.66 442.44 442.27 442.32 442.44 442.55 442.36 442.36 442.98 442.5 442.36 442.03 442.85 442.25 442.84 442.17 442.11 442.1 443.43 440 9999 9999 9999 9999 9999 9999 440.33 443.83 447.49 449.65 452.02 452.84 455.41 457.7 459.79 460.95 463.65 466.75 470.39 473.17 475.3 476.34 478.64 486.14 489.96 488.02 487.87 488.66 490.63 488.64 487.5 484.83 484.11 482.1 479.91 483.16 480.16 477.12 476.49 475.29 474.91 473.98 474.49 474.16 473.84 472.4 471.69 470.39 466.61
671.13 669.63 667.64 665.54 664.52 664.53 664.55 666.05 666.8 668.29 668.97 670.38 670.63 670.31 670.98 672.43 673.26 674.8 675.62 677.33 677.91 679.5 680.78 680.94 681.71 681.06 681.73 682.22 681.63 681.88 681.35 680.74 679.49 677.64 676.72 675.31 673.56 672.13 671.48 670.38 670.06 670.01 670.17 669.79 669.86 668.9 667.94 667.22 666.37 666.71 666.05 666.31 666.94 665.51 666.51 665.98 665.9 665.34 664.21 663.33 663.36 662.33 663.27 664.2 664.8 665.36 665.55 666.94 666.49 667.32 669.53 671.5 672.98 674.74 675.25 677.01 675.84 676.55 677.21 677.25 677.99 678 678 676.2 675.32 674.85 674.41 673.77 672.69 670.05 667.46 665.48 662.81 660.33 657.41 652.49 649.65 645.73 639.71 634.88 628.69 623.48 619.15 613.8 606.65 599.68 595.59 590.57 584.71 578.36 573.79 566.34 563.25 557.73 557.08 552.27 546.05 537.89 531.39 527.18 523.69 523.91 522.77 520.38 517.09 510.72 508.28 503.65 499.2 497.1 492.94 488.09 483.03 479.21 475.52 471.06 468.24 464.35 462.25 459.77 457.83 457.16 456.9 456.06 454.94 454.76 453.52 453.09 452.92 452.32 452.15 451.43 450.43 450 449.88 449.14 448.71 447.26 446.25 443.39 437.55 437.18 436.31 434.64 434.92 433.54 9999 9999 9999 433.09 433.33 9999 432.13 434.63 434.22 433.74 433.75 434.63 434.85 435.53 440.34 440.92 440.9 441.38 442.32 442.15 442.11 442.47 442.88 443.16 443.52 443.59 443.87 443.95 444.44 444.06 444.3 445.26 444.46 443.13 442.94 443.03 442.71 442.65 442.59 443.1 442.79 442.86 442.44 442.67 442.17 442.46 442.95 442.19 441.7 441.21 440.86 438.99 9999 9999 9999 9999 9999 438.87 442.46 446.12 448.55 450.54 452.41 455.22 456.68 459.89 460.44 462.8 464.64 468.51 471.46 474.12 475.74 477.28 480.39 484.73 485.74 487.49 489.31 487.34 486.42 486.58 486.22 484.54 483.31 481.78 480.46 478.86 479.74 477.62 477.29 477.37 475.88 476.39 476.3 476.04 475.4 473.8 473.24 471.31 468.51
666.88 664.94 664.14 664.47 663.92 664.19 664.51 665.45 667.07 668.46 669.83 669.76 669.91 670.51 671.02 671.83 673.07 674.47 675.58 676.98 677.78 679.62 681.41 682.24 682.46 683.16 682.78 682.66 682.84 682.84 682.21 681.47 680.31 678.86 676.99 675.39 674.18 673.47 672.8 672.38 671.9 671.59 671.49 671.37 671.8 671.01 670.94 669.95 669.65 668.67 668.75 668.36 668.68 669.06 669.84 670.35 668.33 668.83 667.46 667.03 666.9 667.79 668.01 667.92 668.26 668.29 668.33 670.23 670.82 672.59 674.2 674.37 675.79 677.66 679.28 680.28 680.91 681.64 682.34 681.04 681.19 681.11 681.34 681.29 680.68 679.79 678.34 675.91 674.18 671.66 668.04 665.72 663.3 659.25 656.27 651.8 648.36 643.26 639.25 633.17 626.77 622.15 616.99 609.44 603.95 598.04 591.95 585.94 580.03 576.26 568.16 563.58 559.24 554.14 549.86 545.41 540.4 533.37 529.77 524.92 521.34 519.63 518.06 515.25 512.56 508.45 504.67 500.69 496.95 492.29 489.23 485.42 481.65 478.18 475.37 471.1 467.85 465.35 462.79 460.25 458.57 458.58 457.79 456.98 456.07 455.34 455.26 453.76 453.74 452.58 452.15 451.26 450.2 449.18 448.84 448.09 447.5 445.8 440.07 438.91 438.67 437.59 436.99 436.44 434.67 433.77 433.92 9999 9999 433.12 433.52 433.2 432.48 433.43 434.05 434.78 434.32 434.3 434.71 435.14 439 441.04 442.22 441.44 441.88 442.5 442.6 442.68 442.58 443.6 443.76 443.66 443.84 444.02 444.5 444.94 444.7 445.61 444.43 443.85 443.18 442.92 443.1 443.34 443.48 443.39 443.24 442.71 442.72 442.1 443.03 442.59 442.8 443.34 441.65 440.67 440.51 439.61 9999 9999 9999 9999 9999 439.49 442.54 446.71 449.82 452.66 454.16 456.6 459.03 460.28 461.88 463.92 466.71 468.25 471.2 474.13 475.1 477.04 478.94 482.48 485.1 485.58 486.69 485.95 484.18 482.91 483.07 481.13 481.81 480.54 479.88 479.78 477.25 476.72 476.33 476.44 476.71 478.03 476.75 477.57 476.81 475.87 473.21 472.55 469.73
664.35 663.49 663.43 663.46 663.79 664.17 664.83 666.03 667.83 668.96 669.16 669.7 670.06 670.09 671 671.22 672.05 673.6 675.56 677.12 679.27 680.57 681.19 682.55 683.45 684.03 683.86 683.71 683.31 683.23 682.21 681.7 680.85 679.51 677.34 676.17 675.02 673.89 673.19 673.11 673.17 673.17 673.56 674.1 673.31 672.54 672.52 671.86 671.55 672.17 672.45 672.06 670.75 671.15 671.24 672.12 672.7 673.37 673.52 670.44 670.18 670.77 671.17 671.92 672.53 673.01 672.62 672.55 674.01 676.1 677.37 679.05 680.51 682.13 683.38 683.63 684.14 684.87 684.73 685.17 685.44 686.21 683.71 683.74 682.84 681.9 680.42 677.45 674.84 671.69 668.82 666.03 662.82 658.14 654.26 650.19 645.79 641.39 636.19 630.59 624.8 620.03 611.28 605.25 600.34 594.85 589.1 583.19 577.02 569.02 564.14 559.1 556.19 551.17 546.17 542.62 535.26 530.42 525.9 522.49 519.67 516.1 514.28 511.46 508.33 504.15 500.2 497.42 493.92 490.61 487.27 483.76 479.88 476.65 472.96 470.68 468.24 465.6 463.1 461.57 460.39 459.54 458.3 457.38 456.32 455.98 456.37 455.35 454.37 453.18 451.85 450.25 448.91 446.86 444.96 443.01 442.32 440.94 439.11 438.1 438.63 437.21 436.13 436.45 435.2 433.94 9999 9999 9999 9999 433.57 433.46 433.1 433.46 433.12 434.19 434.85 434.57 434.98 435.31 436.07 440.71 442.64 441.87 442.19 442.37 442.35 442.59 442.9 443.03 443.89 444.53 443.92 444.37 444.2 445.16 445.27 446.07 444.87 443.87 443.45 443.57 443.43 443.55 443.62 443.81 443.44 443.11 443.02 442.83 442.82 443.45 443.19 443.38 442.4 442.1 441.81 441.67 440.93 440.09 439.5 439.67 439.37 439.66 441.53 446.63 451.24 454.67 457.47 458.44 462.99 461.76 463.75 464.9 466.71 468.59 471.01 472.2 475.36 476.88 477.79 480.65 481.65 482.33 481.33 480.93 481.62 479.97 479.41 478.99 478.82 476.99 476.12 476.16 475.9 475.22 475.74 476.44 476.69 477.23 478.44 478.89 478.24 477.32 474.49 472.76 469.29
663.44 663.52 663.34 663.51 663.86 664.91 666.05 667.05 667.8 669.19 669.26 669.86 669.64 669.91 670.43 671.61 671.87 673.61 675.06 677.97 678.96 680.52 682.04 683.2 683.86 683.87 684.02 684.53 683.87 683.71 683.05 682.57 680.49 679.38 677.22 675.74 675.16 674.84 674.23 675.03 675.21 674.29 674.3 674.6 675.31 675.12 674.97 674.18 674.55 674.63 674.72 674.56 674.46 674.63 674.86 675.02 675.08 676.13 676.66 677.12 673.82 675.52 676.11 675.19 676.16 675.97 676.65 677.3 678.85 679.98 680.12 681.66 683.38 684.69 686.12 687.6 688.51 689.53 688.08 688.46 688.44 688.57 687.63 686.79 685.25 683.29 681.94 678.3 675.09 672.15 668.78 665.22 661.14 657.69 651.95 648.02 642.73 637.43 631.52 625.22 622.27 614.03 607.38 601.95 595.69 590.21 584.67 579.38 572.71 567.5 561.84 556.62 551.3 547.11 542.02 537.14 532.21 527.93 523.74 519.72 516.04 512.03 508.42 507.39 503.93 499.8 496.68 493.46 488.62 485.41 483.16 481.17 478.01 475.58 472.76 469.95 468.02 465.38 464.32 462.57 460.95 460.42 459.18 458.23 457.24 456.46 456.36 455.53 454.68 452.79 450.18 447.56 446.7 445.81 443.78 441.77 441.6 442.16 442.64 443.22 442.6 441.5 439.44 435.54 435.23 433.99 9999 9999 9999 9999 9999 433.49 433.44 433.41 434.11 434.55 434.64 435.3 435.16 435.19 435 437.39 442.23 442.81 443.15 442.74 443.34 442.59 442.85 443.09 443.08 444.3 443.88 444.17 444.42 444.41 444.92 445.07 444.39 444.01 443.41 443.39 443.6 444.05 444.33 444.04 443.66 443.57 443.86 443.28 443.74 443.63 444.49 444.86 444.64 444.2 444.66 444.54 444.44 443.06 441.37 440.71 440.21 440.69 442.25 448.2 450.84 454.85 457.25 458.29 463.58 465.6 466.69 464.94 465.76 467.23 469.09 471.03 472 473.27 472.53 474.75 476.87 479.18 482.35 480.07 477.61 476.75 477.1 477.01 477.08 475.38 474.17 473.45 473.21 474.31 474.8 476.01 476.2 477.34 478.06 478.85 478.21 477.85 475.37 472.66 467.47
662.6 662.8 662.99 663.7 665.29 666.48 667.23 667.66 668.22 668.73 669.89 669.97 670.27 670.53 670.7 671.2 671.78 674 675.1 676.99 678.68 680.49 681.82 683.08 683.4 684.45 684.09 683.37 684.05 683.51 682.47 680.91 679.9 678.15 677.09 676.13 675.33 674.68 674.99 676.03 675.85 676.33 676.48 675.96 675.87 676.48 677.19 677.49 676.79 677.49 677.38 676.49 676.82 677.11 677.05 678.08 678.61 679.19 678.9 679.21 677.58 678.43 679.16 679.1 680.62 681.03 679.55 680.7 682.01 682.66 684.26 685.74 687.14 687.77 688.8 690.67 691.24 691.94 692.35 692.34 691.98 691.14 690.29 689.46 687.49 685.44 681.72 679.02 676.36 672.45 668.55 664.86 660.7 653.99 649.24 644.09 639.36 634.37 628.04 622.06 614.33 608.06 602.85 597.2 592.82 588.07 582.68 575.95 570.28 564.6 559.35 554.51 549.1 544.33 538.21 534 528.79 524.74 520.64 517.98 512.34 508.47 505.14 502.02 498.68 495.82 493.8 490.06 487.25 484.31 481.03 479.24 477.18 474.73 471.89 470.02 468.02 466.1 465.16 463.77 462.94 460.93 460.17 459.29 458.66 457.45 457.12 455.59 453.5 452.4 449.98 447.23 445.89 444.52 444.21 444.1 445.27 445.5 446.02 445.85 446.07 444.63 440.71 435.27 434.86 433.7 9999 9999 9999 9999 9999 433.58 434 434.04 433.87 434 434.81 435.22 434.74 435.27 434.99 435.51 441.18 445.02 443.03 443.35 442.89 442.9 444.22 443.85 443.93 444.62 443.88 444.85 444.43 444.68 444.88 444.9 444.56 444.08 443.36 443.76 443.69 443.85 444.1 444.17 444.19 444.17 443.85 443.51 443.84 445.05 444.81 446.51 447.63 446.56 447.5 446.15 445.94 444.96 443.61 442.31 441.72 442.39 444.31 447.04 451.16 453.14 455.54 456.9 462.71 462.57 462.55 462.51 463.69 464.03 463.66 467.04 469.33 471.44 471.54 472.76 474 476.79 477.73 476.96 475.65 474.56 475.28 474.03 473.62 472.25 472.23 472.35 472.45 472.74 473.21 474.18 475.71 476.6 477.1 477.22 477.15 476.2 473.19 470.58 465.9
662.59 662.89 663.09 664.14 665.34 666.52 666.89 667.89 668.67 668.88 670.17 670.1 669.84 670.44 671.02 671.3 672.24 672.81 674.37 674.87 677.03 678.8 680.2 682.48 683.26 683.89 683.08 682.83 682.58 681.99 680.38 679.95 678.2 677.3 676.04 675.05 674.99 675.32 675.87 676.87 677.1 676.89 677.68 678.21 678.43 678.2 678.57 678.65 679.42 679.15 679.8 679.68 679.59 679.5 679.07 679.6 680.82 681.8 682.31 682.72 682.67 680.97 681.92 682.65 682.59 683.7 684.64 684.56 685.99 685.42 687.11 688.96 689.28 690.89 692.28 693.35 694.49 693.98 694.48 694.45 694.28 693.57 692.17 690.98 688.03 685.11 682.59 679.06 676.23 671.9 667.89 663.37 657.4 652.24 647.05 642.18 636.44 630.53 623.55 616.42 611.6 605.31 600.08 594.72 589.85 582.92 578.26 573.06 568.32 562.43 557.12 552.45 544.88 540.72 536.76 531.9 527.12 523.61 519.03 513.7 510.36 506.12 503.11 500.63 497.37 494.35 490.56 487.94 485.33 482.7 481.2 479.07 477.09 474.75 472.92 471.15 469.48 467.18 465.87 464.66 463.55 462.2 461.62 460.56 459.1 457.67 456.67 454.84 453 451.44 449.68 447.73 446.53 445.69 445.86 446.68 447.7 448.71 448.45 447.12 447.01 445.23 441.75 435.16 434.01 433.71 9999 9999 9999 9999 9999 433.36 434.34 434.56 434.04 434.38 434.03 434.58 435.74 435.04 434.99 435.73 439.86 441.72 443.64 443.15 443.6 443.23 444.23 443.69 444.38 444.44 444.25 444.22 445.31 444.63 444.42 445.29 444.77 444.26 444.04 444.11 443.78 444.35 444.62 444.13 444.45 444.17 443.76 444.66 444.99 445.12 446.27 447.71 449.01 450.3 450.23 450.72 447.48 447.16 445.42 443.7 443.05 444.38 445.58 446.08 450.92 452.47 453.75 455.45 456.89 458.22 459.93 460.96 461.28 461.42 462.05 462.21 464.19 468.74 472.13 473.53 473.1 476.02 476.65 474.84 473.33 472.11 472.45 471.85 471.74 470.44 469.35 469.59 468.7 471.46 471.77 472.91 474.03 474.71 475.15 474.48 474.65 473.59 472.12 469.83 466.44
663.22 663.67 664.25 664.95 665.84 666.1 667.4 668.61 669.49 669.78 669.96 669.8 669.95 670.68 671.04 671.14 671.51 671.68 672.06 674.3 675.53 677.24 679.37 680.67 680.98 681.6 681.44 681.77 681.15 679.17 678.39 677.01 675.42 675.22 675.16 675.03 674.87 675.22 676.36 677.22 678.1 678 678.12 678.9 679.12 679.7 680.14 680.46 680.39 680.75 681.47 681.13 682.04 682.07 681.84 682.61 683.88 683.27 683.69 684.73 684.16 685.04 685.77 686.2 687.31 686.53 687.51 688.02 688.85 689.38 691.41 692.18 691.48 693.07 693.98 695.17 696.24 696.74 697.91 697.38 695.95 694.57 693.41 691.17 688.4 685.28 682.87 679.37 675.22 672.13 667.2 661.08 655.31 649.84 643.94 639.55 633.45 625.23 618.46 612.34 606.82 601.18 597.01 593.12 586.93 581.71 576.79 570.82 565.58 560.31 555.8 549.34 544.63 538.65 533.63 529.78 525.35 522.01 517.18 512.89 509.7 506.42 503.24 500.82 497.52 493.63 491.34 488.59 486.32 484.26 481.99 480.34 476.73 475.01 472.85 471.66 469.65 468.69 467.09 465.17 463.98 463.25 461.52 459.94 458.7 457.92 456.36 454.78 453.18 450.66 450.63 449.38 448.84 447.25 448.22 448.15 448.48 448.98 448.97 448.3 448.43 445.4 441.4 436.01 434.09 433.76 9999 9999 9999 9999 9999 9999 434.19 434.48 434.64 435.05 435.13 434.71 434.95 435.66 434.88 435.71 436.34 439.6 442.12 442.69 443.2 443.39 443.57 443.83 443.65 444 444.17 444.48 444.99 445.19 444.61 445.05 444.75 444.51 443.91 444.31 444.12 444.49 444.77 444.81 444.89 443.98 444.61 444.86 445.8 447.28 448.2 449.66 450.8 452.46 452.13 451.91 450.76 450.18 448.18 444.58 445.4 445.16 446.05 446.29 446.52 448.21 450.83 454.23 455.44 457.19 456.8 458.31 457.89 458.35 460.17 460.5 462.23 465.88 467.39 467.02 466.79 471.43 472.15 471.72 470.82 469.17 468.77 466.92 466.12 466.58 467.04 466.94 466.94 467.74 470.29 471.94 472.4 473.29 473.12 473.22 472.09 472.13 471.29 469.73 466.92
662.72 663.24 664.21 664.98 666.12 666.68 667.52 668.46 669.64 669.77 670.18 670.22 670.69 670.79 671.45 671.44 671.62 672.03 672.64 672.6 673.74 675.82 677.49 678.19 679.18 679 679.96 678.5 677.56 676.29 676.05 675.06 674.77 674.15 674.46 674.41 674.56 675.06 675.65 676.55 677.89 678.91 679.2 680.14 680.45 680.31 680.69 681.38 682.82 683.04 683.6 684.32 684.5 683.39 683.86 684.47 684.97 685.5 687.46 687.88 686.61 688.34 688.32 689.41 689.84 690.22 691.43 691.94 690.7 692.26 693.01 693.61 694.93 695.18 696.55 697.3 698.52 698.97 698.88 698.33 697.53 695.97 694.34 690.96 688.34 684.73 681.1 678.79 674.2 669.07 664.78 659.2 654.01 648.33 642.76 636.11 627.96 621.82 616.96 610.83 605.43 600.33 596.09 590.41 586.33 581.15 576.81 570.8 565.39 560.37 553.94 548.67 544.09 538.93 534.48 529.62 525.69 520.82 517.12 513.64 510.73 507.07 504 501.26 497.54 494.54 491.99 489.44 487.4 485.05 482.53 479.87 477.79 476.63 474.82 471.94 470.94 468.19 466.47 466.02 464.64 463.32 462.19 460.44 458.81 457.85 456.56 455.44 453.22 452.27 452.51 450.97 449.81 450.44 451.01 450.27 450.76 451.13 449.78 448.9 448.31 446.79 442.63 435.82 433.6 433.37 9999 9999 9999 9999 9999 9999 434.42 434.39 435.13 434.79 435.31 434.77 435.05 435 435.36 435.69 436.03 436.23 436.71 436.87 437.45 442.67 443.76 444.06 443.67 444.18 444.86 443.71 442.7 445.02 445.12 445.42 444.93 444.8 444.99 444.11 444.62 444.7 444.52 444.69 444.73 444.65 444.99 444.92 447.57 448.84 450.47 451.74 452.42 453.51 454.28 453.04 452.46 451.66 450.49 450.49 449.18 448.51 446.95 446.4 446.17 446.52 447.72 450.47 451.29 452.6 455.1 455.18 455.07 455.86 456 458.06 459.99 461.02 461.53 463.77 463.78 465.36 467.11 466.57 467.3 465.99 465.02 464.56 463.77 463.84 464.6 464.6 466.18 467.07 468.27 469.56 470.96 470.27 470.24 471.96 471.82 471.48 470.68 469.92 468.02
662.85 664.4 664.06 664.8 666.04 666.82 668.03 669.27 669.21 669.51 669.55 669.75 670.36 670.91 671.07 671.52 672.23 672.48 672.54 673.06 673.5 674.28 674.68 675.28 675.78 676.44 676.32 675.92 675.44 675.02 674.71 674.36 673.38 9999 9999 9999 674.78 674.76 675.67 676.54 678.12 679.38 679.88 680.86 680.77 681.66 682.3 682.85 683.63 684.07 685.24 685.7 685.75 685.86 686.55 687.5 686.79 687.78 688.58 689.25 690.51 691.59 691.69 692.09 692.61 693.06 693.71 694.42 694.68 695.74 696.31 695.71 695.97 696.63 697.83 698.54 700.15 700.33 699.68 699.55 697.82 694.65 692.88 690.45 687.28 683.72 681.52 676.69 671.91 667.85 663.11 658.11 652.28 646.79 641.15 632.94 627.58 621.27 615.89 609.7 605.54 600.3 594.9 591.42 587.11 582.76 576.25 571.73 566.35 559.31 554.64 549.13 544.66 539.68 535.05 531.21 525.18 521.17 517.84 514.7 511.14 507.78 504.92 501.03 497.72 494.88 492.44 490.87 488.21 485.03 483.85 481.12 479.14 477.5 475.01 474.45 470.79 469.35 468.39 466.65 465.23 464.1 463.11 460.95 460.2 458.39 456.72 455.78 454 453.63 452.72 452.28 453.27 452.96 451.95 451.77 451.93 451.35 450.44 449.62 448.63 447.52 442.62 435.77 433.65 433.16 9999 9999 9999 9999 9999 433.84 433.66 434.3 434.72 434.98 435.31 435.5 435.34 435.61 435.35 435.68 435.96 436.24 436.31 436.49 436.68 437.05 437.6 441.88 444.44 444.62 444.59 443.56 440.61 442.14 444.72 445.27 445.14 444.96 445.39 445.54 445.01 445.32 445.08 445.03 445.04 444.86 444.53 445.58 448.99 451.15 452.88 453.78 453.97 454.72 455.07 454.47 453.94 454.02 452.11 451.43 450.87 450.34 449.68 448.19 446.8 9999 9999 447.91 447.7 449.61 449.73 450.84 450.39 451.43 452.63 454.52 457.04 459.15 459.23 459.37 462.5 462.56 464.39 463.88 463.78 463.23 462.66 463.28 462.89 463.55 462.18 463.87 464.22 465.9 466.71 468.11 467.73 468.89 469.79 469.18 469.92 470.18 470.88 471.97 471.41
662.72 663.55 664.52 665.42 666.62 668.06 668.26 669.41 669.7 669.85 670.26 670.4 670.63 671.29 671.04 671.45 672.52 672.88 672.85 673.15 674.12 674.09 674.41 674.84 675.13 673.15 674.79 674.73 674.95 674.29 673.87 9999 9999 9999 9999 9999 673.29 673.76 675.54 676.61 678.6 679.57 680.8 681.6 682.32 682.7 683.93 684.12 684.85 685.22 686.18 686.84 687.32 687.96 688.45 688.83 689.56 689.97 690.91 691.18 692.4 693.65 694.25 695.18 696.49 697 697.88 697.29 696.94 697.33 698.34 698.35 698.41 698.42 698.34 698.71 699.43 700.48 699.81 699.37 697.09 694.55 692.17 689.52 686.21 683.1 680.08 674.89 670.73 666.44 661.61 656.8 651.22 645.01 638.35 633.16 627.4 621.79 615.67 610.23 604.76 600.43 596.84 592.62 588.36 584.74 578.26 571.93 564.84 559.94 555.27 550.77 545.44 541.1 534.44 530.31 526.02 522.96 519.18 515.41 512.16 507.32 504.7 502.22 499.5 496.23 493.69 491.14 487.71 486.1 484.33 482.16 479.84 477.99 476.25 473.53 471.75 470.74 469.17 467.78 465.83 465.12 462.63 461.04 460.37 459.18 458.15 456.22 454.27 454.71 453.67 454.15 454.55 454.26 453.67 453.17 452.43 452.21 451.03 449.83 448.73 446.39 441.86 434.8 434.34 433.3 433.68 9999 9999 9999 9999 9999 433.7 434.45 434.83 435.41 435.31 435.05 435.94 435.28 435.26 435.24 435.64 435.47 436.21 436.26 437.17 436.9 436.88 437.41 439.85 440.35 438.47 438.25 438.77 439.9 443.01 444.96 444.72 445.37 445.78 445.07 445.64 445.22 445.25 445.52 444.9 444.94 444.64 447.94 450.65 453.2 454.81 455.39 455.99 457.34 457.02 455.59 455.6 454.62 454.73 453.54 452.58 451.35 450.64 448.95 447.12 9999 9999 9999 9999 9999 445.93 446.78 447.51 445.96 446.89 446.74 451.71 455.34 456.64 457.77 457.9 460.16 461.19 462.85 462.63 461.24 460.94 460.73 460.49 460.88 461.87 462.34 463.13 464.62 465.68 466.27 466.73 468.47 468.77 469.19 469.7 469.28 470.21 470.36 471.34
662.34 663 664.43 665.38 666.77 667.49 668.38 669.01 669.75 670.34 670.51 670.29 671.06 671.32 671.71 672.17 671.91 672.95 673.4 674.03 674.36 674.31 674.42 674.74 674.82 9999 9999 673.19 9999 9999 9999 9999 9999 9999 9999 9999 674.65 675.95 676.15 676.86 678.07 680.14 681.81 682.29 683.45 684.55 684.36 684.91 685.74 686.61 687.63 688.13 689.03 689.38 689.79 690.34 690.63 691.6 692.8 693.64 695.1 696.38 696.42 697.07 698.46 700.16 700.31 700.09 700.21 700.01 699.81 699.61 699.24 700.09 699.88 700.19 700.42 700.74 700.36 698.81 696.8 694.61 691.85 688.06 684.95 682.76 677.55 673.88 669.48 664.91 659.67 654.15 649.92 642.03 637.16 632.46 627.9 621.92 616.36 610.6 603.62 601.03 596.71 593.77 589.63 587.08 578.35 572.01 565.81 560.28 555.54 550.58 546.17 539.81 536.24 531.43 527.62 523.9 519.98 516.48 512.79 509.08 506 503.44 499.88 497.28 494.16 491.18 489.72 487.21 484.98 482.74 480.76 478.83 477.28 474.92 473.16 471.37 469.66 468.51 466.51 464.79 463.13 461.87 460.85 459.28 457.82 456.04 456.62 455.66 455.52 456.32 455.49 455.61 454.3 453.49 452.78 452.36 450.84 449.7 449.19 446.03 439.81 435.51 434.21 433.93 433.99 433.83 9999 9999 9999 9999 433.76 434.37 434.32 435.11 434.97 435.15 435.13 435.31 435.67 435.63 435.93 435.94 436.26 436.12 436.58 436.27 437.04 437.35 437.83 438 437.9 438.57 438.3 438.93 439.72 444.91 445.05 445.52 446.05 445.59 445.5 445.78 445.5 445.2 444.77 445.18 446.43 448.99 452.95 454.45 455.67 456.83 457.06 457.52 458.34 456.9 457.63 455.86 455.3 454.71 454.88 455.37 454.97 452.74 448.21 9999 9999 9999 9999 9999 9999 9999 9999 9999 9999 9999 9999 447.51 449.36 454.73 456.32 458.68 458.42 458.69 459.91 459.85 460.31 460.05 459.6 460.79 460.36 460.92 461.56 463.98 464.56 465.3 466.49 467.45 467.98 469.46 469.09 469.98 470.41 469.58 468.7
662.51 663.07 665.04 665.73 667.13 667.79 668.76 668.89 669.69 670.27 670.93 670.61 670.7 671.69 671.61 672.02 672.91 673.25 673.81 674.02 674.01 674.42 674.3 673.49 674.04 9999 9999 9999 9999 9999 9999 9999 9999 9999 9999 674.98 674.85 675.25 676.48 677.92 679.31 680.97 681.88 682.5 683.52 684.53 685.35 685.77 686.96 688.19 688.67 689.6 690.06 691.15 691.24 692.04 693.14 694.31 694.19 695.3 696.32 697.34 698.83 699.97 701.62 701.73 702.36 702.2 701.86 701.32 701.07 700.69 700.61 700.34 700.82 701 699.99 699.45 699.56 697.98 696.21 693.61 690.41 688.03 684.74 680 676.43 672.54 668.31 663.24 659.48 652.04 646.52 641.92 636.97 632.44 628.18 623.34 614.48 610.51 605.47 600.49 596.67 593.78 590.97 586.76 580.35 573.99 567.69 562.13 556.29 551.48 545.08 541.2 537.81 533.52 529.39 525.32 520.9 516.44 513.52 509.27 506.67 503.83 501.23 498.99 494.77 492.54 489.37 487.77 485.87 483.45 481.78 479.89 477.89 476.59 474.59 473.39 470.78 469.47 466.89 465.15 463.57 462.29 461.47 459.62 458.08 458.09 457.91 457.31 456.41 456.97 456.62 456.21 454.6 454.17 453.15 452.4 451.57 449.93 447.88 444.64 440.77 435.85 434.66 433.95 434.48 434.11 433.59 433.95 433.8 9999 9999 434.75 434.17 434.71 434.77 434.81 435.01 435.26 435.14 435.56 435.62 436.2 436.26 436.5 436.28 436.57 437.42 437.32 437.25 437.88 437.83 438.15 438.42 438.92 438.84 440.38 444.97 444.94 445.83 445.5 445.98 445.66 445.59 445.52 446.28 446.63 446.94 449.13 453.82 455.68 456.81 457.52 459.34 458.41 459.11 458.59 458.03 457.74 456.94 456.07 455.8 455.73 455.04 454.46 448.75 9999 9999 9999 9999 9999 9999 9999 9999 9999 9999 9999 9999 9999 447 447.9 451.09 454.01 455.93 457.65 457.72 458.58 458.53 458.74 459.43 459.73 459.4 460.1 461.46 462.2 463.47 464.52 466.3 467.08 468.04 469.48 469.04 469.71 470.15 469.37 467.82
662.38 663.87 665.01 665.83 667.47 667.83 669.24 669.7 669.42 670.43 670.65 670.69 671.34 671.41 672.47 672.84 673.4 674.11 674.54 674.38 674.58 674.77 9999 9999 9999 9999 9999 9999 9999 9999 9999 9999 9999 674.26 674.54 675.54 676.13 677.17 677.88 678.65 679.63 681.01 682.76 683.53 684.35 685.1 686.09 686.62 687.42 688.92 690.15 690.56 691.47 692.26 692.31 693.72 694.53 694.96 695.99 697.71 698.42 699.35 699.85 700.99 703.01 703.24 703.62 703.84 702.56 702.08 701.82 701.79 701.08 701.6 701.01 700.8 700.79 699.87 698.58 696.85 694.54 692.37 689.48 684.82 682.3 679.15 675.67 671.42 666.72 662.38 656.42 651.01 646.14 641.67 637.26 633.1 629.49 622.48 618.47 611.98 606.92 601.91 598.27 594.37 591.15 588.58 581.79 575.2 568.99 563 557.83 551.25 547.31 543.69 538.48 534.73 529.62 526.07 522.11 518.33 514.73 511.44 508.49 504.94 502.32 498.35 495.48 493.46 490.79 488.18 486.42 483.45 482.8 480.99 479.75 478.76 476.07 473.82 471.31 469.78 467.93 466.51 465.4 463.68 461.97 459.54 459.88 459.55 459.27 458.73 458.83 457.56 456.97 455.95 455.74 454.99 454.52 453.66 451.05 449.93 447.91 445.3 440.62 436.32 435.15 433.88 434.15 434.18 433.59 434.14 434.04 9999 9999 9999 9999 434.48 434.78 435.01 434.99 435.33 435.43 435.51 435.9 435.93 436.12 436.29 436.63 436.63 436.72 437.67 437.27 437.88 437.75 438.03 438.57 438.82 438.56 439.5 444.06 445.53 445.81 446.46 445.83 446.36 446.66 446.7 447.47 446.05 447.46 450.53 454.78 456.96 458.39 459.25 459.66 460.17 460.79 460.42 458.96 459.13 457.47 456.87 457.36 456.87 455.6 452.79 450.55 9999 9999 9999 9999 9999 9999 9999 9999 9999 9999 9999 9999 9999 9999 9999 449.32 451.52 453.83 455.47 456.82 457.27 458.05 458.61 458.93 459.15 459.94 459.86 460.41 461.4 462.7 463.32 465.71 468.67 469.67 470.67 470.57 470.3 470.25 470 470.12
663.63 664.84 665.6 666.33 667.85 667.72 669.18 670.39 670.29 670.95 671.87 671.61 672.55 672.83 673.5 674.42 674.72 675.61 675.15 675.35 676.31 675.65 674.96 674.41 9999 674.55 674.59 674.86 674.6 675.23 675.6 675.14 675.61 675.54 675.75 675.95 676.58 678.11 678.79 679.81 680.15 681.72 683.1 683.62 684.68 685.68 686.11 686.61 687.96 689.18 690.39 691.15 692.97 693.57 693.96 695.88 695.42 696.89 697.42 698.48 699.47 700.55 701.85 703.69 703.79 704.28 705.12 703.98 704.4 703.31 702.21 701.83 702.22 701.83 701.32 699.94 699.44 697.92 696.14 695.18 692.97 691.01 686.99 683.98 680.86 677.66 673.72 670.2 666.28 660.53 655.59 651.22 646.42 641.81 637.38 633.64 627.81 624.34 619.65 614.21 609.79 604.94 600.07 594.95 592.42 590.06 584.85 579.32 572.44 564.27 557.11 552.09 548.28 543.98 539.82 536.05 532.54 527.24 523.28 519.74 516.52 513.13 510.52 505.94 502.19 499.32 497.01 494.26 490.89 489.15 487.27 484.99 483.56 481.38 480.7 478.17 476.64 474.44 472.84 470.63 469.24 467.74 466.24 464.57 461.97 462.24 460.65 460.9 460.61 460.53 459.61 459.1 458.3 457.45 456.35 455.38 455.48 454.77 450.86 449.78 448.37 445.72 442.49 436.92 434.46 434.8 434.28 434.59 434.42 434.36 433.97 433.89 9999 9999 9999 9999 9999 435.07 435.02 434.99 435.51 9999 435.5 436.15 436.22 436.63 436.37 436.62 436.86 437.18 437.47 437.51 437.75 438.15 438.17 438.9 438.51 439.28 440.04 445.48 445.84 446.51 446.11 446.82 447.26 447.86 446.28 446 448.39 453.56 458.25 458.58 459.69 460.32 460.58 460.84 461.51 461.86 461.49 460.09 458.81 458 457.14 457.15 455.58 454.05 450.34 447.65 9999 9999 9999 9999 9999 9999 9999 9999 9999 9999 9999 9999 9999 9999 447.33 450.34 453.15 455.03 456.58 457.18 458.27 458.32 459.04 459.42 459.95 459.94 460.27 461 462.02 464.04 466.01 468.79 470.59 471.55 471.07 470.51 470.51 470.15 470.76
663.98 665.19 666.23 666.94 668.68 668.69 669.75 670.03 671.58 672.1 671.84 672.54 673.51 674.14 673.71 674.44 675.39 675.77 676.41 677 677.51 678.08 676.93 676.31 677.58 677.32 677.47 676.92 676.28 675.48 675.95 676.12 676 676.88 677.33 678.38 678.93 678.91 680.23 680.4 680.7 681.33 682.76 684.26 685.92 685.72 686.15 688.01 688.42 689.09 690.45 691.62 692.56 694.15 695.94 696.68 696.83 698.22 699.33 700.35 701.21 702.13 702.92 703.95 704.42 705.76 706.22 705.44 704.38 703.19 702.31 702.36 702.2 701.87 700.67 699.82 698.37 696.79 694.19 692.72 690.55 687.36 685.61 682.59 679.49 676.63 672.39 669.09 663.84 659.42 655.18 650.5 646.36 642.04 638.52 632.7 629.02 624.84 620.23 615.18 610.62 607 601.64 598.09 595.19 590.75 587.11 581.9 574.63 564.79 558.42 553.73 549.8 546.5 542.08 536.54 533.05 529.81 525.5 521.97 517.98 515.1 511.21 507.82 504.44 501.15 497.82 495.07 492.38 489.6 487.86 486.3 484.61 483.64 481.79 479.71 477.31 475.63 473.88 472.47 470.77 469.23 466.92 464.36 463.97 463.48 461.09 462.44 461.75 462.03 461.34 459.72 459.72 458.28 457.23 456.6 456.11 454.06 451.65 450.14 447.68 446.26 444.11 436.77 434.7 434.81 434.38 434.14 434.86 434.72 434.55 434.67 434.11 433.94 9999 9999 9999 9999 9999 9999 9999 9999 9999 435.73 435.95 436.18 436.56 436.81 437.01 437.3 437.82 438.06 437.58 437.86 438.11 438.5 438.76 438.87 439.6 442.02 444.89 445.11 446.67 446.96 447.83 446.77 447.3 447.82 450.73 454.96 457.33 458.88 460.37 460.2 460.65 461.52 461.78 462.38 460.9 460.34 459.9 458.84 458.01 457.44 456.52 454.85 452.09 449.25 9999 9999 9999 9999 9999 9999 9999 9999 9999 9999 9999 9999 9999 9999 447.82 450.33 453.12 454.97 456.91 457.64 458.15 458.54 458.72 459.09 459.82 460.39 460.55 461.31 461.84 464.01 467.6 469.69 471.11 471.55 472.31 472.28 471.75 471.25 471.39
