770.28 771.01 773.55 773.62 772.47 773.95 775.35 776.98 778.58 778.02 776.96 776.08 777.11 777.37 777.1 775.04 772.98 769.16 767.2 765.67 764.67 763.69 762.64 761.97 760.92 759.44 757.66 755.56 754.05 751.7 748.78 747.27 746.11 744.18 742.95 741.09 739.37 738.41 738.73 739.26 740.54 742.22 743.29 744.68 747.22 750.12 753.65 756.31 761 768.8 779.69 787.13 798.83 813.5 832.26 844.69 855.47 865.88 876.98 887.38 894.16 898.66 899.8 899.86 894.5 893.83 892.83 888.63 883.95 878.59 872.35 866.6 861.54 856.77 857.3 858 859.02 859.83 862.25 860.65 865.03 873.86 883.68 895.33 908.39 924.58 941.48 956.48 977.41 992.1 1005.38 1017.91 1025.37 1027.9 1018.61 1007.99 995.28 982.89 969.75 957.39 944.43 926.31 915.74 903.62 892.59 881.76 871.16 859.79 853.74 845.92 840.66 836.8 832.55 827.56 823.04 819.12 813.71 808.82 807.11 804.66 801.27 800.56 798.87 792.4 778.8 766.14 778.33 789.62 793.61 795.02 795.53 795.08 793.5 792.09 789.96 790.62 789.73 788.58 787.33 779.67 778.71 776.7 773.06 769.32 766.46 763.55 757.44 755.84 756.07 755.69 754.86 754.63 754.1 753.77 746.93 745.35 742.12 738.97 739.45 738.7 738.23 737.22 738.48 741.19 744.53 745.07 740.39 728.66 718.15 703.12 692.27 690.6 692.61 703.9 720.82 730.55 735.45 742.18 747.8 753.41 758.61 761.93 763.91 763.52 765.72 767.21 768.88 768.16 767.83 769.13 772.96 769.4 769.54 769.22 766.07 761.21 756.23 748.3 734.37 722.99 705.6 691.65 676.55 662.16 647.67 635.07 620.23 602.57 591.49 584.3 577.49 567.94 561.91 553.94 546.43 540.92 538.22 537.56 537.07 536.75 535.37 531.34 523.98 517.09 506.96 499.97 494.74 488.09 483.22 477.07 473.23 466.07 460.12 452.53 9999 9999 9999 9999 9999 9999 9999 9999 9999 9999 9999 9999 9999 9999 9999 9999 9999 9999 9999 9999 9999 9999 9999 9999 463.22 474.39 487.49 499.4 511.07 523.22 535.04 548.37 561.96 577.42 586.88 586.95 583.6 582.16 576.57 567.52 556.17 547.22 542.29 538.52 536.92 533.12 527.08 521.1 514.08 507.55 499.65 495.04 493.83 489.34 486.99 484.68 482.33 480.8 479.39 477.73 475.15 472.52 469.33 465.63 462.84 460.87 458.18 454.72 9999 9999 9999 9999 9999 9999 9999 9999 9999 9999 9999 9999 9999 9999 9999 9999 9999 9999 9999 9999 9999 9999 9999 9999 9999 9999 9999 9999 9999 9999 9999 9999 9999 9999 9999 9999 9999 9999 9999 9999 9999 9999 9999 9999 9999 9999 9999 9999 9999 9999 9999 9999 9999 9999 9999 9999 9999 9999 9999 9999 9999 9999 9999 9999 9999
772.75 774 774.44 774.29 775.39 776.41 776.52 778.47 779.15 778.8 779.2 777.45 777.78 776.98 775.75 775.14 772.51 769.04 767.38 766.06 764.91 764.76 763.56 763.5 763.42 762.29 760.94 758.12 755.11 752.14 750.03 747.84 746.05 744.86 742.01 741.43 740.57 739.62 738.23 739.79 740.78 741.76 743.81 744.76 746.88 749.32 752.74 756.07 761.11 769.27 777.45 788.32 801 819.44 832.01 844.14 857.26 870.13 881.44 890.06 900.32 904.2 906.04 908.28 910.28 909.97 906.49 896.77 892.31 886.55 880.62 876.96 874.21 871.63 871.32 868.19 869.83 870.13 873.48 875.71 881.14 887.18 891.72 901.29 912.88 925.51 945.42 960.46 975.6 990.27 1004.87 1018.69 1029.61 1030.38 1019.65 1006.61 992.82 980.99 966.7 953.73 933.89 921.29 910.19 898.66 888.93 879.33 865.41 859.14 854.2 848.88 844.86 841.69 836.22 828.32 824.65 819.85 813.96 810.18 808.55 806.52 802.54 802.95 800.81 792 777.62 772.47 788.34 793.05 796.7 798.54 799.05 800.31 799.16 798.5 799.87 796.44 796.38 796.55 794.45 791.67 789.32 787.56 782.17 778.15 775.58 772.24 769.89 767.83 767.24 763.7 761.93 761.86 763.44 761.09 759.9 757.68 752.67 743.96 743.11 745.95 747.72 748.02 746.65 745.84 747.71 750.21 742.25 733.3 721.44 707.78 694.75 693.01 695.11 712.47 726.02 735.58 745.18 752.69 759.63 763.04 765.65 768.75 771.85 775.34 779.35 780.55 778.66 778.04 776.7 778.22 780.59 781.59 783.43 782.49 775.8 771.39 765.82 757.65 747.21 732.4 717.95 700.19 684.56 670.38 656.83 642.32 625.75 613.71 601.82 587.38 581.54 573.4 562.78 557.27 551.34 545.92 541.58 540.14 539.12 539.37 540.36 543.69 535.53 520.9 512.5 502.96 494.17 486.69 482.77 475.6 470.57 462.4 456.08 453.34 9999 9999 9999 9999 9999 9999 9999 9999 9999 9999 9999 9999 9999 9999 9999 9999 9999 9999 9999 9999 9999 9999 9999 9999 459.78 473.69 485.5 497.26 509.16 520.26 534.11 545.75 560.57 572.87 578.53 578.54 575.6 569.58 559.82 550.78 544.92 539.77 537.51 532.85 527.08 521.41 516.55 510.21 508.77 502.18 494.29 489.14 486.97 484.18 483.3 482.84 481.43 480.12 477.79 477.49 475.25 472.73 470.4 467.37 462.41 459.44 455.58 453 9999 9999 9999 9999 9999 9999 9999 9999 9999 9999 9999 9999 9999 9999 9999 9999 9999 9999 9999 9999 9999 9999 9999 9999 9999 9999 9999 9999 9999 9999 9999 9999 9999 9999 9999 9999 9999 9999 9999 9999 9999 9999 9999 9999 9999 9999 9999 9999 9999 9999 9999 9999 9999 9999 9999 9999 9999 9999 9999 9999 9999 9999 9999 9999 9999
773.83 774.33 774.66 776.51 778.4 778.13 779.7 780.87 780.95 779.67 779.61 777.98 777.13 776.57 775.78 773.7 770.78 769.65 767.56 766.7 765.27 766.14 765.34 765.49 765.35 763.3 763.5 761.68 759.38 756.07 752.11 748.81 746.94 745.1 743.13 741.45 741.17 740.3 739.75 739.47 740.44 741.34 742.77 744.57 745.72 748.09 752.55 755.32 761.58 769.56 777.73 788.84 804.14 818.37 833.05 845.57 858.34 871.71 882.64 895.26 905.09 910.6 916.24 916.78 918.14 916.66 913.5 908.18 903.68 898.29 888.4 885.6 882.73 881.67 881.12 882.32 884.7 885.65 884.11 887.71 892.01 897.74 904.05 912.93 921.23 934.06 947.7 962.22 976.15 989.84 1004.25 1017.91 1031.7 1029.16 1017.19 1003.68 989.76 975.92 957.04 941.92 929.34 917.62 907.4 896.26 885.43 870.95 863.8 859.58 854.63 850.34 846.6 843.44 836.86 831.77 826.47 820.47 816.57 813.58 808.9 806.33 805.85 806.29 801.14 788.9 775.88 779.01 790.54 797.4 801.43 801.8 800.94 801.29 802.08 803.78 805.71 805.91 806.58 806.57 800.12 799.17 797.34 796 793 791.79 787.87 780.02 778.16 775.45 775.07 775.27 774.78 774.32 774.27 768.61 767.69 764.37 758.36 752.69 751.23 755.52 756.05 758.12 759.1 756.19 752.74 750.05 748.07 737.18 725.5 711.69 698.64 694.7 703.14 716.74 730.17 740.28 749.5 758.16 767.78 771.6 775.78 780.37 779.26 782.96 785.99 788.67 788.73 789.43 790.39 791.41 787.63 789.88 792.15 793.42 791.57 788.07 781.06 767.27 753.36 740.88 727.72 713.08 699.27 684.09 665.33 646.23 632.71 621.2 609.3 597.08 587.16 579.53 566.37 559.49 553.26 549.4 545.42 543.22 540.89 541.29 541.48 545.14 543.56 528.95 511.39 500.44 494.9 487.11 482.43 475.41 468.08 460.52 458 455.26 9999 9999 9999 9999 9999 9999 9999 9999 9999 9999 9999 9999 9999 9999 9999 9999 9999 9999 9999 9999 9999 9999 9999 9999 459.33 470 480.87 492.41 504.13 518.03 534.94 547.52 558.36 564.92 567.19 566.1 566.78 558.08 549.68 540.36 533.69 529.53 524.92 525.42 516.62 511.75 507.35 503.51 498.54 491.54 486.73 485.62 484.13 482.51 482.36 480.42 479.65 478.27 476.96 475.29 474.26 472.69 469.92 467.34 461.52 458.22 453.44 9999 9999 9999 9999 9999 9999 9999 9999 9999 9999 9999 9999 9999 9999 9999 9999 9999 9999 9999 9999 9999 9999 9999 9999 9999 9999 9999 9999 9999 9999 9999 9999 9999 9999 9999 9999 9999 9999 9999 9999 9999 9999 9999 9999 9999 9999 9999 9999 9999 9999 9999 9999 9999 9999 9999 9999 9999 9999 9999 9999 9999 9999 9999 9999 9999 9999
775.35 776.39 778.62 780.95 780.82 780.71 782.18 782.71 781.46 781.03 779.6 779.11 778.18 776.72 775.48 774.51 771.89 770.06 769.07 768.27 767.46 767.25 767.61 767.26 766.36 764.29 764.05 764.92 763.4 759.62 753.88 749.35 748.2 747.12 744.68 742.44 741.08 741.03 740.47 740.01 739.95 740.95 742.52 743.96 746.68 748.33 750.92 755.6 760.96 768.92 778.66 793.11 803.42 818.19 832.81 846.94 860.03 871.71 885.62 895.19 906.28 914.69 920.52 926.4 925.53 923.94 919.84 915.2 910.39 906.32 902.16 898.45 896.82 891.29 892.29 892.87 893.86 896.35 899.82 903.36 908.65 907.89 913.99 922.06 933.16 943.4 955.58 969.22 979.16 993.63 1007.19 1023.44 1027.24 1019.35 1008.32 995.5 985.04 966.82 950.86 935.51 923.14 912.46 902.73 892.4 877.52 870.66 864.74 859.88 856.94 853.6 849.87 844.25 839.52 834.42 828.72 822.36 817.9 814.11 810.65 808.35 807.06 806.77 801.18 788.13 774.62 785.34 792.42 798.56 802.98 802.96 801.27 802.62 806.59 807.35 811.53 812.21 814.69 813.02 810.44 810.18 809.12 804.12 802.13 799.97 796.55 795.36 790.81 790.39 783.58 782.84 783.1 782.81 782.78 782.44 781.42 776.48 765.43 755.96 757.42 764.9 772.62 774.19 775.06 766.55 759.7 754.67 750.21 742.04 731.43 719.46 699.62 696.1 703.5 718.18 731.57 745.95 757.63 769.63 773.21 779.55 785.38 790.91 795.48 800.05 803.08 799.55 799.39 798.76 798.44 802.38 802.63 802.81 803.84 801.15 799.37 795.79 789.75 778.46 767.29 754.5 736.36 722.57 708.27 688.54 672.89 658.92 644.82 627.59 616.77 605.11 587.91 583.22 571.28 563.16 556.45 551.99 548.66 544.77 543.43 542.91 542.79 545.46 546.26 528.21 513.58 502.07 495.69 488.18 481.38 476.25 464.24 460.67 459.1 456.04 454.6 9999 9999 9999 9999 9999 9999 9999 9999 9999 9999 9999 9999 9999 9999 9999 9999 9999 9999 9999 9999 9999 9999 9999 9999 466.3 476.99 488.81 500.77 517.47 529.68 541.12 552.68 557.33 557.73 553.3 549.52 543.53 534.83 533.21 526.21 520.84 512.85 506.37 500.4 497.56 497.74 494.36 491.21 485.56 483.07 481.99 480.78 479.3 479.42 478.99 478.4 476.45 476.47 474.66 473.9 472.7 470.41 466.68 460.61 454.4 9999 9999 9999 9999 9999 9999 9999 9999 9999 9999 9999 9999 9999 9999 9999 9999 9999 9999 9999 9999 9999 9999 9999 9999 9999 9999 9999 9999 9999 9999 9999 9999 9999 9999 9999 9999 9999 9999 9999 9999 9999 9999 9999 9999 9999 9999 9999 9999 9999 9999 9999 9999 9999 9999 9999 9999 9999 9999 9999 9999 9999 9999 9999 9999 9999 9999 9999
775.08 777.44 780.05 782.13 782.38 784.7 785.34 784.22 782.03 782.2 780.52 779.83 778.79 778.51 776.22 774.97 771.77 771.55 770.75 769.39 769.43 769.54 769.58 768.38 767.21 766.44 766.51 766.53 765.65 762.43 756.26 751.67 749.82 749.13 746.64 743.8 742.65 741.69 741.02 740.77 740.41 742.45 742.33 743.45 745.55 748.05 750.9 754.8 759.82 767.78 782.3 792.18 805.33 819.37 833.74 848.15 860.46 875.35 885.44 894.82 906.26 915.32 923.41 930.94 933.2 929.76 927.09 923.41 920.3 914.22 910.55 907.81 906.26 906.94 906.92 907.48 903.74 907.31 909.71 913.83 917.95 923.25 929.29 938.53 942.72 951.95 962.77 974.67 986.62 999.8 1017 1025.6 1022.06 1012.47 1000.61 988.38 970.9 956.75 942.09 930.85 919.22 909.32 897.39 881.37 875.34 871.57 867.11 861.3 857.53 853.78 850 846.73 842.57 838.05 831.26 825.91 818.42 815.22 812.69 810.29 807.9 804.46 798.69 782.91 777.72 786.23 794.04 799.35 802.43 802.77 802.37 806.85 811.49 814.99 818.66 821.38 819.03 819.79 818.53 818.43 816.82 815.68 813.64 811.7 803.77 801.59 800.32 798.31 797.07 795.29 795.79 791.04 791.71 791.41 789.08 784.76 772.86 764.77 768.18 772.16 779.56 782.43 781.65 779.5 776.19 771.05 757.44 747.54 737.23 720.55 707.73 700.23 705.62 718.22 733.04 747.05 764.47 776.28 784.94 792.23 799.63 800.88 807.28 810.11 811.05 812.74 811.79 811.53 806.81 809.65 810.77 812.36 814.86 817.11 817.41 814.24 798.84 789.72 777.55 764.48 750.69 737.55 719.03 698.52 683.86 668.64 654.02 639.18 625.54 607.72 593.15 585.53 576.9 565.52 559.23 554.61 551.88 548.41 545.06 545.67 544.36 542.48 542.86 531.22 517.07 504.39 495.41 487.87 480.89 469.88 466.95 463.08 460.19 457.75 454.89 9999 9999 9999 9999 9999 9999 9999 9999 9999 9999 9999 9999 9999 9999 9999 9999 9999 9999 9999 9999 9999 9999 9999 9999 460.99 471.69 481.66 500.74 512.06 523.84 534.45 540.99 541.35 538.77 540.05 536.29 529.6 523.12 516.24 508.87 502.75 501.61 497.5 495.59 491.78 488.37 485.98 480.44 480.72 479.28 479.14 478.17 478.41 477.79 476.51 474.58 474.38 474.01 473.61 472.51 470.12 468.43 464.29 458.07 9999 9999 9999 9999 9999 9999 9999 9999 9999 9999 9999 9999 9999 9999 9999 9999 9999 9999 9999 9999 9999 9999 9999 9999 9999 9999 9999 9999 9999 9999 9999 9999 9999 9999 9999 9999 9999 9999 9999 9999 9999 9999 9999 9999 9999 9999 9999 9999 9999 9999 9999 9999 9999 9999 9999 9999 9999 9999 9999 9999 9999 9999 9999 9999 9999 9999 9999 9999
773.06 777.41 780.92 783.2 784.69 784.8 785.52 784.74 782.89 782.47 781.97 780.06 779.53 778.93 777.84 775.84 774.18 772.89 772.66 771.18 771.72 770.99 771.94 771.52 771.18 771.35 772.45 770.03 769.3 765.15 761.42 757.72 752.11 749.92 748.55 745.53 742.53 741.92 741.51 741.07 740.49 741.04 742.37 743.17 744.06 747.48 750.74 754 758.25 770.09 780.76 793.21 807 820.31 833.99 850.73 862.51 874.85 886.68 895.14 907.29 918.49 930.31 938.06 940.9 935.12 932.69 932.09 929.87 927.56 925.16 923.04 916 915.98 916.02 916.9 919.61 923.93 926.98 929.39 928.73 932.89 942.02 947.54 956.12 965.23 974.77 983.57 998.3 1009.7 1021.12 1022.91 1013.37 1002.35 990.16 977.35 963.74 950.24 937.5 924.12 911.9 901.26 888.79 879.33 874.15 873.06 868.69 863.39 857.88 855.08 851.33 848.53 843.41 839.07 834.7 828.05 821.38 816.92 814.02 812.16 806.98 799.84 788.16 781.3 783.2 789.47 794.5 799.07 802.85 803.56 806.6 813.67 816.07 821.14 824.05 826.42 827.92 829.6 829.67 829.18 825.05 823.26 820.62 820.14 817.02 815.42 812.47 806.93 805.21 804.75 805.22 805.46 806.63 807.98 800.26 790.81 780.09 771.08 775.62 783.98 788.49 789.21 789.37 790.68 788.79 783.24 773.92 763.36 746.95 729.23 715 704.34 704.74 716.15 735.93 751.32 765.5 779.29 789.44 798.04 803.51 812.2 816.65 820.74 818.13 820.78 820.83 821.1 821.35 821.81 825.74 822.8 826.17 828.65 828.15 824.29 817.04 807.47 794.89 775.86 762.69 744.51 730.69 714.36 700.32 684.84 664.88 648.19 628.78 615.71 602.16 591.27 583.58 573.31 561.52 558.09 555.04 550.19 547.68 550.93 548.14 541.51 538.82 531.91 521 507.75 496.6 488.06 477.07 472.31 467.93 463.24 460.94 458.76 455.13 9999 9999 9999 9999 9999 9999 9999 9999 9999 9999 9999 9999 9999 9999 9999 9999 9999 9999 9999 9999 9999 9999 9999 9999 456.35 468.13 480.87 492.37 502.42 512.71 527.04 532.88 527.39 524.02 518.68 514.21 508.49 509.77 504.04 498.59 493.85 491.76 488.54 486.04 485.97 483.46 479.79 477.2 473.23 469.68 471.17 475.02 474.3 472.71 471.79 470.73 470 470.13 470.69 470.91 469.64 467.33 462.15 454.18 9999 9999 9999 9999 9999 9999 9999 9999 9999 9999 9999 9999 9999 9999 9999 9999 9999 9999 9999 9999 9999 9999 9999 9999 9999 9999 9999 9999 9999 9999 9999 9999 9999 9999 9999 9999 9999 9999 9999 9999 9999 9999 9999 9999 9999 9999 9999 9999 9999 9999 9999 9999 9999 9999 9999 9999 9999 9999 9999 9999 9999 9999 9999 9999 9999 9999 9999 9999
775.1 777.26 780.19 782.64 784.52 785.1 785.63 784.6 783.81 783.07 782.61 782.08 781.67 780.32 778.27 776.61 774.91 774.27 773.5 774.32 773.49 774.47 773.89 774.24 776.61 777.13 776.68 776.45 773.54 770.24 765.19 760.98 756.06 752.01 749.77 747.34 744.61 742.34 741.58 741.69 741.17 741.19 741.87 743.04 743.76 746.56 749.35 751.77 759.28 768.25 779.28 792.38 805.24 819.41 837.93 851.46 863.98 875.92 887.41 898.03 908.84 923.36 934.03 942.63 944.79 943.09 941.82 943.42 939.92 937.19 934.57 933.62 932.09 931.8 932.95 928.28 930.92 934.2 936.53 941.12 945.82 952.75 958.7 958.61 965.45 973.95 983.84 999.45 1011.37 1022.32 1021.25 1016.33 1007.17 996.09 979.28 965.59 953.8 940.76 931.63 920.19 907.52 892.4 886.41 880.29 876.24 874.36 869.14 862.32 858.83 856.62 854.44 850.44 845.59 840.22 834.71 830.21 824.15 820.13 818.11 812.75 801.78 796.21 787.84 785.93 785.91 795.06 798.49 802.54 803.43 805.35 811.34 817.77 823.3 827.94 831.79 832.49 834.54 835.5 836.24 836.65 836.52 835.99 834.26 827.45 826.39 824.49 822.51 820.26 819.31 819.4 814.01 814.85 816.93 818.16 812.95 803.98 791.08 780.59 781.81 792.19 796.38 798.93 798.06 798.27 796.94 791.23 782.33 766.81 754.27 740.28 727.95 717.85 707.17 714.82 728.8 742.99 758.72 772.26 784.41 797.17 810.19 818.58 824.78 829.8 832.95 834.67 836.22 831.26 832.68 832.52 835.96 838.89 843.59 846.95 846.6 837.11 829.63 820.2 808.67 796.08 778.28 763.93 741.64 726.43 711.68 695.31 672.24 657.33 642 623.79 610.46 598.99 588.81 576.73 568.59 562.86 559.29 552.77 550.25 551.39 546.91 540.56 532.32 522.01 516.25 506.19 492.52 486.02 480.2 473.68 468.69 465.26 461.6 457.96 455.15 9999 9999 9999 9999 9999 9999 9999 9999 9999 9999 9999 9999 9999 9999 9999 9999 9999 9999 9999 9999 9999 9999 9999 9999 454.35 468.56 477.9 487.1 496.33 504.81 512.18 511.94 508.93 509.72 505.32 502.09 498.57 495.12 490.11 486.64 486.16 485.33 482.24 480.53 479.21 476.82 475.55 472.83 466.92 464.38 463.82 463.15 462.92 462.53 465.43 464.22 465.25 465.28 465.64 466.26 465.29 464.18 460.43 453.77 9999 9999 9999 9999 9999 9999 9999 9999 9999 9999 9999 9999 9999 9999 9999 9999 9999 9999 9999 9999 9999 9999 9999 9999 9999 9999 9999 9999 9999 9999 9999 9999 9999 9999 9999 9999 9999 9999 9999 9999 9999 9999 9999 9999 9999 9999 9999 9999 9999 9999 9999 9999 9999 9999 9999 9999 9999 9999 9999 9999 9999 9999 9999 9999 9999 9999 9999 9999
781.34 780.76 779.76 780.15 782.95 785.35 785.61 785.87 785.25 784.56 783.55 782.64 782.07 781.52 780.4 780.54 780.46 781.06 778.42 777.87 778.47 777.76 779.7 780.75 781.47 779.98 777.45 778.03 775.64 773.32 768.16 763.45 761.34 754.25 751.86 749.73 746.22 743.15 742.58 742.54 742.54 742.2 741.64 742.69 743.37 744.56 747.13 751.4 757.74 767.68 778.86 790.81 803.89 822.09 835.33 851.12 864.86 876.59 888.24 900.22 916.21 928.04 939.07 945.48 948.38 947.52 948.64 950.26 950.58 950.66 949.69 944.23 942.82 943.15 943.22 946.23 948.05 951.36 948.02 952.51 959.02 964.16 969.09 974.35 980.56 988.87 996.44 1007.53 1019.02 1026.23 1018.82 1010.33 999.61 986.55 974.49 961.46 948.9 935.07 923.46 908.5 899.41 890.85 885.41 880.98 876.59 875.13 868.95 864.07 860.85 857.77 856.21 851.76 845.58 840.16 837.94 831.31 825.11 821.81 819.57 808.67 802.99 796.42 795.68 790.78 788.17 796.58 801.69 806.03 808.68 810.82 815.58 819.97 828.37 832.09 835.47 838.82 842.17 844.34 843.31 845.15 844.91 844.37 842.35 839.64 838.93 838.16 831.83 830.75 830.57 831.68 831.14 831.77 834.13 828 821.92 811.61 797.3 787.29 794.11 807.26 812.47 808.2 808.39 806.23 802.84 799.51 788.03 777.11 760.66 748.13 736.05 726.89 718.69 713.55 718.78 735.53 752.27 767.27 781.56 800.42 813.04 824.65 831.4 835.89 839.58 842.84 844.26 844.61 844.51 846.52 843.9 848.6 854.1 857.59 859.07 856.4 849.88 839.38 821.25 804.42 790.98 775.97 761.39 744.25 726.03 700.03 682.93 666.97 650.41 637.15 623.94 611.1 592.38 582.6 575.45 566.37 564.48 559.12 552.92 549.31 543.51 537.11 525.32 512.93 505.04 498.26 492.93 486.13 480.36 473.98 469.32 465.45 461.94 458.2 454.56 9999 9999 9999 9999 9999 9999 9999 9999 9999 9999 9999 9999 9999 9999 9999 9999 9999 9999 9999 9999 9999 9999 9999 9999 456.25 465.59 473.37 482.07 491.05 496.74 500.06 499.77 496.86 494.35 491.93 488.23 490.79 483.98 483.05 480.49 479.21 478.5 476.3 476.23 474.81 474.25 470.32 463.72 459.74 458.59 460.38 459.84 460.22 460.35 459.67 459.73 459.93 461.9 462.1 463.15 462.28 462.06 458.47 452.03 9999 9999 9999 9999 9999 9999 9999 9999 9999 9999 9999 9999 9999 9999 9999 9999 9999 9999 9999 9999 9999 9999 9999 9999 9999 9999 9999 9999 9999 9999 9999 9999 9999 9999 9999 9999 9999 9999 9999 9999 9999 9999 9999 9999 9999 9999 9999 9999 9999 9999 9999 9999 9999 9999 9999 9999 9999 9999 9999 9999 9999 9999 9999 9999 9999 9999 9999 9999
779.46 781.73 783.45 783.55 783.81 783.41 786.98 786.81 786.78 785.92 785.02 784.73 784.48 783.41 783.03 783.49 784.4 785.77 785.9 788.9 790.94 785.06 784.77 784.69 785.55 784.49 783.27 780.05 777.71 774.3 770.7 764.95 761.4 757.11 754.19 753.72 748.66 744.08 743.21 743.27 742.38 742.66 742.06 743.02 743.65 745.08 746.93 750.64 755.55 765.41 776.09 787.98 806.19 819.8 833.31 848.36 861.69 876.09 890.28 905.61 916.94 930.08 941.35 947.12 950.5 955.68 953.78 956.2 958.81 960.08 959.36 958.17 957.26 957.93 954.79 956.85 959.09 962.52 968.39 972.18 976.65 982.1 980.11 985.54 991.68 1000.68 1008.97 1017.24 1025.32 1026.61 1018.06 1008.12 993.02 982.25 969.66 956.83 943.7 932.05 916.38 905.3 897.69 891.26 883.56 880.79 876.96 873.19 869.83 865.45 862.88 860.45 856.59 850.92 845.53 842.26 839.12 834.01 828.91 823.03 814.48 808.92 801.99 800.93 800.72 796.68 790.97 799.35 803.68 807.65 811.01 814.73 818.95 827 832.69 836.27 838.8 843.71 846.3 849.57 852.35 853.89 854.6 850.42 850.68 849.02 847.39 845.86 845.76 846.1 845.57 842.11 841.83 842.68 844.14 842.65 834.26 820.58 801.95 794.21 806.76 816.48 821.82 823.93 822.73 819.37 810.4 804.73 795.84 784.24 770.73 759.99 751.28 735.93 730.14 724.55 722.01 729.36 744.15 760.54 782.5 799.14 813.69 826.13 835.63 842.14 850.01 853.36 852.42 852.88 852.77 854.89 856.42 860.23 865.07 867.11 869.83 867.83 862.4 849.04 836.62 823.55 810.25 788.89 773.39 755 731.38 715.1 699.45 682.17 661.02 646.5 633.89 616.54 604.74 593.5 583.91 572.02 567.52 559.44 551.84 545.94 541.27 527.83 520.84 514.56 508.01 502.18 493.74 485.92 479.64 474.39 469.66 464.04 459.96 456.59 454.12 9999 9999 9999 9999 9999 9999 9999 9999 9999 9999 9999 9999 9999 9999 9999 9999 9999 9999 9999 9999 9999 9999 9999 9999 455.22 464.25 470.9 478.91 484.44 489.51 489.35 491 489.68 488.27 485.89 481.94 479.51 477.06 476.83 476.71 475.1 474.87 471.44 470.34 468.67 462.7 462.24 456 455.24 456.4 455.42 456.44 456.69 458.66 459.35 458.8 458.48 458.76 459.71 459.79 461.26 461.24 455.98 9999 9999 9999 9999 9999 9999 9999 9999 9999 9999 9999 9999 9999 9999 9999 9999 9999 9999 9999 9999 9999 9999 9999 9999 9999 9999 9999 9999 9999 9999 9999 9999 9999 9999 9999 9999 9999 9999 9999 9999 9999 9999 9999 9999 9999 9999 9999 9999 9999 9999 9999 9999 9999 9999 9999 9999 9999 9999 9999 9999 9999 9999 9999 9999 9999 9999 9999 9999 9999
781.52 782.99 785.25 786.93 786.21 785.14 787.33 788.4 788.79 787.84 786.51 786.61 786.95 786.46 785.84 786.97 787.05 788.94 792.34 794.25 794.65 794.3 793.63 791.62 788.72 787.74 785.08 782.53 779.79 778.31 775.3 769.22 764.15 758.3 755.4 754.13 751.89 746.73 744.29 743.38 743.71 742.84 742.74 743.29 744.28 745.06 746 748.7 753.73 761.54 773.27 790.8 803.6 817.46 832.12 846.42 861.37 880.25 894.34 905.69 917.76 931.49 941.01 949.33 954.43 958.29 962.91 966.1 970.21 972.95 967.97 967.37 967.48 968.74 970.72 972.02 976.5 975.36 979.61 984.19 988.61 993.43 997.92 1002.72 1010.27 1010.82 1017.15 1023 1028.85 1027 1014.58 1003.02 991.97 980.08 967.76 954.34 943.01 925.85 913.89 903.29 896.69 890.94 884.05 879.84 876.21 873.52 870.77 866.82 863.8 862.21 853.7 849.86 846.18 843.64 841.73 837.04 831.82 820.01 815.12 809.75 807.22 807.56 804.12 798.95 794.88 801.67 805.78 809.87 814.55 818.43 826.27 831.61 836.92 841.16 846.15 852.12 855.4 855.88 858.85 861.16 863.01 862.56 862.73 861.78 861.52 856.56 856.73 856.73 857.74 859.63 862.57 861.94 856.63 851.79 840.61 825.12 809.13 810.54 821.89 827.03 831.41 832.48 830.18 824.47 820.19 812.67 804.06 790.04 778.69 769.48 761.54 757.71 751.32 747.49 734.16 729.13 744.86 761.81 780.38 799.13 818.78 833.89 840.19 847.79 853.59 857.53 860.87 861.99 862.57 860.05 862.32 866.13 870.68 876.76 879.31 878.08 868.41 858.95 847.57 835.17 820.64 805.47 789.12 764.89 742.52 726.45 709.08 692.8 677.17 663.38 648.51 629 611.89 599.63 590.83 581.76 570.51 563.89 553.2 545.82 539.26 530.04 530.25 520.54 511.45 506.24 497.02 488.48 479.68 471.96 466.83 462.49 459.24 456.15 9999 9999 9999 9999 9999 9999 9999 9999 9999 9999 9999 9999 9999 9999 9999 9999 9999 9999 9999 9999 9999 9999 9999 9999 9999 9999 460.43 467.77 475.3 480.83 484.19 482.47 482.6 481.68 480.34 479.23 477.73 476.21 474.55 472.67 467.36 463.25 455.66 459.41 457.92 455.76 453.61 9999 9999 9999 453.69 454.41 455.31 455.26 455.87 456.63 457.04 457.52 458.05 457.18 458.29 459.21 459.27 455.68 9999 9999 9999 9999 9999 9999 9999 9999 9999 9999 9999 9999 9999 9999 9999 9999 9999 9999 9999 9999 9999 9999 9999 9999 9999 9999 9999 9999 9999 9999 9999 9999 9999 9999 9999 9999 9999 9999 9999 9999 9999 9999 9999 9999 9999 9999 9999 9999 9999 9999 9999 9999 9999 9999 9999 9999 9999 9999 9999 9999 9999 9999 9999 9999 9999 9999 9999 9999 9999
781.72 785.26 788.35 789.75 788.49 788.8 789.84 790.11 790.76 790.53 790.7 792.62 790.69 790.08 789.71 792.78 796.68 797.25 799.07 798.58 796.72 795.37 795.38 796.06 793.84 791.02 791.26 787.82 785.17 781.72 778.84 774.39 769.31 764.4 758.69 754.67 752.47 747.48 745.44 744.79 743.98 743.56 743.59 743.67 744.1 744.95 745.74 747.64 750.78 756.79 773.33 787.79 801.82 816.06 829.62 845.08 865.59 879.52 893.21 904.18 917.02 930.92 942.79 952.79 955.46 960.45 965.94 969.02 974.06 979.57 982.75 983.4 984.06 980.03 982.72 984.44 989.1 992.48 996.7 1001.9 1000.3 1004.99 1009.11 1015.8 1021.41 1026.71 1030.36 1034.11 1032.57 1025.5 1015.42 1003.81 991.9 980.28 967.25 955.16 939.29 925.8 912.58 901.94 894.69 888.89 884.97 879.38 876.1 874.49 871.09 868.98 866.64 862.61 854.93 851.16 846.91 844.18 843.03 839.62 827.66 821 814.39 810.78 813.61 813.24 807.95 802.09 801 803.67 807.98 812.33 816.5 823.57 830.95 837.05 841.17 844.78 851.38 856.52 862.88 866.07 869.55 873.04 871.21 872 870.92 870.02 871.21 871.68 872.22 872.57 869.5 872.36 874.25 871.55 870.17 862.15 846.56 824.1 814.75 820.03 830.77 840.47 844 844.78 841.03 831.74 826.6 820.66 811.9 802.23 793.44 786.13 774.51 771.41 767.24 761.66 753.94 743.11 740.63 757.98 777.74 795.12 810.9 820.64 832.82 842.03 851.15 863.03 866.62 868.77 869.75 871.89 872.99 874.09 874.67 878.02 879.65 878.74 876.49 871.15 863.19 846.85 831.71 815.63 791.8 774.29 757.79 741.67 725.5 703.95 686.03 672.14 656.67 640.18 622.42 612.85 595.94 582.87 573.31 567.84 559.67 551.11 547.35 540.71 535.21 527.23 517.11 508.4 500.86 490.23 479.73 471.78 467.27 461.09 457.61 9999 9999 9999 9999 9999 9999 9999 9999 9999 9999 9999 9999 9999 9999 9999 9999 9999 9999 9999 9999 9999 9999 9999 9999 9999 9999 9999 456.23 466.73 471.02 473.84 476.1 479.6 479.09 477.43 475.13 474.59 470.36 465.93 468.2 461.89 453.96 9999 9999 9999 9999 9999 9999 9999 9999 9999 9999 9999 453.25 454.81 455.52 454.9 455.78 455.73 456.34 456.8 457.7 458.27 458.12 455.22 9999 9999 9999 9999 9999 9999 9999 9999 9999 9999 9999 9999 9999 9999 9999 9999 9999 9999 9999 9999 9999 9999 9999 9999 9999 9999 9999 9999 9999 9999 9999 9999 9999 9999 9999 9999 9999 9999 9999 9999 9999 9999 9999 9999 9999 9999 9999 9999 9999 9999 9999 9999 9999 9999 9999 9999 9999 9999 9999 9999 9999 9999 9999 9999 9999 9999 9999 9999 9999
784.79 784.17 791.2 792.68 793.44 794.81 795.37 792.43 792.66 794.12 796.03 796.87 798.8 799.21 801.27 799.57 802.75 803.79 805.59 805.63 804.75 805.04 804.33 799.38 797.62 794.57 792.66 791.57 790.99 787.4 783.05 778.76 773.74 767.77 761.72 755.04 752.51 749.73 746.41 746.02 744.95 743.97 744.23 744.12 745.22 745.72 746.23 747.48 749.46 757.21 769.16 784.39 799.09 813.76 828.68 849.38 863.25 877.46 890.48 902.45 915.13 931.23 945.76 954.06 955.64 962.56 968.78 972.03 979.42 986.97 991.78 993.37 994.52 996.42 998.45 1002.55 999.77 1004.68 1009.57 1013.29 1017.5 1021.39 1027.84 1026.45 1031.55 1036.04 1037.99 1040.52 1036.56 1028.22 1017.8 1005.12 992.89 980.86 967.99 950.71 938.06 924.9 911.26 900.19 892.19 887.31 883.9 880.28 877.84 874.98 871.69 870.07 866.78 862.99 857.66 854.2 849.98 844.82 843.35 836.56 830.75 823.22 819.39 819.23 820.47 815.73 810.88 805.23 804.74 807.62 811.04 814.42 819.8 826.94 834.38 840.47 843.47 849.49 858.55 864.7 868.14 871.59 875.31 879.12 880.98 882.23 882.14 879.18 878.89 880.16 880.35 880.58 884.33 885.2 882.3 876.01 869.65 858.6 840.19 829.99 829.2 836.2 839.87 850.72 853.89 852.41 849.28 844.11 839.15 832.49 820.91 809.23 803.52 799.38 797 793.06 788.06 774.13 763.63 755.5 747.04 749.58 763.53 777.18 795.31 810.38 819.32 829.02 839.69 848.43 859.29 873.39 876.82 878.27 877.76 877.55 877.57 878.11 878.39 876.5 869.4 860.25 853.2 846.65 839.94 822.42 806.3 785.03 770.15 754.86 741.21 720.54 705.43 687.82 664.53 646.11 629.61 618.97 604.96 594.07 584.05 573.18 565.14 557.84 546.05 552.37 548.48 539.61 530.41 514.24 504.29 489.36 478.78 469.9 463.62 456.83 455.01 9999 9999 9999 9999 9999 9999 9999 9999 9999 9999 9999 9999 9999 9999 9999 9999 9999 9999 9999 9999 9999 9999 9999 9999 9999 9999 9999 454.81 462.46 466.07 468.3 469.41 470.13 470.25 467.98 469.62 466.23 463.83 460.66 455.47 9999 9999 9999 9999 9999 9999 9999 9999 9999 9999 9999 9999 9999 9999 452.71 453.57 454.62 454.8 455.03 455.68 454.86 454.49 454.89 455.21 454.39 9999 9999 9999 9999 9999 9999 9999 9999 9999 9999 9999 9999 9999 9999 9999 9999 9999 9999 9999 9999 9999 9999 9999 9999 9999 9999 9999 9999 9999 9999 9999 9999 9999 9999 9999 9999 9999 9999 9999 9999 9999 9999 9999 9999 9999 9999 9999 9999 9999 9999 9999 9999 9999 9999 9999 9999 9999 9999 9999 9999 9999 9999 9999 9999 9999 9999 9999 9999 9999
789.95 791.44 790.9 795.15 796.25 797.66 798.23 798.4 799.41 801.46 805.01 803.09 803.98 806.2 809.1 813.28 815.57 818 814.67 814.9 815.18 815.26 814.02 812.23 809.1 806.03 799.11 796.13 792.96 791.22 788.82 784.87 779.35 772.96 762.93 756.86 753.33 750.36 748.89 747.34 746.58 744.71 744.32 744.67 745.19 745.95 746.28 747.72 749.72 754.97 767.57 782.75 798.81 813.03 831.73 843.8 858.66 873.35 887.84 901.82 913.76 926.55 935.63 942.57 952.89 964.14 970.99 978.46 986.39 996.68 1006.2 1003.41 1005.07 1007.23 1010.43 1013.77 1016.95 1021.37 1025.96 1024.76 1029.73 1033 1038.44 1043.09 1046.23 1049.22 1051.12 1045.88 1039.97 1030.95 1020.29 1008.44 995.1 982.11 964 950.59 937.11 924.33 910.11 897.82 890.82 888.35 884.68 881.18 879.39 875.73 873.18 870.22 868.16 864.03 859.36 855.66 853.55 845.74 838.71 835.65 829.84 824.53 823.21 824.44 823.77 819.69 814.32 809.78 808.34 810.25 812.93 817.62 823.51 830.94 838.59 842.69 845.09 854.64 861.7 868.07 873.32 878.34 883.18 884.15 886.66 888.08 890.85 890.94 891.02 892.94 888.34 890.09 892.73 891.58 887.22 879.91 869.78 853.91 842.8 836.03 838.53 846.63 856.34 863.61 866.69 860.75 857.28 853.13 847.22 841.41 833.06 826.59 821.6 812.19 809.97 806.09 799.67 789.62 782.88 774.58 759.53 754.74 752.81 761.1 774.76 785.15 794.83 813.31 825.04 838.06 853.05 862.82 872.63 881.44 885.09 881.16 879.51 879.59 878.59 873.82 860.95 847.85 839.86 830.86 825.32 819.45 814.45 801.95 786.52 771.07 748.55 733.12 713.83 694.19 675.6 651.17 641.88 625.61 612.19 598.88 587.97 576.14 568.77 555.98 558.03 561.69 558.82 551.5 540.53 526.19 504.83 490.22 479.58 470.11 462.31 457.31 454.59 9999 9999 9999 9999 9999 9999 9999 9999 9999 9999 9999 9999 9999 9999 9999 9999 9999 9999 9999 9999 9999 9999 9999 9999 9999 9999 9999 9999 458.15 461.18 462.81 464.91 465.79 464.5 463.41 462.21 461.02 457.57 455.72 9999 9999 9999 9999 9999 9999 9999 9999 9999 9999 9999 9999 9999 9999 9999 9999 452.99 453.67 453.67 453.49 453.31 453.05 452.63 452.18 453.01 9999 9999 9999 9999 9999 9999 9999 9999 9999 9999 9999 9999 9999 9999 9999 9999 9999 9999 9999 9999 9999 9999 9999 9999 9999 9999 9999 9999 9999 9999 9999 9999 9999 9999 9999 9999 9999 9999 9999 9999 9999 9999 9999 9999 9999 9999 9999 9999 9999 9999 9999 9999 9999 9999 9999 9999 9999 9999 9999 9999 9999 9999 9999 9999 9999 9999 9999 9999 9999 9999
794.39 794.17 793.69 795.59 800.02 801.68 800.57 802.65 805.28 807.43 809.81 813.21 815 818.12 817.81 820.69 824.68 828.99 832.43 834.47 833.49 830.75 825.13 822.42 819.15 814.17 809.53 804.45 799.14 792.7 790.03 786.18 781.58 773.3 767.47 760.55 754.22 752.14 750.37 749.14 747.18 746.1 745.85 746.16 745.57 746.1 747.25 748.01 749.54 756.1 766.5 779.53 796.4 814.42 826.67 840.27 852.51 865.27 881.63 897.72 915.11 919.52 929.34 939.75 947.53 960.5 972.62 981.75 990.26 998.98 1008.68 1016.13 1019.93 1023.51 1025.37 1023.55 1027.25 1032.06 1035.84 1040.98 1044.82 1049.5 1049.84 1052.72 1055.96 1058.21 1058.09 1053.68 1045.85 1035.38 1022.98 1010.49 993.05 979.44 963.65 950.08 936.33 922.05 908.84 895.15 890.81 888.13 885.49 882.2 878.96 875.74 873.36 871.67 868.49 864.76 860.5 856.35 852.06 843.15 836.98 834.02 830.15 829.33 827.95 830.33 826.58 822.53 815.86 812.84 812.72 814.39 816.98 819.57 825.55 832.69 839.69 843.14 851.67 859.24 866.08 872.35 878.34 883.95 889.32 895.11 897.68 899.06 896.39 897.76 899.43 900.44 901.64 903.24 904.79 903.87 894.85 886.53 870.36 858.71 850.24 848.46 852.36 857.31 866.5 873.65 874.78 872.3 870.8 867.74 857.86 849.57 844.6 838.92 833.22 829.81 828.67 823.91 809.36 804 796.44 790.08 781.6 774.74 765.4 757.8 763.28 772.49 782.01 794.78 805.85 820.02 830.22 848.83 859.22 871.17 880.59 884.52 881.34 880.13 878.55 870.34 855.03 839.64 821 811.1 803.22 805.48 799.71 791.65 778.72 758.74 741.73 725.67 714.67 702.36 677.14 651.99 650.36 636.81 620.32 605.36 589.99 577.87 569.26 559.83 565.37 571.41 570.98 559.9 547.06 523.48 506.38 492.01 481.06 473.88 465.22 457.41 452.12 9999 9999 9999 9999 9999 9999 9999 9999 9999 9999 9999 9999 9999 9999 9999 9999 9999 9999 9999 9999 9999 9999 9999 9999 9999 9999 9999 9999 454.82 458.11 459.17 459.54 460.17 459.01 460.48 458.72 456.05 452.38 9999 9999 9999 9999 9999 9999 9999 9999 9999 9999 9999 9999 9999 9999 9999 9999 9999 9999 452.8 452.83 453.69 453.59 452.47 9999 9999 9999 9999 9999 9999 9999 9999 9999 9999 9999 9999 9999 9999 9999 9999 9999 9999 9999 9999 9999 9999 9999 9999 9999 9999 9999 9999 9999 9999 9999 9999 9999 9999 9999 9999 9999 9999 9999 9999 9999 9999 9999 9999 9999 9999 9999 9999 9999 9999 9999 9999 9999 9999 9999 9999 9999 9999 9999 9999 9999 9999 9999 9999 9999 9999 9999 9999 9999 9999 9999 9999 9999
801.67 800.01 798.29 797.3 800.75 804.03 805.66 807.79 810.07 811.96 814.14 816.46 820.63 824.67 828.56 834.17 838.66 839.87 844.8 847.15 846.67 842.07 839.27 837 833.49 820.97 816.85 811.19 804.15 799.48 793.8 788.33 780.65 774.8 769.74 762.16 756.41 753.91 752.2 750.34 747.81 746.13 746.34 746.66 746.9 747.51 748.49 748.94 749.61 753.83 763.26 774.76 794.18 806.33 818.83 835.48 848.25 859.23 880.49 895.42 905.26 911.83 921.22 934.68 946.23 961.69 970.54 983.26 993.72 1001.81 1012.28 1021.19 1030.02 1033.31 1036.3 1039.67 1042.42 1047.08 1046.84 1051.44 1056.46 1060.42 1064.74 1067.96 1070.24 1066.8 1065.61 1060.05 1050.78 1038.73 1025.93 1008.78 995.1 979.87 965.24 950.46 935.37 922.03 904.72 896.42 891.94 888.17 885.64 882.28 879.97 876.92 872.72 869.57 867.88 864.28 860.06 851 845.46 842.4 840.39 836.12 832.77 830.78 831.93 831.07 828.69 825.11 819.33 814.64 815.85 817.48 819.82 823.91 828.22 833.7 839.18 845.6 854.23 862.94 870.14 878.06 885.29 891.71 895.99 901.47 903.9 906.76 907.74 908.74 909.75 907.98 908.58 909.58 911.91 910.56 905.45 892.11 880.03 866.28 859.6 858.54 862.9 875.38 882.59 885.01 880.75 880.79 879.14 875.08 870.06 865.53 861.65 850.01 845.26 841.75 839.15 833.74 829.03 824.77 819.05 804.09 797.06 788.76 780.39 771.45 766.71 764.88 772.98 782.48 795.51 805.68 815.77 826.34 837.45 849.32 871.32 879.59 879.51 876.24 871.22 863.12 847.31 828.97 812.92 799.89 791.09 783.95 779.61 773.96 763.72 748.04 731.97 716.01 702.59 690.22 669.75 656.92 652.81 639.01 622.66 607.03 593.75 581.05 571.76 563.02 569.55 574.67 572.85 560.65 541.03 524.86 508.51 493.38 483.06 477.02 462.76 458.86 9999 9999 9999 9999 9999 9999 9999 9999 9999 9999 9999 9999 9999 9999 9999 9999 9999 9999 9999 9999 9999 9999 9999 9999 9999 9999 9999 9999 9999 452.97 452.29 453.84 454.82 453.79 453.01 453.06 9999 9999 9999 9999 9999 9999 9999 9999 9999 9999 9999 9999 9999 9999 9999 9999 9999 9999 9999 9999 9999 9999 452.71 453.31 453.27 9999 9999 9999 9999 9999 9999 9999 9999 9999 9999 9999 9999 9999 9999 9999 9999 9999 9999 9999 9999 9999 9999 9999 9999 9999 9999 9999 9999 9999 9999 9999 9999 9999 9999 9999 9999 9999 9999 9999 9999 9999 9999 9999 9999 9999 9999 9999 9999 9999 9999 9999 9999 9999 9999 9999 9999 9999 9999 9999 9999 9999 9999 9999 9999 9999 9999 9999 9999 9999 9999 9999 9999 9999 9999
804.22 803.91 802.51 803.55 802.43 806.79 808.01 811.42 813.87 817.16 819.32 823.98 828.42 830.58 837.19 841.69 846.14 849.74 854.72 857.45 856.49 853.41 849.38 846.75 840.65 835.56 828.78 822.97 811.96 804.89 797.86 789.02 784.04 777.3 771.88 765.26 758.72 755.4 753.61 751.27 749.72 748.12 747.51 747.18 747.5 747.82 749.13 749.16 751.01 753.04 758.31 775.29 788.39 799.28 809.72 824.9 838.48 854.8 872.91 887.42 895.03 904.02 915.7 929.2 946.91 958.21 969.58 982.77 994.93 1005.25 1020.78 1031.8 1043.94 1044.06 1046.54 1049.38 1053.47 1058.17 1062.43 1067.16 1071.46 1071.05 1074.48 1078.17 1080.21 1079.36 1077.18 1069.56 1055.41 1042.46 1024.76 1010.96 996.86 982.07 965.69 950.91 936.75 918.01 905.02 895.78 892.09 888.87 885.86 879.91 878.88 876.65 873.23 871.08 869.54 868.95 859.54 853.24 847.02 845.58 843.61 840.54 838.29 834.91 832.39 831.96 829.1 825.77 821.3 818.33 818.58 821.93 822.5 825.91 829.14 833.03 839.94 849.03 858.46 865.76 874.52 882.54 891.93 899.41 906.79 911.47 915.24 914.3 916.28 919.13 918.17 919.05 921.04 921.46 918.51 917.22 911.31 900.49 887.91 879.38 874.16 873.6 875.87 884.29 890.6 893.94 894.93 894.02 891.46 882.35 879.93 877.73 873.55 867.87 865.42 862.08 857.76 847.12 839.47 834.15 831.42 825.2 818.93 810.21 792.68 784.67 778.99 773.4 769.06 771.33 777.54 792.19 802.25 811.34 821.88 838.11 850.09 862.31 869.19 870.44 864.56 854.12 835.44 819.66 803.57 787.87 779.85 771.37 765.07 757.51 748.37 734.48 721.51 708.86 693.48 676.56 663.7 654.18 644.04 630.01 617.42 606.66 592.56 583.22 574.47 570.72 575.91 578.56 568.8 555.84 543.7 526.44 510.32 496.24 487.22 475.99 465.01 459.95 453.28 9999 9999 9999 9999 9999 9999 9999 9999 9999 9999 9999 9999 9999 9999 9999 9999 9999 9999 9999 9999 9999 9999 9999 9999 9999 9999 9999 9999 9999 9999 9999 9999 9999 9999 9999 9999 9999 9999 9999 9999 9999 9999 9999 9999 9999 9999 9999 9999 9999 9999 9999 9999 9999 9999 9999 9999 9999 9999 452.36 9999 9999 9999 9999 9999 9999 9999 9999 9999 9999 9999 9999 9999 9999 9999 9999 9999 9999 9999 9999 9999 9999 9999 9999 9999 9999 9999 9999 9999 9999 9999 9999 9999 9999 9999 9999 9999 9999 9999 9999 9999 9999 9999 9999 9999 9999 9999 9999 9999 9999 9999 9999 9999 9999 9999 9999 9999 9999 9999 9999 9999 9999 9999 9999 9999 9999 9999 9999 9999 9999 9999 9999 9999 9999 9999
808.85 807.26 805.47 806.35 805.58 808.93 812.35 815.96 817.76 821.31 823.72 829.4 831.93 836.22 840.39 845.6 848.93 856.1 862.06 866.85 867.6 868.56 867.27 856.09 848.83 844.22 838.1 831.55 823.93 817.74 809.04 797.79 789.53 781.25 772.82 766.59 761.2 757.58 754.32 752.35 750.69 749.03 747.91 748.45 748.62 749.57 749.58 750.65 751.58 753.7 759.62 768.15 777.45 786.84 802.05 816.21 834.69 848.42 860.04 874.96 886.18 898.57 911.98 930.9 944.35 955.64 968.23 982.46 998.17 1011.45 1022.78 1036.96 1053.73 1059.17 1062.55 1065.15 1070.08 1068.16 1072.58 1078.02 1081.74 1085.21 1089.98 1091.85 1088.52 1088.39 1083.02 1072.19 1059.5 1042.45 1028.85 1013.64 998.55 982.88 966.81 951.37 932.62 919.51 906.89 896.72 892.41 890.1 884.51 881.4 879.97 876.36 874.04 872.45 871.6 868.03 858.99 855.24 854.97 853.26 846.96 842.81 839.68 836.33 834.02 832.26 829.48 826.24 820.55 819.73 821.09 822.69 823.88 825.34 828.57 835.06 841.18 851.02 862.18 870.93 880.13 891.81 902.45 907.63 915 919.58 923.24 926.24 929.12 930.36 926.47 927.3 927.82 929.31 929.96 928.37 923.03 909.21 899.06 890.13 884.36 884.72 892.16 900.15 904.8 901.33 901.84 902.43 900.27 898 896.86 894.04 884.01 881.23 876.69 871.96 868.02 862.08 855.8 850.78 840.86 835.82 831.58 822.2 813.69 806.25 799.41 785.43 778.17 773.82 771.87 775.76 782.22 791.18 811.55 824.17 836.66 849.01 860.67 865 856.28 839.45 828.12 813.55 798.09 782.36 766.95 750.25 742.46 742.01 735.09 724.23 710.69 696.36 679.13 667.28 654.32 646.65 636.97 624.45 613.17 602.44 592.46 582.82 576.92 575.54 578.68 579.29 571.65 559.15 545.34 528.28 511.21 497.36 487.66 478.82 468.08 461.12 455.58 9999 9999 9999 9999 9999 9999 9999 9999 9999 9999 9999 9999 9999 9999 9999 9999 9999 9999 9999 9999 9999 9999 9999 9999 9999 9999 9999 9999 9999 9999 9999 9999 9999 9999 9999 9999 9999 9999 9999 9999 9999 9999 9999 9999 9999 9999 9999 9999 9999 9999 9999 9999 9999 9999 9999 9999 9999 9999 9999 9999 9999 9999 9999 9999 9999 9999 9999 9999 9999 9999 9999 9999 9999 9999 9999 9999 9999 9999 9999 9999 9999 9999 9999 9999 9999 9999 9999 9999 9999 9999 9999 9999 9999 9999 9999 9999 9999 9999 9999 9999 9999 9999 9999 9999 9999 9999 9999 9999 9999 9999 9999 9999 9999 9999 9999 9999 9999 9999 9999 9999 9999 9999 9999 9999 9999 9999 9999 9999 9999 9999 9999 9999 9999 9999
811.98 812.49 810.07 808.44 807.68 810 813.48 817.29 820.32 825.58 828.67 832.02 834.66 838.48 843.62 850.7 856.1 863.45 869.91 872.36 874.58 874.26 872.07 871.08 863.32 856.03 849.77 839.19 832.67 825.44 816.96 807.86 798.95 788.86 776.49 766.56 761.86 758.51 755.86 752.09 750.82 749.18 748.96 748.63 749.68 750.01 751.18 751.45 752.76 755.4 760.84 766.5 775.41 782.97 793.23 807.64 824.35 841.86 853.99 866.16 879.25 891.74 911.9 924.33 937.63 953.43 966.75 980.41 1000.23 1013.94 1025.98 1041.18 1058.95 1068.93 1071.88 1075.88 1080.09 1083.09 1087.42 1091.24 1090.51 1094.72 1097.29 1098.99 1099.86 1097.99 1088.69 1074.68 1058.45 1044.7 1030.58 1015.16 998.85 983.08 966.43 946.45 933.03 920.09 907.79 898.25 895.23 889.47 885.01 883.47 880.47 876.62 874.06 872.78 872.61 867.18 861.2 859.49 859.92 859.39 852.85 848.29 843.99 837.59 835.23 833.07 830 825.65 821.84 822.4 823.78 824.36 825.94 826.54 830.04 836.16 843.96 854.42 865.29 875.38 888.82 899.15 909.51 918.02 925.4 931.32 931.83 935.57 937.4 938.19 938.41 939.04 939.11 935.41 936.38 934.46 930.48 924.93 917.64 908.65 900.98 896.19 903.81 909.15 913.85 915.11 915.19 916.54 910.79 909.39 906.36 903.19 900.99 897.85 895.18 885.04 880.27 875.68 869.2 863.26 856.93 852.55 847.25 835.23 827 820.14 812.35 805.56 798.87 793.3 781.04 776.61 774.88 783.68 792.84 804.5 817.19 828.89 847.27 856.54 848.96 835.22 820.27 805.66 789.2 776.45 756.1 743.22 731.01 720.15 713.29 704.63 699.73 682.42 670.3 657.74 645.56 632.42 620.33 608.22 604.18 597.86 593.53 591.5 585.89 580.03 584.32 579.03 571.9 560.46 545.6 531.08 515.69 497.46 488.92 479.86 469.95 461.56 457.77 9999 9999 9999 9999 9999 9999 9999 9999 9999 9999 9999 9999 9999 9999 9999 9999 9999 9999 9999 9999 9999 9999 9999 9999 9999 9999 9999 9999 9999 9999 9999 9999 9999 9999 9999 9999 9999 9999 9999 9999 9999 9999 9999 9999 9999 9999 9999 9999 9999 9999 9999 9999 9999 9999 9999 9999 9999 9999 9999 9999 9999 9999 9999 9999 9999 9999 9999 9999 9999 9999 9999 9999 9999 9999 9999 9999 9999 9999 9999 9999 9999 9999 9999 9999 9999 9999 9999 9999 9999 9999 9999 9999 9999 9999 9999 9999 9999 9999 9999 9999 9999 9999 9999 9999 9999 9999 9999 9999 9999 9999 9999 9999 9999 9999 9999 9999 9999 9999 9999 9999 9999 9999 9999 9999 9999 9999 9999 9999 9999 9999 9999 9999 9999 9999
815.47 814.17 814.08 809.81 811.21 811.69 817.12 819.1 822.84 826.71 829.78 832.41 837.79 844.78 852.29 854.15 859.88 866.83 874.35 880.38 882.26 881.74 877.85 877.83 872.6 865.89 858.96 851.68 842.59 835.37 824.2 814.52 804.29 796.26 785.49 779.45 773.45 762.49 755.87 752.16 750.93 750.17 749.81 750.34 750.62 750.84 751.41 753.02 753.86 755.2 758.66 765.05 773.52 782.53 793.76 803.83 818.45 834.35 846.96 857.7 878.51 890.82 905.71 920.39 934.16 948.25 961.29 979.98 997.71 1013.64 1026.71 1043.32 1058.97 1076.72 1085.9 1085.11 1088.88 1092.88 1095.68 1098.29 1102.05 1104.29 1107.13 1106.03 1106.59 1102.52 1092.35 1076.28 1063.02 1048.24 1031.44 1016.41 999.34 977.12 960.92 947.19 933.56 918.96 907.46 900.71 894.8 891.31 887.11 883.74 883.13 878.09 876.01 873.72 872.23 869.95 870.09 870.05 869.06 863.86 857.32 850.71 845.5 841.24 837.04 834.01 829.33 825.74 822.41 823.73 824.52 825.82 827.15 829.2 831.9 838.63 844.59 856.49 868.97 885.49 897.51 906.68 917.17 926 933.38 938.95 944.66 947.36 948.34 944.88 945.29 945.36 946.66 946.38 946.49 946.36 939.34 934.97 927.76 917.44 913.76 914.22 919.74 925.21 923.17 925 925.95 925.46 924.86 922.39 920.32 912.73 909.21 907.44 905.81 903.28 899.8 895.28 883.16 875.07 870.09 864.87 859.63 854.5 848.22 840.59 827.85 820.14 813.53 807.9 803.3 798.62 791.37 782.95 783.08 794.25 803.89 816.28 834 845.47 842.03 832.02 817.77 803.33 786.96 766.39 752.33 738.02 722.88 710.86 700.76 691.51 678.89 667.72 654.18 646.3 635.33 621.99 611 609.97 609.72 609.86 607.14 596.4 588.64 584.36 588.12 584.01 576.9 565.59 548.76 526.85 511.04 498.34 490.68 481.44 473.4 462.91 457.39 452.28 9999 9999 9999 9999 9999 9999 9999 9999 9999 9999 9999 9999 9999 9999 9999 9999 9999 9999 9999 9999 9999 9999 9999 9999 9999 9999 9999 9999 9999 9999 9999 9999 9999 9999 9999 9999 9999 9999 9999 9999 9999 9999 9999 9999 9999 9999 9999 9999 9999 9999 9999 9999 9999 9999 9999 9999 9999 9999 9999 9999 9999 9999 9999 9999 9999 9999 9999 9999 9999 9999 9999 9999 9999 9999 9999 9999 9999 9999 9999 9999 9999 9999 9999 9999 9999 9999 9999 9999 9999 9999 9999 9999 9999 9999 9999 9999 9999 9999 9999 9999 9999 9999 9999 9999 9999 9999 9999 9999 9999 9999 9999 9999 9999 9999 9999 9999 9999 9999 9999 9999 9999 9999 9999 9999 9999 9999 9999 9999 9999 9999 9999 9999 9999
821.16 817.96 817.33 811.77 813.43 814.77 819.01 822.53 824.59 828.55 830.98 835.56 842.06 850.7 855.94 860.93 865.68 871.96 876.86 884.85 888.44 888.57 888.28 885.75 885.11 877.35 868.43 859.54 850.9 844.2 834.69 825.9 817.47 803.77 797.91 790.55 782.48 773.75 766.09 758.23 752.12 751.04 750.87 751.11 751.46 751.82 753.49 753.33 754.71 756.03 757.1 761.18 769.25 781.58 789.58 798.95 813.56 827.73 840.66 855.49 868.26 881.7 895.52 914.26 930.28 945.21 965.54 979.82 991.72 1006.11 1022.75 1042.99 1064.01 1088.84 1093.01 1096.36 1100.99 1104.77 1103 1105.46 1107.35 1110.66 1111.52 1112.66 1112.65 1106.86 1090.43 1078 1064.51 1049.27 1032.98 1016.75 993.72 976.02 960.87 946.3 931.74 919.47 910.53 904.49 897.87 893.95 890.91 887.69 883.34 879.87 877.4 877.16 877.17 874.64 877.01 876.23 872.48 869.68 863.41 855.61 847.94 842.03 838.74 833.04 827.52 824.61 824.2 823.06 825.16 826.81 827.59 830.4 834.19 840.98 850.76 859.18 876.82 890.38 905.44 918.18 928.85 937.56 943.82 948.38 951.96 955.36 956.02 957.16 957.49 957.34 953.91 954.5 953.02 953.37 952.47 949 940.36 927.72 923.96 925.02 931.06 935.78 939.73 941.43 941.57 935.59 934.03 932.64 930.83 926.96 925.26 923.91 916.48 914.79 912.18 907.39 901.89 895.93 890.78 884.86 872.95 867.83 861.86 856.61 850.41 844.01 837.8 824.67 819.74 812.35 805.1 798.79 793.26 789.9 794.69 810.82 823.72 835.99 837.94 828.44 817.15 804.42 782.74 769.06 753.41 738.73 724.38 708.96 688.16 677.78 668.85 657.14 644.47 631.51 621 619.54 617.92 621.17 620.46 618.13 612.17 601.91 591.18 591.82 590.71 588.45 581.88 569.57 549.68 533.45 519.92 502.93 490.29 482.65 475.31 463.75 462.4 460.36 9999 9999 9999 9999 9999 9999 9999 9999 9999 9999 9999 9999 9999 9999 9999 9999 9999 9999 9999 9999 9999 9999 9999 9999 9999 9999 9999 9999 9999 9999 9999 9999 9999 9999 9999 9999 9999 9999 9999 9999 9999 9999 9999 9999 9999 9999 9999 9999 9999 9999 9999 9999 9999 9999 9999 9999 9999 9999 9999 9999 9999 9999 9999 9999 9999 9999 9999 9999 9999 9999 9999 9999 9999 9999 9999 9999 9999 9999 9999 9999 9999 9999 9999 9999 9999 9999 9999 9999 9999 9999 9999 9999 9999 9999 9999 9999 9999 9999 9999 9999 9999 9999 9999 9999 9999 9999 9999 9999 9999 9999 9999 9999 9999 9999 9999 9999 9999 9999 9999 9999 9999 9999 9999 9999 9999 9999 9999 9999 9999 9999 9999 9999 9999
825.14 820.88 820.63 815.65 818.43 817.72 821.61 823.93 827.36 829.28 833.32 837.25 845.56 853.31 857.39 861.92 867 871.6 877.53 887.91 894.35 893.62 894.23 893.1 889.1 885.24 881.38 874.13 864.42 850.22 841.21 834.68 829 824.09 815.57 807.61 794.36 785.07 771.49 762.76 755.21 751.83 751.8 751.65 752.22 753.39 753.75 754.2 755.14 756.04 757.51 759.02 768.71 777.1 782.98 794.05 805.47 817.83 832.87 848.85 861.76 874.2 890.22 908.2 925.13 949.95 964.76 977.79 989.74 1003.34 1019.55 1044.11 1063.6 1087.57 1100.13 1103.77 1107.05 1109.8 1104.87 1098.34 1093.37 1093.72 1102.97 1104.39 1101.39 1099.82 1090.77 1079.46 1065.73 1050.07 1033.21 1010.35 993.56 976.15 958.97 944.12 930.43 920.37 911.73 906.06 900.84 897.93 895.64 891.6 884.15 881.95 880.87 881.81 881.47 884.01 886.25 886.47 879.04 874.76 867.89 859.15 851.9 845.03 839.85 833.85 827.52 824.55 825.16 824.67 825.88 828.39 830.14 832.18 835.43 843.7 855.62 868.96 881.44 896.48 909.95 924.22 936.37 948.45 954.06 959.46 962.78 964.92 963.2 964.13 965.03 965.62 966.32 964.68 964.08 961.27 961.53 956.85 950.2 943.27 940.59 944.75 943.09 949.1 951.55 953.75 953.04 951.86 949.63 948.07 940.18 938.15 936.75 936.05 935.09 933.07 929.88 920.04 914.81 909.43 903.4 898.16 892.95 885.27 881.59 871.32 865.62 860.18 855.85 850.68 844.53 836.57 820.28 814.69 807.77 802.85 792.08 796.19 809.78 827.15 831.87 826.79 815.69 799.71 786.13 771.3 756.52 740.38 725.61 704.87 688.46 672.2 657.71 644.12 637.04 626.11 625.9 631.12 636.91 637.73 634.17 623.9 617.38 603.18 594.65 596.21 599.84 598.87 593.47 572.22 556.83 540.84 525.32 508.49 493.84 485.01 476.04 467.37 465.1 459.58 453.28 9999 9999 9999 9999 9999 9999 9999 9999 9999 9999 9999 9999 9999 9999 9999 9999 9999 9999 9999 9999 9999 9999 9999 9999 9999 9999 9999 9999 9999 9999 9999 9999 9999 9999 9999 9999 9999 9999 9999 9999 9999 9999 9999 9999 9999 9999 9999 9999 9999 9999 9999 9999 9999 9999 9999 9999 9999 9999 9999 9999 9999 9999 9999 9999 9999 9999 9999 9999 9999 9999 9999 9999 9999 9999 9999 9999 9999 9999 9999 9999 9999 9999 9999 9999 9999 9999 9999 9999 9999 9999 9999 9999 9999 9999 9999 9999 9999 9999 9999 9999 9999 9999 9999 9999 9999 9999 9999 9999 9999 9999 9999 9999 9999 9999 9999 9999 9999 9999 9999 9999 9999 9999 9999 9999 9999 9999 9999 9999 9999 9999 9999 9999
833.08 825.47 823.65 818.8 821.14 822.18 824.61 828.42 830.99 830.98 834.44 841.57 848.5 855.86 861.52 866.73 868 872.32 881.52 889.76 896.05 901.38 903.36 902.51 895.13 891.76 886.96 881.77 873.36 863.92 856.05 851.69 840.79 834.34 826.57 818.33 810.16 798.37 788.87 773.56 763.9 756.02 752.87 753.04 753.38 753.79 754.22 755.38 755.94 756.41 757.77 759.66 765.02 771.23 774.81 786.54 799.77 815.94 825.8 837.4 851.83 866.38 884.62 906 928.97 949.39 962.27 972.25 983.76 997.1 1021.54 1040.5 1060.77 1083.52 1107.86 1109.28 1104.36 1098.93 1088.6 1081.53 1075.29 1075.88 1079.68 1079.72 1074.01 1083.61 1086.6 1080.23 1065.12 1048.69 1027.17 1009.53 993.3 976.46 959.64 944.04 931.67 919.54 914.63 908.15 901.56 899.21 896.13 891.49 887.85 886.02 886.37 885.87 887.7 891.84 895.69 895.93 892.54 888.56 880.31 865.52 853.91 848.12 843.1 837.42 832.79 829.28 826.36 825.62 827.18 830.63 832.06 835.04 839.71 853.12 862.26 873.3 886.37 902.12 918.43 934.02 952.27 957.07 962.76 966.96 970.65 972.79 975.36 975.55 975.48 972.82 971.99 970.74 971.19 973.16 974.58 970.66 958.32 951.39 951.34 956.02 962.81 966.94 969.08 963.95 962.44 960.84 959.27 957.12 955.46 953.64 953.45 947.69 947.26 944.57 942.06 937.67 932.61 927.7 916.76 911.13 902.88 898.63 894.74 891.95 888.46 884.62 871.59 868.15 861.83 852.31 846.72 841.91 835.41 816.83 804.03 793.76 796.78 807.67 820.15 823.15 810.6 798.83 786.21 774.22 758.89 743.89 721.72 704.97 686.94 669.58 652.11 639.02 631.98 637.67 646.7 644.85 648.41 647.76 644.08 634.42 624.69 613.44 599.89 601.2 607.38 608.23 597.18 583.31 565.36 546.47 527.51 510.43 495.34 485.87 480.52 472.67 468.27 460.57 9999 9999 9999 9999 9999 9999 9999 9999 9999 9999 9999 9999 9999 9999 9999 9999 9999 9999 9999 9999 9999 9999 9999 9999 9999 9999 9999 9999 9999 9999 9999 9999 9999 9999 9999 9999 9999 9999 9999 9999 9999 9999 9999 9999 9999 9999 9999 9999 9999 9999 9999 9999 9999 9999 9999 9999 9999 9999 9999 9999 9999 9999 9999 9999 9999 9999 9999 9999 9999 9999 9999 9999 9999 9999 9999 9999 9999 9999 9999 9999 9999 9999 9999 9999 9999 9999 9999 9999 9999 9999 9999 9999 9999 9999 9999 9999 9999 9999 9999 9999 9999 9999 9999 9999 9999 9999 9999 9999 9999 9999 9999 9999 9999 9999 9999 9999 9999 9999 9999 9999 9999 9999 9999 9999 9999 9999 9999 9999 9999 9999 9999 9999 9999
837.49 832.76 828.74 823.47 822.86 827.3 828.1 830.94 834.08 835.43 839.25 845.01 850.18 857.35 862.19 866.82 872.32 878.46 884.89 891.29 897.17 903.06 908.08 907.44 904.31 900.84 896.81 886.66 880.53 873.57 864.69 859.27 853.58 846.77 837.28 825.29 814.35 806.26 799 791.22 779.69 770.16 760.36 754.11 754.36 754.05 755.45 756.24 757.11 757.71 758.52 759.72 762.08 768.09 772.49 777.93 794.74 809.91 821.53 831.89 845.99 860.97 883.73 902.12 924.53 947.12 958.89 969.17 979.72 999.07 1016.9 1033.15 1053.96 1079.75 1100.2 1101.57 1087.54 1076.05 1065.22 1056.15 1057.75 1058.26 1065.54 1062.29 1056.38 1059.13 1068.19 1073.2 1063.47 1042.35 1026.14 1010 992.72 977.37 962.76 943.02 931.06 922.5 917.33 911.35 902.28 900.2 895.89 892.93 891.59 889.96 890.46 893.72 898.76 904.9 904.85 906.41 903.49 897.42 887.92 873.49 863.38 856.26 847.67 842.1 835.54 832.02 829.44 830.12 832.56 833.59 835.83 840.19 846.87 857.51 868.13 881.34 895.44 907.34 925.37 945.55 958.2 968.24 974.35 979.82 977.99 980.4 981.93 981.5 979.39 977.91 976.35 977.47 979.39 980.47 981.97 979.39 970.88 964.89 967.93 970.08 975.12 979.14 979.96 979.13 976.9 974.75 973.04 966.78 965.42 963.78 963.69 964.12 964.2 961.64 953.4 949.32 943.67 938.6 933.77 925.74 920.21 910.35 907.61 905.49 902.48 899.84 896.81 892.72 884.87 868.85 865.86 859.98 853.52 839.39 821.81 806.81 791.11 795.21 808.12 815.64 807.53 796.84 783.66 769.48 756.04 735.58 717.29 700.24 682.05 665 645.69 634.31 640.11 650.53 658.68 664.59 666.84 666.14 653.07 644.47 634.53 623.34 611.77 607.04 619.07 617.46 604.11 586.35 567.66 548.25 528.12 502.89 496 487.65 482.05 473.33 464.05 459.92 9999 9999 9999 9999 9999 9999 9999 9999 9999 9999 9999 9999 9999 9999 9999 9999 9999 9999 9999 9999 9999 9999 9999 9999 9999 9999 9999 9999 9999 9999 9999 9999 9999 9999 9999 9999 9999 9999 9999 9999 9999 9999 9999 9999 9999 9999 9999 9999 9999 9999 9999 9999 9999 9999 9999 9999 9999 9999 9999 9999 9999 9999 9999 9999 9999 9999 9999 9999 9999 9999 9999 9999 9999 9999 9999 9999 9999 9999 9999 9999 9999 9999 9999 9999 9999 9999 9999 9999 9999 9999 9999 9999 9999 9999 9999 9999 9999 9999 9999 9999 9999 9999 9999 9999 9999 9999 9999 9999 9999 9999 9999 9999 9999 9999 9999 9999 9999 9999 9999 9999 9999 9999 9999 9999 9999 9999 9999 9999 9999 9999 9999 9999 9999
841.87 837.52 830.34 825.81 825.9 829.92 833.48 833.83 836.68 839.85 843.42 850.1 854.4 859.37 865.29 869.99 874.04 879.51 886.82 892.79 899.09 904.99 914.34 913.23 910.46 907.5 902.7 897.46 889.19 884.09 873.35 865.24 859.56 851.84 843.8 835.28 828 819.58 805.3 798.38 789.32 780.16 767.79 760.44 755.79 755.57 756.24 756.57 758.27 758.86 759.38 760.51 761.88 765.33 769.59 778.72 789.67 805.59 816.02 824.47 837.85 860.33 876.2 897.35 917.09 936.52 951.27 963.99 980.67 994.99 1011.02 1028.69 1047.62 1065.7 1089.68 1084 1074.77 1060.65 1049.63 1039.47 1033.43 1036.57 1043.45 1037.96 1039.67 1043.93 1054.25 1064.82 1054.31 1037.89 1023.07 1009.41 993.48 979.31 962.27 949.03 936.45 927.71 921.88 912.25 902.3 900.14 898.7 897.93 897.74 899.46 898.47 902.42 907.47 914.45 919.33 921.86 919.91 912.35 893.97 882.99 872.72 863.39 857.11 848.89 841.98 834.86 832.43 833.85 836.49 840.57 845.03 848.47 850.48 860.63 873.24 886.89 902.06 919.71 942.13 956.24 965.72 975.2 981.45 985.59 988.07 985.95 980.5 982.85 980.56 977.54 971.56 965.57 965.22 967.32 968.28 975.46 969.85 969.15 978.39 986.4 992.23 993.29 988.72 986.82 984.78 983.23 981.18 980.45 978.3 977.32 972.94 974.1 974.57 973.21 969.76 965.51 960.14 947.55 942.62 937.97 932.72 929.42 925.79 922.63 914.51 913.33 910.16 905.32 898.13 894.37 890.21 881.47 868.35 851.24 834.22 818.14 804.4 787.1 787.59 803.52 806.18 796.74 782.7 766.7 747.52 733.5 715.32 697.24 680.63 663.52 640.65 641.29 654.06 668.77 672.29 679.21 681.52 680.3 672.7 662.95 651.89 634.66 622.4 611.36 623.85 620.27 605.22 586.25 566.64 546.71 520.47 505.79 498.95 489.26 482.22 474.42 463.74 455.83 9999 9999 9999 9999 9999 9999 9999 9999 9999 9999 9999 9999 9999 9999 9999 9999 9999 9999 9999 9999 9999 9999 9999 9999 9999 9999 9999 9999 9999 9999 9999 9999 9999 9999 9999 9999 9999 9999 9999 9999 9999 9999 9999 9999 9999 9999 9999 9999 9999 9999 9999 9999 9999 9999 9999 9999 9999 9999 9999 9999 9999 9999 9999 9999 9999 9999 9999 9999 9999 9999 9999 9999 9999 9999 9999 9999 9999 9999 9999 9999 9999 9999 9999 9999 9999 9999 9999 9999 9999 9999 9999 9999 9999 9999 9999 9999 9999 9999 9999 9999 9999 9999 9999 9999 9999 9999 9999 9999 9999 9999 9999 9999 9999 9999 9999 9999 9999 9999 9999 9999 9999 9999 9999 9999 9999 9999 9999 9999 9999 9999 9999 9999 9999
847.35 842.15 835.48 827.68 828.21 831.74 836.35 838.36 841.08 844.55 848.39 852.51 857.06 861.84 869.38 873.98 878.41 883.52 887.9 894.31 901.55 910.8 918.46 921.05 919.84 915.85 908.45 902.53 897.56 891.91 887.41 878.92 872.39 865.11 851.11 846.62 839.93 830.43 817.99 807.46 794.66 785.09 776 768.11 760.96 756.77 757.43 758.23 758.82 759.13 760.37 761.87 762.15 763.32 766.85 773.31 783.84 797.24 809.68 820.53 837.03 852.05 868.29 886.21 907.8 928.85 945.38 963.61 974.27 988.13 1002.56 1018.97 1040.61 1064.62 1081.84 1073.54 1058.06 1042.63 1028.14 1024.84 1014.9 1021.69 1026.29 1022.82 1016.49 1022.97 1035.08 1051.47 1043.68 1033.15 1021.4 1008.56 995.48 980.21 966.74 952.82 942.18 932.7 925.54 915.77 906.58 904.38 902.02 901.4 903.27 906.31 911.45 916.56 922.24 923.89 929.47 932.22 930.26 919.77 908.21 896.43 885.57 872.18 864.41 853.83 848.63 845.35 842.22 839.96 839.41 843.29 848.63 854.89 861 869.13 881.31 896.61 906.52 931.77 949.04 964.81 976.9 985.23 990.96 990.44 981.95 972.58 965.24 961.87 963.24 963.26 949.3 949.88 949.42 950.88 952.77 954.37 956.29 963.4 979.64 992.66 999.75 1000.76 999.25 997.88 997.4 991.83 989.72 989.04 989.18 987.05 987.55 988.33 988.35 982.58 979.55 974.95 968.53 962.82 957.13 952.79 943.2 938.63 934.78 931.23 930.04 928.4 920.28 912 906.01 895.91 888.19 876.63 866.14 854.92 843.44 828.98 808.36 792.98 780.91 781.34 786.41 782.84 778.22 756.58 742.55 727.07 711.88 698.57 683.39 657.18 640.57 645.53 659.2 675.59 688.22 697.76 701.94 691.53 682.68 672.11 660.04 647.17 628.32 617.32 625.43 621.61 605.03 586.06 567.42 541.67 523.19 510.66 500.12 489.75 482.81 475.33 463.01 457.32 9999 9999 9999 9999 9999 9999 9999 9999 9999 9999 9999 9999 9999 9999 9999 9999 9999 9999 9999 9999 9999 9999 9999 9999 9999 9999 9999 9999 9999 9999 9999 9999 9999 9999 9999 9999 9999 9999 9999 9999 9999 9999 9999 9999 9999 9999 9999 9999 9999 9999 9999 9999 9999 9999 9999 9999 9999 9999 9999 9999 9999 9999 9999 9999 9999 9999 9999 9999 9999 9999 9999 9999 9999 9999 9999 9999 9999 9999 9999 9999 9999 9999 9999 9999 9999 9999 9999 9999 9999 9999 9999 9999 9999 9999 9999 9999 9999 9999 9999 9999 9999 9999 9999 9999 9999 9999 9999 9999 9999 9999 9999 9999 9999 9999 9999 9999 9999 9999 9999 9999 9999 9999 9999 9999 9999 9999 9999 9999 9999 9999 9999 9999 9999
849.8 846.22 839.39 833.15 830.72 834.56 838.38 843.19 844.85 847.61 851.83 855.36 862.02 868.88 873.58 877.58 881.32 885 890.44 895.66 908.05 917.28 921.37 923.93 926.38 924.2 920.25 916.2 911.9 900.92 897.13 890.25 883.72 875.7 869.66 863.41 855.35 839.69 829.02 813.31 802.92 794.55 784.39 776.35 766.69 760.41 759.27 759.53 759.99 760.16 761.39 762.49 762.89 764.08 766.35 771.67 780.99 789.86 798.84 809.3 828.27 845.18 862.6 879.93 899.3 916.1 941.44 959.2 970.3 983.29 998.54 1012.81 1033.83 1048.22 1056.5 1061.42 1047.22 1031.62 1016.6 999.67 993.43 1000.42 1010.7 1005.91 1001.19 1015.19 1024.44 1029.99 1028.52 1023.63 1019.07 1008.49 994.04 983.64 971.37 959.03 949.25 936.8 928.83 918.22 913.84 911.5 910.65 910.82 914.92 915.94 920.52 926.9 933.12 940.36 945.28 947.09 939.36 929.8 917.89 905.39 893.74 884.36 874.39 866.19 856.01 852.31 848.78 847.97 846.42 848.53 855.94 859.4 865.85 873.18 885.74 907.62 923.58 941.66 958.68 970.54 983.62 990.23 984.92 977.38 965.03 951.75 949.79 945.71 948.92 948.86 935.7 925.03 923.84 926.24 937.45 939.79 943.29 955.47 969.13 983.86 997.58 1005.69 1005.65 1005.71 1004.33 1002.25 999.84 999.48 996.5 994.97 995 996.25 996.46 994.88 993.26 988.04 977.73 972.42 967.27 962.51 957.05 951.45 943.45 936.85 934.3 927.36 916.45 907.49 898.07 888.13 878.57 870.6 859.75 848.3 837.3 824.5 812.57 800.44 787.06 776.72 773.01 765.64 759.83 749.94 737.87 723.96 710.84 695.71 672.97 654.74 642.78 654.97 670.19 681.98 697.76 710.16 712.13 708.02 696.27 682.62 665.66 647.25 632.71 620.49 626.22 620.85 605.63 585.42 560.21 544.14 529.44 515.25 502.88 493.11 483.65 474.37 466.21 462.36 461.81 458.26 9999 9999 9999 9999 9999 9999 9999 9999 9999 9999 9999 9999 9999 9999 9999 9999 9999 9999 9999 9999 9999 9999 9999 9999 9999 9999 9999 9999 9999 9999 9999 9999 9999 9999 9999 9999 9999 9999 9999 9999 9999 9999 9999 9999 9999 9999 9999 9999 9999 9999 9999 9999 9999 9999 9999 9999 9999 9999 9999 9999 9999 9999 9999 9999 9999 9999 9999 9999 9999 9999 9999 9999 9999 9999 9999 9999 9999 9999 9999 9999 9999 9999 9999 9999 9999 9999 9999 9999 9999 9999 9999 9999 9999 9999 9999 9999 9999 9999 9999 9999 9999 9999 9999 9999 9999 9999 9999 9999 9999 9999 9999 9999 9999 9999 9999 9999 9999 9999 9999 9999 9999 9999 9999 9999 9999 9999 9999 9999 9999 9999 9999
853.83 851.32 842.23 836.22 833.66 839.14 842.35 846.33 850.52 852.95 854.52 859.74 867.75 872.59 877.54 881.34 885.34 888.3 893.7 902.74 914.2 923.56 929.55 936.49 939.56 933.57 930.5 927.29 923.41 918.29 912.74 908.88 894.51 886.1 878.48 872.39 862.74 854.02 840.73 828.42 813.87 804.53 792.99 782.45 773.42 761.8 760.5 761.13 761.02 761.68 761.46 764.04 764.95 765.77 766.19 772.1 782.28 787.08 797.38 803.48 819.6 835.01 853.75 874.4 892.61 916.96 934.65 948.42 957.55 969.62 989.39 1008.94 1022.13 1034.45 1042.21 1039.04 1028.65 1014.72 1000.56 986.11 979.93 986.95 988.7 982.88 983.23 1004.09 1013.38 1016.71 1015.88 1013.17 1010.48 1001.84 994.74 985.44 974.1 963.19 954.2 941.46 933.73 929.14 921.98 919.57 918.64 919.67 924.86 930.14 936.5 943.62 944.92 950.7 955.25 956 952.21 942.29 930.44 914.28 902.69 890.4 882.18 875.12 869.29 865.38 861.39 855.18 855.2 855.42 862.68 868.12 873.62 881.01 897.43 915.1 933.58 950.11 966.46 981 985.01 971.3 969.87 962.45 953.42 940.07 928.99 922.31 927.52 934.57 923.79 910.65 907.97 910.19 913.73 918.08 930.1 947.79 961.51 977.52 993.57 1008.88 1013.81 1013.37 1012.24 1009.04 1005.1 1003.19 1002.98 1003.81 1003.99 1005.33 1003.05 1002.61 1001.03 997.51 992.1 986.82 982.13 973.19 963.78 955.25 947.77 942.34 936.09 923.74 913.74 900.35 891.93 883.26 874.18 861.93 848.46 836.01 823.77 812.47 802.21 792.55 784.01 774.18 758.13 752.26 744.45 736.75 727.15 717.02 701.4 680.2 666.45 650.41 648.52 661.55 676.93 696.34 709.8 720.96 721.26 714.57 703.17 688.01 666.99 651.16 634.64 622.32 629.2 620.78 604.91 583.52 567.5 551.32 533.4 519.19 505.75 491.96 483.99 476.49 472.62 471.66 470.62 467.78 462.8 458.06 9999 9999 9999 9999 9999 9999 9999 9999 9999 9999 9999 9999 9999 9999 9999 9999 9999 9999 9999 9999 9999 9999 9999 9999 9999 9999 9999 9999 9999 9999 9999 9999 9999 9999 9999 9999 9999 9999 9999 9999 9999 9999 9999 9999 9999 9999 9999 9999 9999 9999 9999 9999 9999 9999 9999 9999 9999 9999 9999 9999 9999 9999 9999 9999 9999 9999 9999 9999 9999 9999 9999 9999 9999 9999 9999 9999 9999 9999 9999 9999 9999 9999 9999 9999 9999 9999 9999 9999 9999 9999 9999 9999 9999 9999 9999 9999 9999 9999 9999 9999 9999 9999 9999 9999 9999 9999 9999 9999 9999 9999 9999 9999 9999 9999 9999 9999 9999 9999 9999 9999 9999 9999 9999 9999 9999 9999 9999 9999 9999
856.67 853.46 846.77 840.11 838.54 839.46 844.26 848.83 853.69 856.07 860.26 866.02 872.69 875.83 880.98 884.92 889.02 897.04 904.84 911.39 918.21 927.45 935.12 943.97 951.51 953.11 952 946.69 935.66 931.86 927.38 918.35 910.71 902.83 893.1 884.54 870.77 859.3 848.91 836.35 822.38 810.17 800.33 788.11 778 768.04 761.91 762.13 762.59 763.96 764.45 764.65 766.09 766.81 767.29 768.96 778.09 787.69 793.41 799.01 813.46 828.5 845.71 869.32 888.28 905.79 926.81 941.11 951.2 961.29 979.95 993.35 1007.07 1023.58 1030.92 1024.87 1017.49 1002.63 987.7 972.53 960.66 972.71 973.91 964.93 973.15 985.77 993.99 996.13 996.83 1003.05 1002.32 998.02 992.77 988.1 978.69 969.06 955.07 947.67 942.18 936.93 934.02 933.08 932.69 936.4 935.51 941.14 947.97 953.97 960.61 966.64 968.57 964.47 958.21 948.99 938.17 926.86 913.25 904.67 896.85 884.75 878.28 873.19 868.73 866.33 867.35 868.56 870.74 875.55 878.83 895.17 910.99 927.78 944.91 958.8 976.35 986.2 971.05 958.03 947.01 938.87 932.38 928.19 912.11 906.61 910.64 910.66 903.84 893.84 893.82 895.32 898.65 910.44 923.32 938.66 953.74 970.42 989.48 998.8 1004.58 999.89 1000.33 997.48 986.37 989.67 990.74 995.22 1000.15 1008.15 1011.29 1012.3 1012.66 1004.94 998.49 993.02 986.15 975.19 963.94 951.55 943.84 933.61 922.66 911.94 898 890.07 885.07 880.07 869.98 857.5 840.02 826.02 814.16 800.43 787.56 780.78 772.86 760.6 748.5 737.07 725.71 716.36 718.12 708.51 689.22 673.64 657.19 649.98 659.38 671.86 686.59 699.77 712.23 721.6 724.14 716.86 704.1 685.58 668.82 652 634.7 627.69 633.44 622.8 605.43 588.93 572.88 555.14 538.92 525.56 508.01 494.78 484.75 477.68 473.83 472.81 469.96 461.54 460.13 462.19 455.49 9999 9999 9999 9999 9999 9999 9999 9999 9999 9999 9999 9999 9999 9999 9999 9999 9999 9999 9999 9999 9999 9999 9999 9999 9999 9999 9999 9999 9999 9999 9999 9999 9999 9999 9999 9999 9999 9999 9999 9999 9999 9999 9999 9999 9999 9999 9999 9999 9999 9999 9999 9999 9999 9999 9999 9999 9999 9999 9999 9999 9999 9999 9999 9999 9999 9999 9999 9999 9999 9999 9999 9999 9999 9999 9999 9999 9999 9999 9999 9999 9999 9999 9999 9999 9999 9999 9999 9999 9999 9999 9999 9999 9999 9999 9999 9999 9999 9999 9999 9999 9999 9999 9999 9999 9999 9999 9999 9999 9999 9999 9999 9999 9999 9999 9999 9999 9999 9999 9999 9999 9999 9999 9999 9999 9999 9999 9999 9999
860.42 856.16 850.38 841.89 840.89 843.16 848.58 854.16 857.15 860.09 864.26 869.45 874.85 880.71 885.98 890.29 895.47 901.67 909.75 916.86 925.5 934.44 944.6 958.05 962.04 966.4 965.92 961.17 957.58 950.34 944.5 930.5 920.74 915.3 902.55 890.3 874.38 865.05 854.65 841.14 827.39 816.43 808.08 794.9 785.01 775.18 766.26 764.44 764.18 765.81 766.46 766.51 767.59 767.71 767.74 769.01 776.14 784.83 791.43 797.98 806.93 819.74 844.94 862.7 882.56 899.04 915.99 935.28 944.8 961.66 975.73 988.33 999.8 1009.68 1013.11 1009.12 1002.34 994.77 979.4 963.85 949.35 947.67 949.86 946.29 962.02 973.56 981.99 985.18 986.12 988.21 987.66 986.97 989.36 986.48 979.43 968.6 961.67 959.36 956.35 945.18 942.94 941.04 943.17 948.29 952.53 958.43 963.9 964.32 971.72 975.11 977.96 975.09 967.48 958.58 945.35 931.8 922.36 914.42 906.93 900.3 895.5 886.84 875.34 874.16 874.78 874.97 881.66 884.72 895.54 904.17 919.15 936.71 952.7 970.52 984.44 978.59 962.42 948.74 935.26 924.62 917.89 907.78 894.26 884.55 892.64 894.11 889.18 881.21 872.24 873.8 885.23 902.69 916.77 931.56 952.66 962.61 970.59 983.91 985.2 984.71 986.11 981.76 973.02 968.03 969.14 977.84 992.74 1002.16 1006.83 1011.15 1011.85 1007.2 997.68 989.4 981.26 971.62 958.9 944.28 930.32 916.85 903.48 896.38 888.36 880.21 872.07 864.25 856.07 840.46 832.36 819.79 808.16 796.14 784.46 774.06 759.77 748.61 740.25 730.72 726.3 714.5 701.05 688.06 679.9 669.41 654.69 654.2 665.11 680.71 690.7 702.28 713.19 722.56 725.39 717.32 699.11 684.28 667.99 651.74 634.23 630.95 642.33 632.05 617.02 597.99 578.32 559.03 544.02 526.32 510.84 498.06 485.95 479.65 475.41 472.54 464.24 460.86 458.77 459.78 454.44 9999 9999 9999 9999 9999 9999 9999 9999 9999 9999 9999 9999 9999 9999 9999 9999 9999 9999 9999 9999 9999 9999 9999 9999 9999 9999 9999 9999 9999 9999 9999 9999 9999 9999 9999 9999 9999 9999 9999 9999 9999 9999 9999 9999 9999 9999 9999 9999 9999 9999 9999 9999 9999 9999 9999 9999 9999 9999 9999 9999 9999 9999 9999 9999 9999 9999 9999 9999 9999 9999 9999 9999 9999 9999 9999 9999 9999 9999 9999 9999 9999 9999 9999 9999 9999 9999 9999 9999 9999 9999 9999 9999 9999 9999 9999 9999 9999 9999 9999 9999 9999 9999 9999 9999 9999 9999 9999 9999 9999 9999 9999 9999 9999 9999 9999 9999 9999 9999 9999 9999 9999 9999 9999 9999 9999 9999 9999 9999
862.91 860.07 852.85 846.22 843.16 845.87 851.37 857.03 861.08 864.75 868.18 872.48 878.67 884.07 889.44 896.49 903.17 909.33 917 921.92 930.35 939.73 953.38 965.11 975.4 982.2 983.9 975.22 969.41 962.34 954.15 943.51 934.47 926.96 911.49 894.11 881.98 871.05 859.96 848.74 838.92 826.03 812.53 802.76 791.71 781.8 776.94 769.84 766.44 767.24 767.73 769 769.36 769.23 768.95 771.16 772.13 779.65 789.03 796.57 805.68 820.94 836.46 852.87 871.02 891.53 909.42 927.81 943.41 954.55 966.36 979.53 992.76 1001.04 1002.2 998.28 992.6 982.31 970.75 954.06 941.38 933.64 934.2 934.48 945.82 956.51 965 974.3 977.02 978.57 979.87 979.78 982.36 982.31 975.51 969.28 966.82 963.15 960.18 955.24 952.98 953.71 954.26 959.7 963.95 967.76 972.14 977.63 979.72 984.53 984.11 979.76 973.12 964.92 952.61 944.23 936.06 924.49 918.11 911.53 903.47 897.84 891.61 888.79 887.71 884.43 889.67 895.96 905.91 919.6 934.47 948 960.29 979.8 987.08 972.45 954.42 938.11 922.08 908.05 901.35 895.7 883.72 872.36 869.59 870.92 867.39 864.77 859.33 864.99 877.71 892.6 907.55 929.21 937.4 948.57 959.91 971.29 970.46 962.53 963.2 959.81 959 953.15 955.56 964.1 975.51 983.67 984.07 994.36 996.55 998.17 992.9 982.67 973.76 962.28 948.62 934.93 921.07 907.17 890.95 880.18 871.83 861.91 861.12 853 842.83 833.94 824.4 813.36 802.74 791.74 783.32 768.8 755.42 744.27 734.43 728.32 723.51 711.47 697.14 682.73 670.35 659.98 655.71 665.93 677.18 685.24 694.83 706.5 717 726.73 729 715.34 700.45 685.51 669.13 653.75 640.11 641.64 651.11 639.14 621.6 594.93 576.52 560.38 547.18 531.06 513.71 499.74 486.46 479.43 472.97 469.49 465.53 461.88 458.53 454.39 9999 9999 9999 9999 9999 9999 9999 9999 9999 9999 9999 9999 9999 9999 9999 9999 9999 9999 9999 9999 9999 9999 9999 9999 9999 9999 9999 9999 9999 9999 9999 9999 9999 9999 9999 9999 9999 9999 9999 9999 9999 9999 9999 9999 9999 9999 9999 9999 9999 9999 9999 9999 9999 9999 9999 9999 9999 9999 9999 9999 9999 9999 9999 9999 9999 9999 9999 9999 9999 9999 9999 9999 9999 9999 9999 9999 9999 9999 9999 9999 9999 9999 9999 9999 9999 9999 9999 9999 9999 9999 9999 9999 9999 9999 9999 9999 9999 9999 9999 9999 9999 9999 9999 9999 9999 9999 9999 9999 9999 9999 9999 9999 9999 9999 9999 9999 9999 9999 9999 9999 9999 9999 9999 9999 9999 9999 9999 9999 9999
866.61 862.17 855.46 850.01 847.21 849.97 856.37 862.48 865.85 869.03 872.08 876.81 882.95 888.6 896.99 901.63 908.63 914.61 922.53 931.27 939.29 952.63 959.52 971.78 983.4 991 995.87 993.56 987.12 977.92 962.82 951.69 942.16 934.85 925.91 915.68 904.9 892.84 872.94 859.38 845.23 835.69 824.78 814.1 801.92 790.52 787.46 778.87 773.25 769.05 770.01 770.91 772.37 771.8 771.39 771.31 773.09 775.41 780.5 792.46 808.08 817.28 831.28 846.83 866.4 883.04 898.59 918.18 935.85 948.23 960.59 972.21 981.97 988.41 988.05 990.86 983.68 975.45 964.06 948.81 926.48 914.04 911.69 924.42 937.69 946.01 953.93 955.23 959.31 964.5 971.73 973.4 975.31 975.17 972.64 968.84 966.55 964.69 961.8 959.65 959.49 958.85 963.39 970.01 972.25 972.46 978.64 981.01 982.48 986.23 987 984.88 980.67 968.7 960.33 953.12 946.3 942.49 937.11 927.66 914.72 909.61 904.12 901.35 899.85 900.16 906.69 912.88 917 929.71 943.2 958.06 975.32 986.91 982.11 968.25 950.32 932.65 916.27 895.67 882.85 875.72 868.14 861.17 855.16 857.18 851.68 842.73 846.15 856.11 872.13 886.04 910.57 921.77 922.02 927.89 940.17 952.85 955.34 947.69 946 943.71 937.52 929.62 932.7 952.13 962.89 968.15 967.27 971.14 977.02 987.41 987.65 981.16 973.51 961.68 948.79 933.43 911.73 895.54 884.22 871.59 860.52 850.62 842.22 833.15 827.09 825.73 816.69 808.19 798.89 788.76 775.44 764.7 750.7 741.04 730.41 718.55 710.97 702.87 691.84 678.28 667.48 658.03 662.24 676.37 687.78 699.1 707.07 710.45 720.89 730.12 727.13 715.25 700.14 683.77 667.83 653.42 639.34 646.47 654.99 641.4 614.12 593.07 574.95 560.33 547.51 530.01 514.04 499.39 488.02 478.69 474.49 470.67 467.05 463.67 457.85 9999 9999 9999 9999 9999 9999 9999 9999 9999 9999 9999 9999 9999 9999 9999 9999 9999 9999 9999 9999 9999 9999 9999 9999 9999 9999 9999 9999 9999 9999 9999 9999 9999 9999 9999 9999 9999 9999 9999 9999 9999 9999 9999 9999 9999 9999 9999 9999 9999 9999 9999 9999 9999 9999 9999 9999 9999 9999 9999 9999 9999 9999 9999 9999 9999 9999 9999 9999 9999 9999 9999 9999 9999 9999 9999 9999 9999 9999 9999 9999 9999 9999 9999 9999 9999 9999 9999 9999 9999 9999 9999 9999 9999 9999 9999 9999 9999 9999 9999 9999 9999 9999 9999 9999 9999 9999 9999 9999 9999 9999 9999 9999 9999 9999 9999 9999 9999 9999 9999 9999 9999 9999 9999 9999 9999 9999 9999 9999 9999 9999
870.23 865.81 860.91 852.93 849.11 852.94 862.75 868.36 872.3 874.93 875.37 880.24 886.74 895.47 902.19 910.23 919.48 925.45 928.95 940.06 949.46 958.83 970.19 981.45 992.73 999.95 1007.55 1004.39 998.37 989.47 976.85 964.59 954.22 940.68 935.92 927.31 919.14 908 894.29 873.58 859.14 844.64 832.66 821.55 809.23 800.04 795.46 790.81 782.73 775.72 771.01 772.2 774.57 774.35 774.73 774.78 774.2 775.18 777.01 787.88 799.82 810.79 823.5 844.15 860.3 880.68 895.89 911.18 923.75 936.32 948.59 962.71 972.82 977.9 977.9 975.5 970.88 963.84 954.98 936.57 919.46 906.01 900.55 909.61 919.75 927.99 938.19 941.83 945.7 950.79 955.06 959.38 964.89 966.49 968.79 966.42 963.82 963.65 963.57 964.11 965.9 964.67 967.01 971.63 973.64 979.41 980 982.95 984.6 985.73 986 985.41 981.09 975.33 971.51 965.8 958.19 955.77 948.01 940.55 933.52 927.74 923.43 919.27 911.62 914.52 919.32 926.27 934.92 946.56 956.62 966.79 978.99 986.38 981.52 967.96 950.05 932.07 908.59 892.24 877.15 864.91 854.07 844.81 835.41 835.09 836.3 830.36 838.78 847.76 860.79 880.79 895.16 907.1 906.89 915.36 928.15 939.81 932.09 926.55 922.37 928.18 921.55 916.25 922.67 933.77 943.8 943.54 952.04 956.07 967.38 985.93 987.5 980.68 972.9 961.8 949.33 928.98 911.61 896.08 878.71 864.05 849.22 839.99 828.14 820.27 813.89 807.52 802.04 794.64 788 778.12 767.91 755.12 742.77 731.5 720.11 702.68 698.14 693.65 684.21 674.08 663.25 664.72 679.64 684.9 695.78 706.1 715.94 723.86 731.42 733.93 724.88 710.02 695.24 678.98 662.5 645.55 649.97 658.7 658.59 631.49 611.26 584.1 579.95 566.77 547.46 530.12 510.98 499.22 487 480.84 476.12 470.55 467.9 464.5 456.18 9999 9999 9999 9999 9999 9999 9999 9999 9999 9999 9999 9999 9999 9999 9999 9999 9999 9999 9999 9999 9999 9999 9999 9999 9999 9999 9999 9999 9999 9999 9999 9999 9999 9999 9999 9999 9999 9999 9999 9999 9999 9999 9999 9999 9999 9999 9999 9999 9999 9999 9999 9999 9999 9999 9999 9999 9999 9999 9999 9999 9999 9999 9999 9999 9999 9999 9999 9999 9999 9999 9999 9999 9999 9999 9999 9999 9999 9999 9999 9999 9999 9999 9999 9999 9999 9999 9999 9999 9999 9999 9999 9999 9999 9999 9999 9999 9999 9999 9999 9999 9999 9999 9999 9999 9999 9999 9999 9999 9999 9999 9999 9999 9999 9999 9999 9999 9999 9999 9999 9999 9999 9999 9999 9999 9999 9999 9999 9999 9999 9999
872.49 868.7 863.04 857.11 852.75 860.11 866.63 872.24 876.91 878.14 880.53 885.34 894.69 899.38 906.92 915.97 924.97 931.45 942.07 951.6 961.29 966.79 977.7 989.29 1000.33 1016.7 1024.61 1021.37 1015.61 1000.48 987.21 970.92 957.7 948.07 940.62 934.48 926.99 918.72 902.95 887.18 870.6 857.85 844.49 831.53 815.03 806.77 800.44 794.19 790.95 785.73 776.22 773.9 775.52 776.58 776.91 776.51 776.89 777.44 778.49 781.74 792.33 804.27 818.33 836.44 854.83 869.74 885.74 905.02 918.11 929.55 940.89 952.77 957.81 961.09 967.24 966.08 962.14 953.19 941.52 926.55 908.75 893.32 890.89 897.88 907.52 911.02 914.82 918.6 927.2 937.51 942.33 948.13 955.08 959.84 959.57 959.29 959.26 961.22 961.77 963.84 968.17 969.69 970.99 974.15 976.11 977.4 980.28 982.99 985.45 983.47 986.04 985.13 982.72 977.04 974.21 971.19 972.48 971.6 965.51 952.95 945.75 941.79 937.29 932.95 932.52 934.72 939.14 939.44 948.31 958.85 971.37 978.34 981.9 986.27 984.15 968.22 949.99 925.3 907.24 890.43 873.8 859.17 846.76 831.96 824.94 819.95 815.68 817.74 823.7 838.66 858.02 873.91 883.06 884.52 888.16 897.65 919.62 927.14 920.66 914.05 908.39 903.5 898.75 895.93 911.3 923.12 930.6 928.24 929.17 946.31 960.49 977.16 983.44 982.15 973.62 963.09 946.49 933.42 919 901.13 886.93 871.05 854.98 831.28 815.96 802.92 799.28 794.87 789.31 779.6 772.75 763.89 754.15 746.96 735.01 722.09 704.38 693.93 684.77 677.2 671.61 667.2 666.69 676.81 689.72 700.87 708.63 718.1 723.32 732.58 734.07 727.67 713.36 697.58 682.94 671.59 651.68 650.5 656.18 662.09 650.67 627.47 602.62 592.34 583.89 567.09 545.82 527.61 515.16 499.64 488.65 480.91 476.3 472.71 468.69 460 453.32 9999 9999 9999 9999 9999 9999 9999 9999 9999 9999 9999 9999 9999 9999 9999 9999 9999 9999 9999 9999 9999 9999 9999 9999 9999 9999 9999 9999 9999 9999 9999 9999 9999 9999 9999 9999 9999 9999 9999 9999 9999 9999 9999 9999 9999 9999 9999 9999 9999 9999 9999 9999 9999 9999 9999 9999 9999 9999 9999 9999 9999 9999 9999 9999 9999 9999 9999 9999 9999 9999 9999 9999 9999 9999 9999 9999 9999 9999 9999 9999 9999 9999 9999 9999 9999 9999 9999 9999 9999 9999 9999 9999 9999 9999 9999 9999 9999 9999 9999 9999 9999 9999 9999 9999 9999 9999 9999 9999 9999 9999 9999 9999 9999 9999 9999 9999 9999 9999 9999 9999 9999 9999 9999 9999 9999 9999 9999 9999 9999 9999
875.44 870.69 865.98 859.59 856.36 863.23 872.23 878.99 883.13 882.35 884.45 892.4 898.75 907.37 915.79 925.17 933.15 939.61 947.56 957.83 968.26 979.26 990.9 1002.46 1013.84 1025.39 1036.33 1033.92 1026.69 1017.66 999.21 982.98 963.4 953.22 945.03 938.82 934.29 928.61 918.85 897.73 881.24 866.11 852.36 829.94 819.32 812.35 806.66 798.33 795.22 790.93 781.21 776.99 777.38 779.48 778.38 779.44 778.63 780.05 781.31 783.82 790.67 800.61 814.22 833.38 848.48 863.38 880.06 895.89 911.32 921 938.99 947.21 951.94 954.05 957.24 955.29 951.48 946.24 936.77 920.51 903.55 886.17 876.26 881.59 886.01 897.53 899.67 906.86 914.07 918.43 922.04 931.16 946.08 950.48 951.69 953.04 956.97 958.39 958.78 962.13 966.47 966.93 970.43 970.48 971.02 971.99 973.77 977.93 978.89 981.67 982.62 983.06 981.1 981.93 979.54 976.56 978.38 979.73 975.43 970.67 967.14 962.1 950.89 947.27 946.44 948.31 952.97 959.09 967.63 979.02 983.4 989.65 991.8 990.4 981.31 960.8 941.98 925.54 907.44 890.39 873.96 857.82 837.91 823.77 811.99 808.08 804.94 809.18 815.32 833.06 847.87 859.4 867.6 869.97 876.67 891.31 902.99 906.36 903.12 895.87 895.33 890.37 883.43 883.53 894.89 908.41 909.18 912.52 922.99 937.54 947.6 959.46 972.11 982.7 975.42 959.47 947.73 936.09 924.18 911.03 895.9 878.49 854.04 836.4 821.09 807.07 792.87 780.36 766.54 764.94 758.74 751.5 743.27 733.66 720.99 704.02 695.18 688.66 682.87 678.11 672.71 676.14 684.65 694.09 700.02 709.78 718.27 726 734.25 738.4 729.7 719.82 704.77 690.13 669.02 655.35 651.08 659.49 663.48 661.12 646.12 619.08 602.95 593.21 575.97 557.82 541.82 528.57 512.47 498.21 487.59 479.95 475.86 472.29 467.42 460.55 453.11 9999 9999 9999 9999 9999 9999 9999 9999 9999 9999 9999 9999 9999 9999 9999 9999 9999 9999 9999 9999 9999 9999 9999 9999 9999 9999 9999 9999 9999 9999 9999 9999 9999 9999 9999 9999 9999 9999 9999 9999 9999 9999 9999 9999 9999 9999 9999 9999 9999 9999 9999 9999 9999 9999 9999 9999 9999 9999 9999 9999 9999 9999 9999 9999 9999 9999 9999 9999 9999 9999 9999 9999 9999 9999 9999 9999 9999 9999 9999 9999 9999 9999 9999 9999 9999 9999 9999 9999 9999 9999 9999 9999 9999 9999 9999 9999 9999 9999 9999 9999 9999 9999 9999 9999 9999 9999 9999 9999 9999 9999 9999 9999 9999 9999 9999 9999 9999 9999 9999 9999 9999 9999 9999 9999 9999 9999 9999 9999 9999 9999
877.03 873.3 869.05 861.89 858.77 866.14 875.07 882.45 887.22 888.74 892.06 897.97 903.19 911.98 922.09 930.01 943.44 953.17 961.47 970.24 976.08 987.4 998.41 1014.26 1025.88 1038.45 1049.5 1049.04 1041.33 1024.37 1009.52 994.01 980.99 969.64 959.52 946.41 940.16 935.2 927.32 913.79 895.17 876.33 856.73 837.16 825.3 818.47 813.72 806.65 798.76 793.58 788.13 781.12 779.14 780.94 781.17 782.41 781.82 782.51 782.19 784.81 790.65 799.94 817.31 830.8 842.98 858.1 872.97 888.97 903.07 919.38 931.48 944.08 949.88 953.07 953.11 951.04 947.32 941.66 928.47 912.42 896.73 880.64 865.73 867.96 871.25 873.71 879.72 888.49 900.16 903.58 910.2 920.1 930.44 933.76 937.69 948.24 951.1 955.25 957.2 962.18 963.18 963.94 962.6 963.93 964.69 964.23 965.28 966.89 966.59 967.65 969.76 975.32 979.11 982.11 980.33 983.94 985.73 986.85 982.71 980.72 977.95 973.04 969.36 968.31 968.6 963.48 967.97 972.95 983.06 991.99 997.93 1003.17 996.91 986.32 967.48 953.2 937.51 922.29 906.84 889.65 873.6 850.11 836.54 820.91 807.17 796.72 794.08 799.6 812.8 826.86 840.73 845.26 845.82 851.74 863.29 880.3 890.77 891.8 892.14 884.45 877.5 869.51 863.72 872.26 885.76 896.85 893.86 894.44 906.66 917.14 934.6 949.37 965.99 976.51 969.17 957.19 945.39 934.32 922.8 909.73 890.07 874.35 860.6 846.3 830.14 812.51 797.43 779.85 769.19 758.9 748.79 739.99 732.65 723.11 711.33 702.67 695.39 689.57 684.33 679.79 680.85 688.77 696.11 705.18 715.36 725.83 735.21 737.87 741.59 735.83 722.72 707.97 692.84 671.79 660.25 650.82 656.61 663.66 659.46 647.23 628.66 613.65 601.81 585.19 567.74 551.13 535.58 524.68 510.17 497.19 486.35 479 473.54 471.06 469.25 461.98 453 9999 9999 9999 9999 9999 9999 9999 9999 9999 9999 9999 9999 9999 9999 9999 9999 9999 9999 9999 9999 9999 9999 9999 9999 9999 9999 9999 9999 9999 9999 9999 9999 9999 9999 9999 9999 9999 9999 9999 9999 9999 9999 9999 9999 9999 9999 9999 9999 9999 9999 9999 9999 9999 9999 9999 9999 9999 9999 9999 9999 9999 9999 9999 9999 9999 9999 9999 9999 9999 9999 9999 9999 9999 9999 9999 9999 9999 9999 9999 9999 9999 9999 9999 9999 9999 9999 9999 9999 9999 9999 9999 9999 9999 9999 9999 9999 9999 9999 9999 9999 9999 9999 9999 9999 9999 9999 9999 9999 9999 9999 9999 9999 9999 9999 9999 9999 9999 9999 9999 9999 9999 9999 9999 9999 9999 9999 9999 9999 9999 9999
877.95 874.68 868.93 863.68 862.96 868.21 877.85 885.58 891.34 892.69 896.47 902.67 910.63 920.76 931.41 942.12 952.65 962.21 970.83 980.54 990.19 1000.73 1015.17 1022.41 1034.8 1046.88 1058.4 1067.06 1057.78 1043.26 1027.09 1005.59 990.55 979.82 967.77 954.36 946.66 941.76 932.22 920.27 900.27 879.91 865.08 851.52 840.69 832.46 820.89 813.29 802.81 796.39 794.21 791.58 786.47 781.92 783.93 783.81 784.41 785.49 785.28 785.63 788.64 801.53 814.04 827.24 838.9 850.43 863.67 881.07 894.59 913.29 926.22 937.45 944.41 945.72 944.99 943.14 943.05 935.84 923.46 909.35 891.59 868.23 856.05 853.43 857.18 860.02 866.8 874.43 878.29 884.85 893.96 910.31 920.36 924.62 930.06 935.99 940.03 945.61 949.14 955.89 956.62 955.31 952.53 951.49 950.94 950.27 956.86 953.56 953.11 953.66 954.52 960.17 967.67 969.25 977.36 982.47 986.42 986.69 986.88 988.16 987.5 982.09 981.13 982.35 983.8 986.8 989.18 994.4 996.02 1000.55 1004.63 1002.2 991.22 970.47 955.21 939.74 928.97 914.12 898.8 883.37 862.38 845.88 829.09 816.01 803.98 794.25 787.81 793.07 801.67 814.82 823.9 830.42 832.88 842.35 851.6 863.01 870.12 868.74 877.4 871.75 863.61 857.75 852.52 857.91 871.72 878.02 878.07 882.5 894.97 907.33 922.08 938.26 950.9 963.24 962.89 954.93 943.89 933.99 924.35 911.16 896.9 881.13 864.27 847.51 828.96 815.77 804.46 795.94 779.42 769.6 759.63 750.62 737.07 726.29 713.5 702.71 696.81 686.81 683.14 690.6 701.93 709.31 715.11 715.32 724.15 734.14 745.61 747.03 735.29 722.47 713.74 698.75 678.75 663.3 655.01 659.68 662.77 659.3 647.7 630.96 617.76 604.25 589.8 574.61 558.62 543.57 532.85 519.79 506.01 493.75 482.22 475.85 472.53 471.88 469.37 462.07 452.51 9999 9999 9999 9999 9999 9999 9999 9999 9999 9999 9999 9999 9999 9999 9999 9999 9999 9999 9999 9999 9999 9999 9999 9999 9999 9999 9999 9999 9999 9999 9999 9999 9999 9999 9999 9999 9999 9999 9999 9999 9999 9999 9999 9999 9999 9999 9999 9999 9999 9999 9999 9999 9999 9999 9999 9999 9999 9999 9999 9999 9999 9999 9999 9999 9999 9999 9999 9999 9999 9999 9999 9999 9999 9999 9999 9999 9999 9999 9999 9999 9999 9999 9999 9999 9999 9999 9999 9999 9999 9999 9999 9999 9999 9999 9999 9999 9999 9999 9999 9999 9999 9999 9999 9999 9999 9999 9999 9999 9999 9999 9999 9999 9999 9999 9999 9999 9999 9999 9999 9999 9999 9999 9999 9999 9999 9999 9999 9999 9999 9999
880.53 875.2 872.47 866.57 865.73 870.32 879.02 888.32 893.86 897.51 902.09 907.23 916.7 928.42 943.54 955.34 966.77 976.6 985.44 990.37 1003.57 1014.08 1024.78 1035.83 1047.02 1059.04 1067.16 1080.43 1073.94 1057.59 1039.64 1021.89 1003.62 991.03 972.6 959.76 952.56 948.19 941.52 923.1 901.39 885.97 871.9 859.61 849.53 841.82 834.19 820.63 814.12 803.42 797.96 795.98 793.31 785.26 786.27 787.24 787.84 787.4 787.25 787.68 791.62 801.05 810.31 822.12 834.12 846.97 865.97 880.1 892.9 906.23 916.44 925.27 937.42 940.99 939.73 938.66 934.96 925.06 912.11 898.79 882.47 865.18 851.19 846.8 844.28 843.76 849.67 859.49 866.31 874.51 885.41 897.93 907.42 910.78 920.74 926.02 932.26 937.16 941.33 944.45 942.58 940.25 942.62 943.2 943.76 941.91 935.49 931.28 930.99 937.86 940.87 948 954.65 959.69 969.52 975.89 982.54 986.45 987.67 989.06 988.79 989.82 992.47 996.31 995.01 992.99 988.54 984.99 981.58 982.23 980.47 977.48 979.15 964.67 947.54 931.77 917.37 903.72 887.77 869.69 855.29 839.84 824.25 809.87 797.03 789.18 780.93 783.07 792.61 805.58 809.28 809.09 817.31 826.4 841.76 854.43 856.4 852.66 853.75 853.27 846.37 845.31 840.95 848.23 859.02 859.79 859.57 868.33 880.6 899.19 915.29 935.12 939.36 941.69 945.7 950.89 943.71 937.65 926.49 910.24 893.58 876.82 859.61 848.47 835.54 824.34 816.29 805.51 795.31 783.7 774.83 755.89 744.66 732.08 718.83 706.83 691.56 680.07 684.63 696.62 711.32 721.82 728.75 733.72 744.56 750.19 750.46 738.29 726.28 712.6 697.25 678.42 665.05 657.26 658.66 662.41 654.19 642.32 626.11 613.39 606.55 593.77 580.15 564.96 547.44 534.66 522.12 509.25 499.98 489.32 480.59 473.42 471.98 471.51 467.25 461.31 453.12 9999 9999 9999 9999 9999 9999 9999 9999 9999 9999 9999 9999 9999 9999 9999 9999 9999 9999 9999 9999 9999 9999 9999 9999 9999 9999 9999 9999 9999 9999 9999 9999 9999 9999 9999 9999 9999 9999 9999 9999 9999 9999 9999 9999 9999 9999 9999 9999 9999 9999 9999 9999 9999 9999 9999 9999 9999 9999 9999 9999 9999 9999 9999 9999 9999 9999 9999 9999 9999 9999 9999 9999 9999 9999 9999 9999 9999 9999 9999 9999 9999 9999 9999 9999 9999 9999 9999 9999 9999 9999 9999 9999 9999 9999 9999 9999 9999 9999 9999 9999 9999 9999 9999 9999 9999 9999 9999 9999 9999 9999 9999 9999 9999 9999 9999 9999 9999 9999 9999 9999 9999 9999 9999 9999 9999 9999 9999 9999 9999 9999
880.63 878.15 874.85 871.4 870.13 873.26 882.65 888.67 894.59 899.66 905.94 913.85 925.2 942.41 951.49 964.07 974.31 985.3 994.47 1008.27 1017.53 1028.16 1034.82 1045.03 1056.77 1068.81 1084.89 1095.26 1092.31 1070.43 1051.63 1031.88 1010.77 997.74 984.43 972.05 965.35 955.57 948.63 925.67 910.05 898.69 885.2 869.28 856.35 846.59 837.33 825 817.26 813.06 804.87 799.63 794.67 790.28 787.86 789.01 790.57 790.87 791.18 791.45 790.66 796.58 805.27 814.96 825.14 843.51 857.15 875.01 889.22 901.63 915.76 923.87 927.62 931.95 934.11 935.63 926.39 916.27 901.45 890.1 876.29 862.28 848.3 840.43 838.43 835.86 836.26 841.2 850.91 863.46 878.31 892.61 897.68 901.07 904.8 910.24 917.95 929.44 934.65 936.1 934.22 931.14 932.02 933.21 930.61 928.64 922.14 916.41 914.44 915.24 919.73 926.29 939.78 951.34 961.98 969.5 974.59 979.64 986.44 987.72 990.18 992.29 995.78 994.46 979.69 969.6 963.59 968.14 964.66 964.81 963.8 958.62 961.77 957.8 942.61 927.25 913.04 893.39 877.49 861.02 846.72 833.06 819.09 804.93 791 787.01 779.42 773.48 778.45 784.56 793.94 800.18 807.39 817.76 829.12 837.31 836.61 837.19 838.42 841.02 834.41 827.94 825.89 830.13 837.49 844.72 849.51 861.09 876.23 893.27 912.8 918.22 924.68 926.93 931.48 940.57 947.36 939 922.71 907.2 890.24 876.66 867.39 859.46 852.28 842.93 831.79 815.65 803.58 790.91 774.66 761.6 750.52 735.2 720 706.14 690.41 684.23 694.46 706.89 721.11 730.53 740.62 747.71 753.74 752.52 738.38 724.72 710.56 702.01 682.18 668.94 661.06 662.3 657.63 646.83 638.25 627.15 615.41 602.32 588.86 577.26 564.95 552.58 541 528.78 515.1 502.94 492.09 483.04 474.62 473.05 470.38 470.87 463.58 457.19 9999 9999 9999 9999 9999 9999 9999 9999 9999 9999 9999 9999 9999 9999 9999 9999 9999 9999 9999 9999 9999 9999 9999 9999 9999 9999 9999 9999 9999 9999 9999 9999 9999 9999 9999 9999 9999 9999 9999 9999 9999 9999 9999 9999 9999 9999 9999 9999 9999 9999 9999 9999 9999 9999 9999 9999 9999 9999 9999 9999 9999 9999 9999 9999 9999 9999 9999 9999 9999 9999 9999 9999 9999 9999 9999 9999 9999 9999 9999 9999 9999 9999 9999 9999 9999 9999 9999 9999 9999 9999 9999 9999 9999 9999 9999 9999 9999 9999 9999 9999 9999 9999 9999 9999 9999 9999 9999 9999 9999 9999 9999 9999 9999 9999 9999 9999 9999 9999 9999 9999 9999 9999 9999 9999 9999 9999 9999 9999 9999 9999 9999
882.79 881.69 876.99 875.29 873.64 877.93 885.87 890.51 898.1 903.28 909.37 918.21 933.81 947.19 960.32 974.07 987.4 994.55 1009.02 1018.16 1028.14 1039.21 1049.12 1059.78 1071.22 1082.22 1094.09 1104.37 1106.47 1088.49 1070.03 1045.02 1030.05 1008.23 995.32 982.47 976.08 968.62 954.66 937.05 921.11 907.99 894.48 876.44 859.64 850.93 843.23 831.79 821.63 816.3 810.04 801.47 798.16 796.62 792.85 791.34 793.38 793.72 793.37 794.07 793.61 793.66 797.7 807.72 822.84 834.59 847.49 861.25 876.43 890.84 908.69 919.78 924.41 926.74 925.26 922.69 914.86 899.51 893.59 883.08 874.65 863.8 850.3 836.22 828.27 827.45 827.73 833.39 843.94 857.97 871.71 878.86 883.61 892.4 896.07 901.83 910.75 917.55 921.49 921.17 917.5 922.06 923.2 919.61 913.95 907.6 900.06 894.63 898.56 900.88 907.01 911.26 921.09 935.66 946.43 954.69 965.48 974.73 980.83 983.69 985.22 987.8 988.35 980.37 966.83 953.74 946.52 941.65 938.44 939.41 944.44 940.7 944.85 951.35 942.24 926.1 903.69 888.49 874.28 859.4 844.74 831.36 816.8 797.95 786.71 782.99 776.93 772.45 769.03 773.75 778.14 786.38 793.47 806.63 819 824.43 821.43 814.63 814.72 817.68 823.56 817.21 815.7 819.72 823.85 829.42 838.43 852.05 870.4 890.38 903.1 906.59 902.81 905.54 912.71 929.12 938.58 932.72 918.59 905.43 898.02 893.77 879 873.2 865.23 855.59 841.94 827.4 813.08 793.48 777.27 763.89 748.71 732.11 717.01 696.29 686.82 690.12 703.2 716.31 728.84 740.77 754.64 754.76 751.73 740.67 727.44 713.23 699.84 679.64 668.91 665.54 663.69 658.55 647.65 632.61 620.94 608.99 597.39 591.3 577.67 565.53 550.33 538.7 525.55 513.93 505.6 496.89 485.54 477.33 472.75 469.15 468.61 465.44 461.26 452.07 9999 9999 9999 9999 9999 9999 9999 9999 9999 9999 9999 9999 9999 9999 9999 9999 9999 9999 9999 9999 9999 9999 9999 9999 9999 9999 9999 9999 9999 9999 9999 9999 9999 9999 9999 9999 9999 9999 9999 9999 9999 9999 9999 9999 9999 9999 9999 9999 9999 9999 9999 9999 9999 9999 9999 9999 9999 9999 9999 9999 9999 9999 9999 9999 9999 9999 9999 9999 9999 9999 9999 9999 9999 9999 9999 9999 9999 9999 9999 9999 9999 9999 9999 9999 9999 9999 9999 9999 9999 9999 9999 9999 9999 9999 9999 9999 9999 9999 9999 9999 9999 9999 9999 9999 9999 9999 9999 9999 9999 9999 9999 9999 9999 9999 9999 9999 9999 9999 9999 9999 9999 9999 9999 9999 9999 9999 9999 9999 9999 9999 9999
