640.45 641.4 644.63 645.95 646.43 646.95 646.45 644.8 644.44 644.67 645.03 644.81 644.4 642.64 641.94 640.26 638.56 637.71 635.33 634.66 633.11 631.96 630.38 628.33 627.43 626.37 626.64 625.88 624.17 623.4 623.1 621.82 622.04 621.98 621.82 622.41 623.57 624.64 625.36 626.8 629.25 630.53 633.14 635.89 638.83 641.42 643.78 647.13 650.44 654.04 658.13 661.31 666.28 669.79 673.01 677.31 678.88 681.15 684.03 686.08 687.64 688.97 690.41 693.09 694.29 695.44 696.28 695.93 695.05 694.18 692.28 691.66 688.14 685.53 683.62 682.11 680.22 678.96 674.01 672.24 669.87 667.91 665.98 663.17 660.93 657.62 654.35 651.57 649.34 646.71 644 643.15 642.4 641.66 640.99 639.88 639.63 639.47 639.01 637.19 636.03 633.03 630.26 630.21 632.39 633.86 635.33 636.6 637.3 638.47 639.67 640.23 642.44 643.33 644.62 646.31 647.41 649.02 650.64 652.8 653.38 655.14 655.45 656.1 657.12 658.12 657.01 657.92 658.74 659.28 659.72 661.27 662.16 663.59 664.4 665.78 667.03 668.24 670.41 672.44 674.65 676.33 676.51 677.47 680.52 684.63 685.69 685.9 687.65 689.86 687.55 689.6 691.66 692.96 692.98 692.34 689.51 686.2 683.01 680.29 681.36 682.26 682.29 678.86 673.54 663.57 657.82 653.47 651.85 649.97 649.81 648.17 645.99 643.02 641.79 640.07 639.79 638.65 638.02 636.47 634.53 633.24 632.04 631.23 630.16 629 628.51 628.06 627.22 627.25 627.25 627.71 627.82 627.79 628.08 627.1 627.85 628.01 627.41 627.11 627.24 627.08 628.22 629.17 630.15 631.23 632.44 633.74 634.96 635.55 636.36 636.53 634.55 634.64 634 632.76 631.75 632.32 633.19 635.44 636.25 636.81 637.15 638.73 640.62 641.46 641.05 640.41 639.77 641.42 641.94 642.79 643.43 644.79 645.34 644.51 646.24 647.91 647.98 651.19 654.02 656.88 659.67 662.45 665.24 666.51 668.37 669.23 669.63 670.16 669.57 669.31 668.84 668.29 667.78 667.83 666.62 666.63 664.55 663.34 662.75 662.04 661.67 661.62 660.81 661.2 660.62 661.06 660.6 660.56 659.8 658.19 657.42 656.94 656.63 656.71 656.5 656.19 655.86 657.03 657.86 9999 9999 9999 9999 657.11 660.5 662.43 664.78 666.2 667.39 668.82 670.45 672.08 672.67 674.68 676.14 677.21 677.66 678.47 678.08 679.33 679.8 679.86 677.34 673.45 9999 9999 674.6 676.99 680.62 683.93 685.48 688.65 691.03 693.43 694.37 694.39 695.22 695.27 694.31 692.93 691.58 690.88 689.84 688.77 685.36 684.48 682.15 679.15 677.11 674.16 673.33 672.38 672.86 674.89 677.04 675.66 673.75 671.89 670.11 667.57 665.86 665.81 665.02 664.94 663.37 662.56 661.56 659.46 658.58 658.7 661.77 664.6 666.27 668.74 668.12 669.6 672.02 673.24 675.99 677.42 678.59 680.47 681.81 684.54 690.26 700.18 709.62 718.2 725.95 731.6 739.07 744.7 751.89 755.87 759.55 761.52 761.13 759.12 761.34 764.04 765.6 766.9 768.42 764.42 758.24 754.18 753.01 753.09 752.3 750.51 749.23 747.38 747.25 746.89 748.46 751.08 749.42 748.69 744.84 735.2 731.7 728.15 724.6 722.1 720.36 718.55 715.88 716.84 719.13 719.6 719.64 718.01 717.8 717.33 710.2 703.85 695.47 686.11 675.27 663.8 655.9 647.63 644.78 641.33 636.23 630.05 624.71 622.01 619.29 614.03 606.23 601.11 591.43 582.71 568.91 561.48 563.64 572.36 572.06 570.72 568.51 562.79 558.24 550.22 542.45 536.08
645.79 647.08 648.59 650.22 650.54 650.51 650.84 650.85 650.06 649.67 647.9 646.69 646.82 645.41 644.88 643.36 642.8 640.37 638.22 636.69 635.86 634.82 633.68 632.54 631.4 630.92 629.07 628.2 626.78 625.95 624.91 624.91 625.3 624.45 623.53 623.42 624.6 625.3 626.68 627.48 628.37 630.42 631.96 634.59 638.02 639.72 643.06 645.05 648.83 651.58 656.37 660.34 663.87 667.94 670.33 673.25 675.18 678.96 681.92 684.19 685.88 688.13 690.25 691.82 693.56 694.95 695.32 695.39 694.64 693.38 690.82 689.82 687.09 685.14 684.67 682.09 680.59 677.14 674.72 672.48 670.87 668.89 666.62 663.82 660.19 657.4 655.69 653.07 650.48 647.64 645.35 642.91 643.17 642.25 641.48 640.76 640.98 640.61 639.28 638.5 636.65 633.62 631.1 631.31 634.25 635.26 636.91 637.52 638.64 639.69 640.87 643.02 644.43 645.96 645.61 647.32 648.73 651.38 652.62 654.05 655.28 656.86 657.86 658.62 659.39 660 660.41 660.45 660.75 660.29 661.29 662.81 664.4 665.08 666.94 667.67 669.6 671.08 672.87 674.71 677.11 679.39 681.35 685.73 690.02 688.27 690.01 692.27 694.97 697.51 698.13 698.95 700.75 700.24 700.49 699.36 694.96 690.86 688.16 686.96 686.42 685.02 684.23 681.84 674.81 668.06 662.53 659.38 656.83 652.84 652.36 650.5 648.63 647.65 645.22 643.84 641.65 640.95 640.16 638.54 637.15 637.48 635.98 634.07 632.36 631.15 629.52 629.11 628.57 627.82 628.1 628.6 628.18 628.61 629.09 628.98 628.91 629.28 628.48 628 627.8 627.95 628.31 629.17 630.22 631.02 632 633.06 635.5 635.55 636.8 637.05 636.86 637.14 636.44 635.13 633.85 632.1 633.17 634.9 636.48 637.04 637.95 639.08 639.96 640.96 641 641.9 640.84 642.64 642.77 643.94 645.38 645.56 646.34 646.03 646.85 647.99 649.92 651.03 654.06 656.84 659.48 662.45 665.26 668.45 669.29 670.46 671 670.94 671.3 670.9 670.83 669.41 669 669.03 667.84 667.54 666.43 665.42 664.61 662.93 662.57 662.73 662.62 662.41 661.48 661.53 662.16 660.37 659.78 658.08 657.32 656.77 656.87 656.94 656.76 656.82 656.42 657.66 657.2 9999 9999 9999 657.06 658.04 659.22 661.28 663.61 665.23 665.76 667.97 669.97 670.59 671.94 673.55 673.79 675.12 677.38 677.89 676.34 676.65 677.53 678.78 674.15 9999 672.96 674.08 675.44 677.9 680.03 682.64 685.19 686.88 689.53 691.52 692.44 693.3 693.73 694.14 694.6 694.87 693.34 692.28 691.52 689.57 687.33 685.7 683.41 680.27 677.99 675.99 674.14 674.8 676.21 677.73 678.9 678.36 676.57 674.49 672.65 671.4 670.43 670.12 668.09 667.5 667.02 665.58 664.12 662.54 663.04 660.38 664.08 667.16 669.33 670.62 672.3 673.84 675.99 677.42 678.51 680.48 681.53 683.93 688.73 694.72 706.38 710.74 720.31 726.24 731.16 738.52 747.51 753.95 756.51 760.29 763.39 765.17 767.92 768.21 768.95 769.64 769.57 771.93 772.51 771.2 766.43 765.2 764.46 758.92 756.55 755.55 753.35 753.5 753.49 753.27 754.84 759.69 760.52 756.28 751.33 746.25 742.1 739.25 732.49 729.15 726.45 725.64 726.57 725.65 725.06 723.7 724.44 723.64 724.76 725.17 723.37 716.32 710.12 696.32 682.33 672.31 662.31 653.29 648.21 644.31 637.92 632.19 627.02 623.91 618.95 614.31 607.62 600.57 592.98 584.91 574.89 567.5 576.88 583.49 577.88 572.3 569.87 565.79 559.9 555.24 548.75 539.28
649 650.39 652.04 654.09 654.12 653.66 653.26 653.02 652.77 652.48 651.85 650.72 649.96 649.06 646.45 646.3 644.47 642.96 641.61 641.16 639.98 638.76 636.05 634.55 633.86 632.56 631.9 631.55 630.76 628.37 626.9 627.12 626.42 626.98 626.04 626.19 627.02 627.75 627.31 628.34 629.7 630.46 632.16 634.36 636.35 638.52 641.82 644.68 647.05 651.6 653.94 657.23 660.78 663.69 668.27 670.57 674.02 676.3 679.2 682.16 685.28 686.54 688.56 691.09 692.87 693.92 694.45 694.37 693.97 691.57 690.57 688.73 687.16 684.5 683.17 681.26 679.86 677.26 675.72 673.55 671.44 669.34 667.45 664.01 661.52 658.79 656.17 654.13 651.27 647.91 646.34 644.79 644.21 642.79 642.22 641.65 641.85 641.59 640.82 640.9 639.82 634.83 633.2 633.18 634.69 636.16 637.52 638.76 640.18 641.74 642.99 643.86 645.92 647.94 649.35 649.67 651.46 652.43 653.79 654.99 656.37 659.43 659.77 661.78 662.55 662.07 662.58 662.31 663.25 663.64 664.29 665.49 666.8 666.36 668.19 670.23 672.07 673.92 675.35 678.43 681.2 681.87 685.9 691.44 695.14 696.06 697.18 699.87 701.1 703.97 705.83 705.56 706.46 707.18 708.3 706.58 698.53 695.24 693.03 691.34 690.1 688.14 685.75 681.2 676.17 669.77 665.44 662.55 660.16 657.21 656.45 653.48 651.12 648.84 647.32 646.71 645.9 644.52 644.08 643.95 642.26 642.11 639.79 637.02 636.33 633.89 632.28 630.15 630.28 628.63 628.87 628.53 629.17 629.31 628.95 629.97 629.82 629.59 628.81 628.04 628.38 628.6 628.71 629.7 630.11 631.06 631.89 633.38 634.05 635.26 636.41 637.27 637.43 638.52 639.79 640.49 639.54 633.12 633.54 634.99 635.91 637.18 638.17 638.95 639.59 640.59 641.37 641.93 642 642.73 644.48 645.19 645.87 646.65 646.77 646.96 647.16 649.25 650.48 652.12 653.06 656.71 659.86 664.01 666.6 668.51 670.1 671.52 672.27 672.22 672.24 672.2 671.54 671.66 671.63 670.65 669.59 668.05 667.32 666.93 665.51 665.8 663.86 663.81 662.16 662.62 662.56 661.83 662.55 660.55 660.07 658.77 657.2 656.95 657.39 657.57 657.63 658.01 656.77 656.52 657.15 657.23 9999 9999 656.81 658.47 658.64 660.58 663.06 664.64 666.47 667.31 668.73 669.26 670.15 671.71 671.24 673.19 675.96 676.49 674.93 672.94 673.65 673.15 9999 9999 671.77 673.53 675.29 678.72 679.78 682.47 684.34 685.86 687.65 688.8 690.65 691.85 692.49 693.35 694.36 694.77 694.65 693.89 691.72 689.99 688.92 686.43 684.08 680.93 679.02 677.56 675.93 677.07 679.46 680.48 681.33 681.28 679.99 678.81 675.81 674.02 673.3 672.7 672.18 672.43 671.35 668.05 667.23 665.2 665.19 663 667.3 672.3 673.82 673.21 675.13 676.73 679.04 681.37 683.29 685.38 685.47 689.57 695.92 707.17 716.8 726.7 732.86 736.75 737.83 747.01 753.78 757.63 760.67 764.46 766.87 767.99 770.53 771.88 773.11 773.09 774.02 775.66 776.47 774.14 773.63 771.63 770.27 767.9 765.81 762.17 758.43 758.28 758.21 758.39 759.76 762.9 767.02 765.81 760.17 755.04 749.86 745.96 742.56 739.52 739.26 734.88 734.86 734.41 732.48 731.21 729.91 730.04 729.04 731.59 730.06 723.32 715.16 706.2 694.84 683.3 668.8 659.82 652.51 646.21 640.52 636 630.64 624.66 620.61 616.05 608.33 600.82 595.01 586.92 578.06 570.89 576.34 586.4 582.72 576.6 571.24 566.67 560.98 555.01 549.36 541.43
653.12 653.63 655.16 656.2 656.81 656.95 656.5 656.86 656.36 655.07 654.13 653.44 652.28 650.99 650.92 648.93 647.66 645.36 644.36 643.88 642.68 642.39 640.94 638.99 637.73 635.08 634.42 633.24 632.09 630.96 630.7 630.27 630.17 628.46 628.19 627.64 628.75 628.83 629.09 630.44 630.73 631.77 632.79 634.38 635.58 637.66 640.07 643.09 647.06 649.81 652.21 655.19 658.41 661.41 664.88 668.63 671.55 675.38 678.35 681.25 684.26 686.87 688.75 690.74 691.72 693.36 694.12 693.11 692.44 691.44 690.09 688.65 686.67 684.92 682.97 680.2 679.76 677.38 675.73 673.91 672.03 669.7 666.63 664.7 661.93 659.78 657.23 655.81 652.14 649.71 647.3 645.73 644.82 644.16 643.6 643.52 643.14 643.1 642.24 641.45 640.66 638.29 635.02 634.84 635.72 636.82 638.24 639.71 641.75 643.19 644.33 646.36 646.75 648.67 650.68 652.19 653.81 654.34 655.61 656.92 658.19 661.15 661.82 662.8 664.21 664.9 665.01 665.4 664.58 665.74 666.72 667.47 669.02 670.24 671.26 673.49 674.32 675.93 677.32 680.3 683.01 686.14 691.31 695.88 697.26 700.44 701.92 703.81 707.55 711.87 714.77 717.2 713.84 713.9 713.43 711.28 708.42 705.12 701.26 696.87 694.24 692.4 688.24 682.28 677.97 673.33 670.28 665.47 663.05 660.16 658.53 656.54 654.43 653.05 652.49 649.4 648.18 647.06 646.51 647.51 648.13 646.71 644.19 640.53 638.4 635.92 633.66 631.8 631.4 630.54 629.59 629.78 630.15 629.62 629.86 630.98 630.58 629.79 629.49 629.07 629.91 629.77 628.89 630.04 630.24 631.31 632.1 632.86 633.88 635.42 635.89 637.26 637.6 638.41 639.44 641.27 641.17 637.12 635.62 636.64 636.66 636.43 638.41 639.56 640.33 641.11 641.59 642.7 643.02 643.81 645.35 645.82 646.91 647.21 648.26 648.41 649.47 650.24 650.77 651.79 653.44 655.96 660.49 663.8 666.66 669.39 670.97 672.66 673.8 673.46 674.1 673.81 671.99 672.62 671.89 672.21 670.81 670.1 669.46 668.69 667.05 666.03 664.68 663.72 663.69 663.24 663.13 662.53 662.23 661.17 660.65 659.31 657.55 657.45 657.96 658.03 658.35 658.04 657.99 657.12 657.87 658.38 657.92 657.19 656.96 657.95 658.14 659.33 661.49 662.92 665.04 665.21 666.42 667.91 667.95 669.17 668.36 669.27 672.39 672.63 672.48 672.34 672.79 673.07 9999 9999 9999 673.56 675.46 679.2 682.16 683.54 684.61 685.51 687.01 688.54 689.55 690.64 691.36 692.38 693.62 694.81 694.41 694.2 693.38 691.89 690.11 687.9 685.17 682.07 680.57 680.08 681.03 681.8 683.26 684.61 683.91 683.8 682.71 681.86 680.25 679.59 678.02 675.12 674.58 674.58 673.78 672.14 669.8 668.59 669.26 664.61 670.2 675.29 677.61 679.08 679.74 681.17 681.86 684.56 686.45 689.38 692.5 701.01 712.38 721.76 726.69 734.29 738.58 743.87 750.42 756.69 763.48 765.01 767.4 770.01 770.79 772.09 773.51 774.94 774.65 775.09 776.37 778.99 779.53 779.55 778.34 775.68 771.87 770.39 767.89 766.34 765.65 765.59 764.31 763.96 765.21 768.28 769.15 768.75 767.15 763.57 758.67 753.44 748.53 745.3 745.75 744.74 743.71 742.24 738.52 736.41 734.38 733.26 733.63 734.87 734.48 727.4 720.59 711.24 700.06 687.59 675.61 665.01 655.71 648.52 643.11 637.47 632.41 626.68 621.97 614.6 609.59 602.98 596.2 589.66 582.43 575.76 579.12 585.05 587.18 582.45 576.39 570.63 562.87 558.43 553.02 544.45
656.32 658.72 659.07 660.21 659.3 658.95 659.36 659.04 658.84 658.69 657.22 656.33 654.42 653.66 652.59 650.96 649.99 649.54 648.54 648.59 645.65 645.22 645.45 643.78 640.21 639.26 637.94 635.89 634.06 632.99 633.4 631.63 632.46 631.12 630.74 630.16 630.79 630.14 630.8 631.17 633.35 633.44 634.34 634.74 636.6 638.08 639.68 642.89 645.19 647.55 651.07 653.89 656.7 659.65 664.63 667.48 671.33 673.8 676.71 679.19 683.38 686.39 688 689.6 690.75 692.11 692.38 691.23 691.61 690.91 689.76 688.18 686.66 685.09 682.87 681.43 679.44 678.24 676.32 674.13 672.53 669.78 667.28 665.24 662.83 660.17 658.04 655.22 653.05 650.42 648.9 647.78 646.22 645.24 644.45 644.48 644.02 644.13 643.91 643.44 641.61 638.2 636.23 635.88 635.89 637.87 639.34 642.01 642.83 644.97 645.81 647.16 648.27 649.41 651.88 654.18 654.74 655.34 656.75 658.33 660.27 662.63 664.02 665.32 666.02 666.73 666.77 667.4 667.74 668.05 668.89 668.76 670.85 672.09 673.83 675.61 677.42 679.52 680.78 682.12 684.61 688.7 693.27 697.33 701.26 705.01 708.54 711.32 714.99 718.88 721.91 724.49 725.51 725.67 725.64 720.13 716.68 712.92 710.39 707.36 706.73 703.94 696.19 686.6 680.98 676.52 673.17 669.33 666.26 665.4 660.76 659.36 657.57 656.31 654.19 653.33 653.14 654.24 652.75 652.36 650.57 648.01 644.5 643.13 640.51 637.33 635.18 633.28 632.27 631.69 631.14 630.83 630.53 630.96 630.81 631.54 630.51 630.13 630.87 630.24 630.27 630.74 630.16 629.85 631.22 631.58 631.5 632.32 633.64 635.54 635.95 636.28 636.94 638.39 639.5 640.78 641 642.33 640.97 640.37 638.6 637.09 638.74 640.04 640.93 641.85 642.54 643.58 644.41 644.61 645 646.47 648.1 648.04 649.06 648.95 649.28 650.84 651.29 652.73 653.99 656.91 660.06 663.3 666.12 668.34 670.72 673.46 674.14 674.55 674.39 673.87 673.91 673.32 673.66 672.86 672.62 671.46 670.65 669.96 669.16 667.38 666.7 664.61 664.67 664.15 664.22 663.73 662.85 661.98 660.71 659.21 657.98 658.17 658.61 659.37 659.64 659.71 658.85 658.52 658.31 657.76 657.93 658.01 658.11 658.07 657.84 659.05 660.49 660.71 661.02 663.02 664.1 665.76 666.24 666.97 667.8 668.6 668.82 670.09 671.12 671.84 674.12 674.81 674.78 674.23 9999 675.72 678.78 680.9 682.38 684.81 685.18 686.34 686.87 688.9 689.78 689.93 691.6 692.49 694.05 694.46 695.6 694.97 694.26 692.75 690.96 688.45 686.36 685.11 685.16 683.24 684.3 686.13 686.36 687.59 687.37 687.26 686.61 683.27 682.51 681.82 681.57 679.01 678.45 678.17 676.64 675.9 673.37 670.37 669.89 666.29 672.35 675.68 679.71 680.77 682.23 683.77 685.47 688.08 691.96 693.85 701 709.3 718.96 727.82 734.77 739.65 743.97 751.09 757.48 762.97 767.25 769.9 772.86 773.88 774.68 775.33 775.74 776.8 778.12 780.66 781.24 781.34 781.67 780.88 779.79 778.7 775.91 773.8 772.39 769.67 769.6 768.24 767.84 768.64 771.02 772.46 773.07 771.92 770.92 768.62 764.33 760.31 756.14 754.63 751.42 749.81 750.93 747.9 745.51 744 742.36 738.61 738.16 737.85 736.87 728.97 722.31 714.24 703.39 690.75 679 666.46 659.78 652.78 646.52 640.18 633.63 628.88 622.58 616.87 612.02 606.03 599.37 592.89 582.06 578.06 577.3 583.49 589.19 587.08 581.92 571.01 566.5 561.46 555.98 545.61
659.83 661.64 662.12 663 663.29 663.08 663.11 661.59 660.86 660.73 659.12 658.47 657.77 657.09 655.86 654.28 652.57 651.9 651.33 650.44 649.88 649.1 648.88 647.52 643.59 641.29 639.44 638.15 636.97 636.57 635.15 635.07 633.98 633.11 632.36 632.67 632.78 631.15 632.62 634.21 633.69 635.17 635.07 636.45 637.35 638.53 640.5 641.8 644.31 647.34 649.73 652.6 655.44 659.68 662.44 665.42 669.22 672.21 675.69 679.07 682.72 685.3 686.77 688.55 690.12 690.82 691.49 691.13 691.24 690.37 689.01 687.53 686.04 684.37 682.8 681.36 679.65 678.22 675.84 674.23 672.09 670.09 668.05 665.98 663.73 661.21 658.53 656.09 654.09 651.33 650.07 648.61 648.02 647.18 645.89 645.18 645.36 645.07 645.49 644.31 642.09 640.4 638.28 636.64 637.19 638.93 640.87 642.61 644.52 646.53 647.99 648.13 650.56 652.05 653.05 654.39 655.65 657.23 657.88 659.52 661.99 663.52 665.4 666.51 667.37 668.27 669.81 669.7 669.51 669.7 671.21 672.82 674.21 675.76 676.9 676.93 679.08 681.27 683.35 685.4 688.58 691.74 696.52 699.5 704.08 708.72 715.09 721.14 725.83 730.02 728.48 731.1 733.87 734.8 733.49 731 727.41 724.7 717.32 715.59 715.86 712.11 703.96 695.4 688.78 683.32 676.13 672.71 670.25 668.79 666.37 663.89 662.62 660.52 657.57 657.52 657.43 659.21 659.85 658.4 656.87 652.91 647.06 644.72 642.21 638.91 636.35 635.26 634.14 632.61 632.02 631.33 631.5 631.43 631.84 631.79 631.29 631.15 630.19 631.15 631.6 631.69 631 630.23 630.72 631.26 631.4 631.92 633.87 634.69 635.27 635.63 637.05 638.35 639.38 639.71 641.14 641.84 642.48 642.42 638.16 637.4 639.11 641.59 643.48 643.15 643.65 645.41 645.06 645.18 645.54 647.39 648.24 649.43 650.2 650.12 650.24 650.97 651.92 653.52 655.24 656.61 659.51 662.43 665.77 667.9 670.71 672.58 673.23 673.64 674.31 674.14 674.12 674.87 674.52 673.91 673.38 672.9 672.27 670.29 669.26 668.67 667.65 667.07 666.22 665.05 664.65 663.79 663.16 662.73 661.75 660.2 659.26 659.6 660.18 660.79 660.98 659.9 660.24 659.57 659.69 658.64 658.59 658.89 658.41 658.31 658.18 658.16 659.44 660.1 660.88 661.97 663.51 664.64 664.53 664.89 665.96 667.05 667.83 668.82 671.82 674.41 677.63 678.94 678.66 678.24 679.25 680.03 682.28 684.31 686.7 686.38 686.18 687.2 688.84 689.71 690.64 691.44 692.52 693.04 694.2 695.06 696 696.08 695.21 694.46 693.37 690.27 688.52 688.49 689.19 688.92 689.48 690.1 689.28 689.96 690.16 689.41 688.83 687.03 686.6 685.46 682.71 681.82 680.66 680.89 679.13 678.82 677.77 674.43 671.21 668.41 671.57 676.29 680.39 682.25 684.53 685.78 688.28 690.88 695 703.32 709.71 717.5 724.63 732.13 736.54 740.95 749.62 756.99 763.73 768.08 770.26 772.91 775.27 776.33 777.28 778.26 781.65 781.68 784.45 787.61 785 783.78 783.66 783.99 783.74 780.52 778.59 776.28 774.13 773.46 772.78 772.01 770.42 771.95 772.66 774.1 775.24 776.5 778.03 777.93 772.09 769.18 765.39 762.89 761.9 761.65 763.08 754.93 752.15 750.51 749.37 749.99 751.22 750.97 743.37 734.76 724.31 714.36 704.2 694.11 681.05 672.44 663.01 655.1 648.04 641.89 635.33 630.27 625.14 619.39 612.89 607.15 602.8 592.3 585.84 581.19 578.41 583.94 590.2 590.91 581.07 575.16 568.86 563.52 556.4 547.91
663.35 664.61 665.97 665.25 665.51 665.61 665.71 665.11 664.53 663.91 662.76 660.9 660 658.61 658.37 657.65 656.18 656.34 655.27 653.23 652.13 651.49 651.1 649.89 648.25 645.81 643.56 640.22 639.26 639.26 637.49 637.1 636.74 636.04 635.58 634.31 634.5 632.95 634.85 635.29 636.05 637.62 638.46 637.26 638.98 640.4 640.25 642.37 644.62 646.43 648.74 651.43 655.59 658.7 661.45 665.08 667.34 671.52 675.1 677.7 681.38 684.1 684.45 686.14 687.85 688.34 688.92 690.41 689.62 689.76 689.06 687.53 685.57 684.19 683 681.25 679.46 678.22 676.04 674.5 672.57 670.12 668.88 666.32 663.83 661.32 658.93 657.06 654.64 652.82 652.1 650.07 648.42 647.44 647.4 647.87 647.95 647.34 647.19 646.08 643.15 641.42 639.5 638.44 638.42 640.23 642.14 642.89 645.49 647.36 649.97 650.95 653.49 654.69 654.77 655.02 656.47 658.71 659.42 660.97 663.24 664.93 666.12 667.21 669.47 670.63 671.21 671.43 672.23 672.87 673.09 674.74 676.89 678.11 679.02 680.88 683.24 685.96 687.11 688.16 690.72 695.59 701.48 706.71 711.42 717.39 718.88 724.17 729.39 735.71 739.41 741.11 742.66 743.97 741.54 739.36 738.04 737.51 735.3 732.21 728.76 717.63 708.18 698.49 692.4 685.76 681.35 678.75 676.11 672.51 670.54 668.9 667.66 666.86 669.11 669.04 667.88 662.58 663.24 664.09 662.81 660.84 657.12 652.51 649.34 641.67 638.49 636.41 634.73 634.49 633.48 631.96 632.8 631.65 632.91 632.53 632.43 632.18 632.22 631.99 632.48 631.2 631.41 631.77 631.49 631.71 632.08 632.62 633.2 634.1 634.54 635.84 636.54 637.63 637.97 639.63 640.2 641.63 641.54 638.42 637.91 638.29 639.39 640.94 642.92 644.26 644.31 645.94 645.91 646.87 647.03 647.06 649.62 650.52 650.8 651.14 651.51 652.42 652.85 654.51 655.05 656.18 659.16 662.69 664.03 666.12 670.8 667.66 670.57 671.08 671.1 673.2 675.19 675.79 675.39 675.32 674.68 673.84 673.52 671.46 671.01 670.18 668.9 668.42 667.06 666.12 664.99 664.46 663.97 663.43 662.46 661.51 660.76 660.75 662.02 661.96 661.77 660.61 660.72 660.83 660 660.15 659.74 659.66 658.56 658.43 658.4 658.65 659.28 659.31 661.04 662.76 663.41 665.54 664.37 664.48 665.14 665.73 665.9 667.99 671.66 675.71 678.5 680.32 680.96 682.14 683.27 682.29 684.59 686.77 687.98 688.32 688.7 689.53 691.04 690.71 691.32 692.88 693.67 694.95 695.51 696.8 696.86 696.84 696.87 695.42 694.51 694.25 694.53 693.87 693.23 692.59 693.23 692.9 693.6 693.54 693.67 691.85 690.86 689.7 689.04 687.11 685 685.21 685.11 681.1 679.68 679.76 680.03 680.76 680.05 675.09 672.11 676.92 680.41 682.56 684.89 688.49 692.25 699.78 701.82 708.87 715.26 722.07 728.46 732.96 737.63 744.8 752.13 759.49 765.48 770.82 774.57 777.34 779.07 778.07 780.27 784.44 789.37 791.81 791.62 791.48 789.39 787.08 786.3 786.27 785.87 784.74 784.06 782.01 778.13 775.22 774.73 775.51 776.27 776.44 776.9 775.97 776.79 777.54 779.33 779.96 778.64 776.67 773.97 768.61 768.29 770.62 771.08 768.65 765.21 763.72 758.05 760.15 761.11 759.42 751.48 741.76 731.32 717.94 704.08 692.89 682.34 673.34 665.42 658.97 651.88 642.48 636.93 631.87 627.4 622.45 616.96 610.42 601.31 593.87 587.96 582.66 582.26 584.76 586.53 585.56 582.26 577.32 571.46 565.46 558.61 547.18
665.03 666.84 667.84 668.51 668.93 668.66 667.51 667.39 666.42 665.99 665.65 663.84 663.71 661.81 660.46 659.34 658.69 658.18 657.6 657.03 656 655.09 653.39 651.78 649.46 648.16 645.98 643.55 643.18 641.63 640.19 639.54 639.25 638.18 637.71 637.09 636.77 636.5 636.04 637.29 637.52 638.65 639.24 639.85 641.61 642.22 643.66 644.67 644.8 646.26 648.22 651.5 654.6 657.64 661.07 663.46 666.72 671.59 673.74 675.92 677.21 679.71 682.34 684.41 686.18 685.93 687.65 687.79 688.81 688.96 688.6 686.88 686.11 684.81 683.37 681.47 680.33 677.6 676.02 674.51 672.15 670.9 669.82 667.35 663.97 661.75 660.14 657.44 655.25 653.72 652.73 649.69 650.06 648.46 648.45 648.53 648.51 648.49 648.7 647.85 645.9 642.6 640.05 640.23 639.14 641.38 642.34 645.1 647.39 649.71 650.72 652.73 654.29 655.92 656.69 658.43 657.92 660.21 660.63 662.74 664.9 665.65 668.02 670.29 673.3 672.58 672.74 673.66 674.29 674.72 676.28 678.29 679.62 680.22 681.17 682.79 685.11 689.14 691.35 694.34 700.32 704.23 709.28 714.91 721.56 724.6 729.1 732.71 736.53 738.56 742.07 746.19 746.67 747 747.43 748.1 747.64 745.26 743.14 740.48 734.83 725.62 716.64 707.77 697.15 691.3 686.88 682.23 680.28 678.58 677.48 677.6 673.45 675.41 677.04 675.88 674.78 671.67 671.14 671.38 668.82 668.07 665.53 661.59 655.63 652.42 647.5 641.98 637.38 635.85 634.15 632.98 632.99 633.05 632.52 633.41 632.34 632.53 632.71 633.07 632.95 633.41 633.17 632.65 632.29 632.38 632.38 632.91 633.54 633.57 634.3 635.46 636.67 637.51 639.28 639.94 640.7 640.4 638.12 638.26 639.42 640.06 641.21 642.61 644.64 645.17 647.22 645.97 647.13 647.3 647.93 648.49 649.55 650.76 652.16 651.96 651.95 653.24 653.58 654.73 656.24 656.09 658.73 660.73 662.22 663.46 665.35 666.85 667.4 667.42 669.22 673.2 675.41 676.63 676.5 676.36 676.38 675.51 674.18 673.11 672.33 670.68 669.77 669.26 668.49 666.26 665.87 665.59 664.75 663.17 663.4 662.21 662.23 662.43 662.57 662.82 661.84 662.17 661.65 661.65 661.26 660.93 660.78 659.62 660.02 659.1 659.19 658.5 658.28 659.15 660.86 665.03 667.52 668.25 666.41 664.75 666 665.91 666.33 669.35 672.69 676.85 679.76 680.77 681.77 683.97 684.57 685.87 687.03 688.31 689.15 689.7 690.14 690.99 692.43 693.49 693.99 695.49 695 696.49 696.92 697.74 698.53 698.49 698.99 698.07 697.15 696.56 697.52 697.33 697.45 698.11 697.96 696.39 696.22 696.47 696.12 695.06 693.39 691.63 690.55 687.56 686.88 688.19 688.31 683.65 681.66 683.92 684.61 684.5 682.98 680.88 673.9 679.09 681.4 685.02 688.12 691.34 697.31 707.91 713.82 717.94 722.32 724.61 729.62 736.46 740.77 747.51 754.07 761.36 768.7 772.35 778.26 781.29 784.14 787.53 789.87 792.67 792.91 793.57 793.09 792.89 793.08 790.93 790.1 787.11 787.25 787.42 786.43 785.18 784.72 781.99 781.11 778.39 777.93 778.39 779.49 779.87 780.68 782.09 780.61 781.39 781.42 781.77 780.95 780.25 781.51 781.21 777.38 776.01 773.04 770.83 771.64 772.88 773.96 764.77 756.05 746.9 737.2 723.7 712.51 700.06 689.16 676.56 667.9 660.68 651.37 645.73 640.27 634.95 630.65 625.41 619.27 610.88 604.59 597.27 590.31 584.43 583.39 584.64 585.73 584.22 582.18 577.15 571.63 565.91 557.38 546.13
668.72 668.76 669.55 671.02 671.21 670.82 670.63 670.01 670.49 669.89 667.39 666.21 665.42 664.29 663.99 663.29 662.28 661.76 659.75 658.39 657.67 656.87 656.04 654.82 653.4 651.46 648.23 646.61 645.35 644 643.27 642.8 642.9 641.53 639.75 639.5 638.56 638.24 639.21 640.17 640.41 640.71 640.91 641.77 643.22 644.2 644.98 646.11 647.55 649.4 650.28 651.55 653.42 656.76 660.28 663 666.29 669.29 672.03 674.68 676.12 678.36 680 682.23 683.47 684.89 686.21 686.94 687.12 687.66 687.2 686.41 685.71 684.33 683.25 681.15 679.58 678.37 677.41 675.37 673.2 670.89 669.52 666.37 665.1 662.52 660.45 659.31 657.37 654.27 652.45 652.19 650.91 650.37 650.5 650.83 650.73 649.87 650.37 648.75 647.98 643.67 643.01 641.23 640.16 641.11 643.89 645.91 648.45 650.47 652.94 654.26 655.21 656.59 657.44 658.9 659.93 660.54 661.47 663.24 665.85 666.96 668.33 673.62 675.58 675.08 675.47 675.8 676.72 676.61 678.26 679.54 681.44 683.27 684.66 687.46 692.32 693.05 694.46 697.72 703.79 711.44 718.88 728.71 734.14 734.82 738.71 741.19 742.81 745.14 747.72 749.47 750.31 751.82 751.27 752.07 751.66 750.53 749.08 746.68 738.18 728.97 719.21 706.97 701.01 695.93 691.95 687.56 683.9 682.99 683.42 683.75 686.5 688.84 686.92 684.76 680.17 677.62 676.39 676.55 676.09 675.78 673.9 666.18 661.58 658.22 654.39 647.26 643.26 639.58 635.61 633.83 633.83 634.19 633.65 633.53 633.56 633.2 633.04 633.85 633.72 633.29 633.78 633.15 633.53 633.33 633.04 633.19 633.16 634 634.37 635.69 637.99 639.35 640.79 641.62 641.26 637.73 9999 638.02 639.77 640.59 641.87 644.08 644.87 645.83 646.9 647.95 648.33 648.97 648.98 649.79 650.53 650.75 651.45 653.41 654.01 653.93 654.74 655.17 656.69 657 658.49 660.82 660.6 661.62 663.86 664.8 665.11 666.04 670.21 673.05 675.82 676.98 677.48 678.06 677.64 677.15 675.92 674.85 672.66 672.02 670.59 669.24 668.29 667.58 666.08 665.58 665.16 663.56 662.9 662.64 663.77 663.06 663.77 663.44 662.95 662.71 662.74 662.38 662.03 662.17 661.42 660.7 660.17 658.39 660.42 659.75 658.89 659.1 660.94 665.65 668.22 670.22 670.09 669.78 672.07 671.03 669.45 671.64 674.63 678.03 680.36 681.73 684.56 685.56 686.24 686.94 687.87 689.23 690.3 691.88 692.27 694.04 693.93 695.45 695.91 697.19 698.72 698.99 699.21 698.83 699.64 699.82 699.52 699.72 699.9 699.66 700.46 700.19 700.9 700.63 701.24 700.48 700 699.67 698.46 697.78 694.71 693.86 691.8 690.09 689.55 690.99 690.08 688.03 684.82 687 687.13 686.3 686.06 683.14 676.79 680.42 682.9 686.64 691.39 699.69 707.04 711.74 717.2 721.38 724.76 729.47 735.69 739.92 743.44 748.82 756.57 763.86 770.86 777.98 784.51 790.41 791.03 792.53 793.94 794.73 794.34 795.24 794.57 794.04 793.59 791.5 791.39 790.56 788.99 788.72 787.6 787.28 786.22 784.95 783.74 783.12 782.98 783.31 781.45 782.61 783.3 783.2 784.16 784.7 786.49 786.37 787.48 786.83 787.44 786.2 785.44 784.82 784.45 779.52 780.48 781.56 778.46 770.22 762.6 754.92 739.89 730.78 719.95 707.5 695.57 682.88 671.75 660.23 653.3 647.67 643 638.97 634.68 630.64 624.66 615.51 608.78 601.36 593.13 586.74 586.33 586.44 585.94 583.97 581.62 576.84 571.34 561.75 552.94 544.61
670.61 672.04 673.08 673.83 674.32 673.16 673.45 673.01 672.7 671.62 671.67 670.95 670.19 667.43 666.77 665.28 664.72 663.45 663.45 662.5 661.23 659.23 658.01 656.88 655.17 653.15 651.71 650.61 648.44 646.54 645.27 645.36 644.03 643.77 642.5 642.05 641.92 640.73 640.96 641.82 641.87 642.23 643.59 644.74 644.8 645.55 646.55 647.35 648.72 649.81 652.14 654.34 655.09 656.84 659.15 662.19 665.64 667.39 670.32 672.9 675.22 676.96 679.22 680.76 681.91 683 683.64 685.78 686.14 686.92 685.95 685.83 685.54 684.11 683.58 681.9 680.97 678.15 677.65 675.48 673.79 672.26 669.84 667.48 666.46 663.67 661.47 659.77 657.99 656.16 654.33 653.3 652.11 651.53 651.92 652.32 652.46 651.9 651.94 651.14 649.79 645.57 644.42 642.51 641.07 642.56 644.7 646.52 649.07 650.87 653.47 654.98 656.34 657.85 659.04 660.64 661.31 661.55 662.77 663.76 665.5 667.66 669.68 672.12 674.95 675.41 675.93 676.92 678.51 679.56 681.11 682.51 682.83 685.44 688.36 692.52 696.36 697.94 699.92 703.18 706.57 715.23 726.99 734.84 741.38 746.45 752.19 755.06 752.05 751.93 753.25 753.53 754.38 754.53 755.07 755.64 754.08 753.07 751.27 748.28 740.16 731.16 718.36 709.46 704.19 699.49 695.44 691.48 689.88 689.09 692.9 692.47 695.76 696.87 694.62 692.27 690.95 688.13 685.86 684.63 682.58 680.08 677.67 674.31 669.25 665.17 658.93 651.2 647.2 642.12 637.82 634.43 635.03 635.32 634.06 634.24 634.69 634.42 634.53 634.11 634.89 634.65 633.87 634.67 633.56 633.82 633.86 633.51 633.97 634.37 634.94 636.31 638.8 640.36 641.56 642.91 642.45 638.54 9999 638.61 639.85 640.85 643.88 644.82 645.32 646.39 647.23 647.64 649.41 649.16 649.64 650.04 651.03 651.99 652.39 652.96 655.17 656.27 656.1 656.17 656.95 658.36 659.68 661.88 661.96 662.78 663.83 663.91 663.02 666.38 670.47 674.29 676.15 677.5 678.56 678.47 677.9 677.53 676.59 675.45 674.6 672.45 670.84 670.75 669.55 667.68 667.05 666.08 665.13 664.11 664.48 663.83 664.03 664.44 664.74 664.37 663.87 664.58 664.4 663.51 663 662.55 662.1 660.86 660.39 660.25 661.09 661.08 661.54 660.25 662.04 664.79 667.74 670.45 671.94 672.47 673.68 674.72 674.38 675.67 677.04 679.76 681.16 682.73 684.15 686.06 687.33 688.64 690.04 691.46 692.06 693.42 694.18 695.3 696.45 697.7 698.95 699.27 700.51 701.11 701.54 701.63 701.51 701.38 701.35 701.87 702.67 701.67 703.4 704.18 703.89 704.49 703.31 702.51 702.36 702.31 701.45 701.05 697.74 694.8 692.82 691.03 691.99 693.24 693.03 691.07 689.14 688.29 688.72 687 686.74 682.24 678.26 683.04 684.66 687.65 693.95 700.83 708.25 714.93 719.71 724.36 727.87 733.1 737.27 742.44 747.35 753.41 759.86 766.95 777.37 782.01 789.09 793.69 795.19 796.51 795.81 795.32 795.33 796.29 795.45 796.03 796.48 793.03 792.01 791.16 790.9 789.85 789.45 788.41 787.63 786.91 785.54 785.65 785.04 784.36 784.28 784.79 786.78 786.95 788.11 788.36 788.98 790.09 790.87 792.05 791.36 791.86 791.47 791.73 791.47 791.26 794.34 793.24 782.7 774.95 768.5 759.76 751.64 741.58 730.77 715.53 701.91 689.22 672.74 663.67 656.25 651.04 646.94 641.23 635.9 632.03 628.28 622.66 616.58 610.33 598.96 588.42 588 589.18 587.24 584.82 582.34 575.68 566.12 559.27 549.62 541.38
673.2 674.85 675.73 677.3 677.78 677.64 677.18 676.03 674.85 674.44 674.1 673.23 672.56 671.05 669.74 668.81 667.34 665.66 664.93 664.28 663.5 662.17 661.74 659.23 657.11 655.52 654.09 652.48 650.77 650.49 649.34 648.55 646.68 646.02 644.49 644.45 644.82 643.68 644.69 644.78 644.09 644.43 645.66 645.97 646.23 647.84 649.02 650.56 651.09 651.74 653.21 655.2 657.36 658.87 661.66 664.16 665.49 667.58 669.43 671.94 674.18 676.62 678.22 679.87 681.5 682.59 684.21 685.35 685.74 686.51 686.21 686.55 685.58 685.07 683.4 682.82 681.31 678.96 677.95 676.5 674.77 673.24 670.49 668.72 666.96 664.94 663.55 660.72 658.99 657.01 655.98 654.48 653.88 653.74 653.67 654.46 653.13 653.67 653.02 652.85 651.17 647.8 645.93 644.51 642.37 642.8 645.18 647.71 649.72 651.86 654.38 655.99 657.18 658.85 660.69 662.13 662.73 663.47 664.05 664.79 665.66 668.26 669.79 671.96 673.59 675.19 676.44 678.23 678.84 681.12 682.16 684.29 686.51 688.2 692.55 694.86 698.13 701.2 705.01 708.31 714.55 725.41 734.2 740.57 747.48 754.08 758.82 761.59 762.75 762.04 760.82 758.08 758.66 758.02 758.11 757.65 756.92 755.63 754.91 749.03 740.57 728.46 719.55 712.44 708.1 703.75 700.15 695.2 694.13 693.99 701.44 706.95 710.88 709.94 702.81 700.43 697.51 695.98 693.98 692.32 693.58 692.6 684.85 681.34 674.83 668.77 662.7 656.42 649.57 645.48 639.53 635.48 635.39 635.87 635.62 635.75 635.94 635.61 634.73 635.38 635.04 635.31 635.5 635.08 634.87 633.91 634.07 634.26 633.87 634.55 634.95 636.31 639.02 641.02 642.83 643.67 643.4 641.29 638.7 640.47 642.86 642.42 643.9 645.71 646.66 647.38 646.89 648.34 650.08 649.57 650.46 651.53 651.8 652.64 654.3 654.57 655.53 656.6 657.6 657.53 658.11 659.61 660.33 660.94 662.53 663.71 664.09 664.39 663.9 666.95 670.78 673.59 675.53 677.7 678.2 678.64 678.81 677.79 678.16 676.67 675.61 672.43 671.42 670.6 669.67 668.7 667.69 666.51 664.61 664.56 664.89 665.17 665.02 665.4 664.43 665.03 664.54 665.56 665.59 664.31 663.99 663.41 661.92 661.83 659.95 661.76 662.49 662.7 663.92 664.77 663.97 665.96 668.33 671.69 672.44 674.3 675.19 675.55 676.49 677.12 679.12 681.53 682.43 684.01 685.61 686.86 687.65 689.72 691.1 692.62 694.51 696.78 697.73 698.9 698.28 699.86 700.68 702.36 703.45 704.33 703.53 703.68 703.53 704.13 705.16 705.11 705.93 704.71 705.88 706.78 706.33 706.81 707.39 706.16 705.22 703.08 702.65 700.64 698.81 696.16 694.99 694.61 693.81 695.08 695.2 694.44 692.32 690.82 691.77 690.71 688.22 683.74 679.54 683.58 686.17 691.28 695.77 701.29 708.44 715.62 720.75 725.11 731.63 735.14 740.12 745.54 752.38 758.4 763.16 771.32 777.82 780.51 785.81 793.59 795.95 796.22 796.75 796.33 797.22 796.8 796.55 796.52 796.59 794.7 793.69 793.2 791.88 790.69 790.32 789.24 788.7 788.62 788.15 787.72 787.37 786.08 786.38 788.97 791.71 792.66 793.5 793.74 793.35 793.82 793.28 793.89 793.68 797.58 802.15 805.17 800.94 801 801.41 797.25 790.85 784.36 776.87 766.89 757.22 747.36 736.63 722.71 702.96 689.79 676.6 667.56 660.08 653.6 649.13 643.94 639.46 634.83 630.99 626.26 620.85 614.97 604.79 592.72 594.28 590.58 588.68 587.1 583.33 570.66 562.55 553.74 545.99 536.9
676.51 677.88 679.1 680.6 680.72 680.28 680.43 680.05 679.42 678.53 678.23 677.12 674.57 673.76 672.39 672.29 670.52 669.57 668.59 667.38 664.64 663.76 663.03 661.77 660.27 659.04 656.86 655.65 653.66 652.51 651.18 651.08 649.92 648.74 648.76 647.2 646.18 646.09 646.74 646.79 647.6 647.75 648.89 649.42 648.97 649.81 651.45 653.16 653.72 655.01 655.88 657.88 659.18 661.26 663.1 665.12 667.1 669 671.4 672.85 674.9 676.42 678.02 679.59 681.54 682.35 683.85 684.94 686.04 686.96 687.2 686.6 686.55 686.19 684.88 683.43 682.46 680.65 679.81 677.99 675.31 673.66 671.92 669.64 667.29 665.68 663.37 661.5 659.26 658.2 656.99 655.8 655.3 654.8 655.11 655.07 655.65 655.47 655.15 653.89 651.44 649.28 647.41 645.78 644.76 644.05 645.11 648.02 649.84 651.78 654.44 656.83 658.07 660.92 662.25 663.2 664.05 664.72 665.05 665.89 667.63 668.33 670.36 671.6 672.77 675.34 677.15 679.49 680.55 682.7 684.39 686.1 688.04 691.27 693.67 696.96 699.93 704.34 708.79 712.74 720.96 727.2 735.68 746.15 754.69 757.84 761.85 763.87 764.92 764.35 764.81 765.75 766.35 765.53 764.29 763.79 762.37 761.24 759 754.76 743.91 735 722.4 715.46 710.38 706.92 702.77 700.18 700.49 702.73 707.88 716.49 719.98 718.82 716.35 713.68 711.06 709.41 703.3 698.72 696.15 697.09 695.11 689.41 682.45 672.94 663.04 656.56 650.76 645.79 640.68 635.7 636.5 635.74 636.48 636.65 636.23 636.6 636.02 635.75 636.19 635.71 636.13 635.87 635.32 635.21 635.16 634.99 634.48 634.99 635.78 636.34 638.97 641.47 642.32 644.03 644.7 643.69 642.75 643.65 645.66 645.87 645.44 647.46 646.57 648.07 648.08 650.14 650.29 651.29 651.89 652.19 652.11 653.5 653.96 655.18 655.99 656.65 658.31 658.59 658.87 659.77 660.93 661.89 662.76 663.88 664.88 664.72 664.82 668.81 670.93 671.46 671.91 675.38 676.55 678 678.11 678.82 678.74 678.98 676.53 674.78 672.76 671.7 670.34 668.58 668.15 666.95 666.41 666.45 665.87 665.75 665.69 665.38 665.33 666.27 666.72 666.94 666.41 665.22 664.72 663.77 662.53 661.54 661.32 662.39 662.76 664.1 665.62 665.69 666.97 667.88 669.65 671.24 673.19 674.33 675.29 676.46 678 679.55 680.83 682.31 683.54 684.62 685.78 687.67 689.12 691.9 692.51 694.05 696.26 699.81 704.11 704.14 706.68 708.23 704.99 704.2 705.44 705.93 706.6 706.66 707.25 706.11 707.17 707.41 708.44 708.94 709.21 709.7 710.68 709.35 710.46 709.55 707.22 706.51 705.04 703.78 700.45 698.86 697.16 696.94 697.58 698.32 698.35 698.28 696.02 692.74 693.07 692.12 690.91 687.84 684.32 684.46 689.13 691.86 697.27 703.31 710.67 716.69 721.51 727.42 732.31 737.41 742.94 749.1 755.06 763.17 766.71 772.44 777.33 781.67 787.06 792.11 793.74 795.62 796.32 796.49 797 796.93 797.09 796.61 796.22 795.97 794.68 794.37 793.81 792.81 791.88 791.32 790.61 790.2 789.07 788.91 790.29 791.96 792.92 794.52 793.97 794.39 795.44 795.52 796.27 797.13 797.6 798.06 799.87 804.15 809.56 811.21 809.46 806.72 805.86 801.18 794.7 790.06 785.62 775.82 764.82 752.97 738.88 719.78 705.18 691.79 680.82 672.59 666.05 656.52 650.5 645.56 641.42 636.6 632.62 627.76 623.66 615.42 604.63 596.08 598.79 597.65 591.82 585.34 579.49 568.38 559.68 548.7 538.2 531.27
679.1 680.35 682 682.84 683.31 683.55 683.82 681.72 681.49 680.68 680.15 678.88 678.51 676.71 675.48 673.62 672.4 671.42 670.75 669.95 668.36 667.47 666.48 663.79 662.43 661.23 659.87 658.12 658.11 656.26 655.5 652.41 651.82 651.66 651.22 650.26 650.27 650.29 649.83 648.72 649.84 650.01 651.17 652.32 653.04 654.1 655.61 655.38 656.71 656.67 657.3 659.4 662.54 665.22 666.54 667.01 668.54 670.18 672.53 673.86 676.03 677.43 678.85 680.09 681.14 683.18 684.53 685.77 687 687.95 688.5 687.37 687.29 686.13 685.71 684.64 683.63 681.72 679.95 677.58 676.29 674.75 672.61 671.05 668.77 666.79 664.66 662.2 660.8 658.71 656.99 657.12 656.42 657.39 657.2 656.08 656.37 656.73 656.53 655.76 653.82 651.37 649.73 647.36 645.99 645.33 646.58 648.46 650.01 652.45 654.56 657.29 659.85 661.47 663.3 664.61 665.78 666.46 666.5 667.22 668.43 669.35 670.56 671.74 673.74 676.11 677.62 679.73 681.23 683.61 685.03 687.59 690.4 693.1 695.32 698.11 701.85 705.17 712.44 716.83 721.9 728.42 735.98 746.35 755.02 759.78 763.69 765.16 766.3 767.27 767.65 768.24 768.53 768.19 768.24 768.01 767.05 765.85 762.97 756.98 748.18 738.43 728.15 719.81 715.34 709.6 705.93 704.1 704.54 706.44 711.26 718.21 724.18 724.55 722.55 719.23 716.3 714.42 711.59 706.72 701.35 698.31 697.34 693.07 687.81 677.96 669.04 660.3 652.62 646.34 640.21 636.5 637.25 637.25 636.58 637.62 637.32 637.09 636.55 636.39 637.15 636.99 636.91 636.82 636.32 636.12 635.39 635.18 635.26 635.28 635.96 636.82 639.78 641.5 643.15 644.63 645.77 646.91 647 647.91 648.27 648.48 648.94 649.28 649.99 650.41 650.51 650.42 651.07 652.11 651.84 652.43 653.77 655.2 655.89 655.58 656.84 657.28 658.39 660.49 660.64 661.53 662.5 662.53 663.29 664.61 665.66 665.41 665.8 668.07 669.14 669.48 669.99 672.66 674.83 676.82 678.18 678.41 679.18 678.45 676.79 676.5 673.62 673.1 670.65 670.34 668.47 668.98 668.61 667.49 667.45 666.7 667.44 667.32 667.27 666.83 667.37 667.45 666.86 666.47 665.16 663.01 662.64 661.22 661.78 663.1 664.19 664.22 664.83 666.13 667.3 668.63 670.8 671.48 673.7 674.96 675.87 677.32 678.46 680.81 681.1 683.3 684.52 685.75 686.6 688.47 690.75 692.59 694.45 696.67 698.81 700.6 703.76 707.25 710.73 712.29 711.52 710 709.39 707.76 709.26 709.7 709.66 709.61 710.74 711.34 710.77 710.9 711.28 711.47 711.95 713.25 712.77 711.62 709.06 707.84 706.72 706.23 703.61 703.1 702.8 702.14 701.49 701.25 701.4 700.96 698.47 696.52 697.26 695.1 692.12 689.94 686.92 686.29 690.31 692.52 696.77 703.3 709.02 717.09 726.25 732.14 737.96 742.25 745.88 752.22 759.3 764.92 769.8 773.07 777.95 783.64 788.39 792.16 793.98 795.08 796.14 796.87 796.89 797.31 796.9 796.51 795.89 795.18 795.18 794.92 793.85 793.33 792.89 792.24 791.46 791.83 793.03 792.88 793.31 793.23 793.81 794.48 794.92 795.41 796.7 797 798.75 798.76 801.33 804.66 809.69 813.71 813.86 816.05 811.02 808.63 807.9 806.13 807.19 800.21 789.29 776.27 767.94 754.28 735.96 721.49 707.98 694.45 682.62 675.06 668.46 658.3 652.65 648.65 644.17 638.82 634.13 629.3 621.69 615.42 608.53 601.43 600.76 597.27 591.32 584.33 575.47 566.5 555.77 546.04 536.14 528.99
682.87 684.29 684.4 685.19 685.73 685.38 685.75 685.72 685.02 684.62 682.83 681.08 680.17 679.09 678.03 677.68 676.21 675.27 673.34 671.85 669.62 669.93 668.63 667.59 665.86 664.39 662.15 661.04 659.58 658.36 657.88 656.53 655.42 654.79 653.81 653.24 652.88 652.81 653.06 652.96 653.44 654.25 653.63 653.86 656.26 656.8 657.78 659.23 661.16 661.27 660.72 662.6 664.7 666.85 668.39 669.63 670.8 673.04 673.8 674.91 677.25 678.76 680.05 681.49 683.9 684.76 684.82 686.21 687.72 689.48 689 688.5 688.51 687.82 686.34 685.64 684.84 682.61 681.48 679.34 678.03 676.6 673.71 672.19 669.87 667.99 666.18 663.6 662.11 660.6 658.74 657.77 657.82 657.74 658.17 658.32 658.63 658.5 657.66 656.73 654.83 652.72 650.43 649.37 647.16 646.36 646.34 649.06 650.61 652.35 655.29 658.32 660.06 662.23 663.49 665.24 666.23 667.86 668.34 669.48 669.71 670.61 671.25 672.45 674.78 676.41 678.18 679.67 683.03 684.67 686.7 689.26 691.47 693.98 697.26 699.73 704.53 709.87 716.12 720.96 726.36 731.6 739.9 748.4 759.92 761.21 764.2 766.39 767.93 769.15 769.87 770.94 771.4 769.91 770.62 770.18 768.7 767.58 766.16 761.72 752.44 739.73 730.1 724.73 718.61 715.47 715.39 716.31 716.58 711.27 713.49 719.17 723.42 725.02 724.77 722.61 719.65 715.54 712.11 709.15 704.52 699.31 697.12 694.66 687.23 678.75 670.18 661.46 651.91 644.36 640.24 637.52 637.3 638.4 637.78 637.91 638.34 638.11 637.78 637.19 637.86 637.36 637.98 636.87 636.97 636.44 636.4 635.55 635.62 636.06 636.93 636.95 638.33 641.98 644.14 644.82 646.56 647.34 648.42 649.46 650.07 650.45 651.38 651.81 652.08 651.91 651.78 651.67 652.25 653.08 652.52 653.47 654.61 655.91 656.7 656.95 657.6 658.28 659.21 660.4 661.31 662.21 662.95 663.89 664.62 665.25 665.84 666.53 666.61 667.96 669.01 668 668.29 670.98 673.29 674.7 676.2 677.8 678.44 679.13 678.85 676.63 674.8 673.18 671.05 671.22 670.21 669.93 669.99 668.37 668.04 667.83 668.35 668.68 669.34 669.55 668.4 667.98 666.77 666.37 664.24 663.49 663.16 662.02 661.88 664.28 664.43 665.42 666.46 666.8 667.77 669.32 670.53 672.06 673.52 675.11 676.56 678.28 679.34 681.26 682 683.42 684.96 686.83 688.3 689.86 692.66 693.39 696.07 698.74 701.46 704.99 706.95 709.86 712.63 714.51 715.66 713.96 711.95 712.24 711.95 713.28 712.31 712.85 712.96 713.57 714.35 714.23 714.54 714.37 714.75 714.76 714.19 713.69 712.07 711.63 710.1 708.25 707.04 705.19 706.24 707.34 707.24 705.33 704.91 703.48 701.07 699.45 699.61 696.89 694.48 692.08 689.08 687.87 690.38 693.37 696.34 702.48 710.43 720.01 727.38 732.57 738.32 744.68 751.25 758.3 763.86 768.12 771.48 774.49 780.37 786.89 791.02 793 794.07 795.26 796.31 796.08 796.86 796.42 796.55 796.15 796.49 795.26 794.92 795.03 793.99 793.56 792.66 792.92 792.71 793 792.44 793.03 793.14 793.87 794.74 794.54 795.09 796.44 797.13 799.32 802.83 806.55 808.58 812.84 815.24 818.3 820.29 820.79 815.63 810.54 809.95 810.4 809.48 797.94 785.87 778.33 768.2 749.82 736.79 722.5 709.07 697.57 686.64 679.17 668.74 661.83 655.64 650.77 646.25 641.11 633.99 629.65 623.41 616.84 609.86 603.53 600.11 594.2 589.79 582.94 574.69 565.43 553.9 543.22 534.82 529.92
684.83 685.97 687.25 688.51 688.77 688.55 687.82 687.42 686.96 686.53 686.07 684.77 684.23 682.74 680.86 680.2 678.43 678.08 677.01 675.42 674.55 673.27 671.23 669.29 668.62 667.16 665.99 665.1 663.68 662.44 660.17 659.36 659.03 657.38 657.95 657.4 656.98 657.51 655.39 655.52 656.24 657.35 658.52 659.74 660.74 662.05 661.13 662.28 663.36 664.25 664.71 666.26 668.23 670.12 671.16 671.8 674.19 675.23 677.11 678.57 680.06 682.04 681.46 683.47 684.88 686.06 687.18 688.18 688.82 690.42 690.16 689.71 689.07 688.9 687.78 686.83 685.56 684.35 682.12 680.94 678.5 677.12 675.8 672.63 671.9 669.7 666.91 665.02 663.21 661.71 660.52 659.61 660.02 659.58 659.32 658.93 659.86 660.27 659.9 658.16 656.29 653.85 652.5 650.51 648.42 647.08 647.68 649.16 651.57 653.31 656.38 659.3 660.79 662.88 665.27 666.38 667.56 668.58 669.72 670.26 671.35 671.63 673.28 674.07 675.77 676.99 679.03 680.95 683.31 685 688.59 692.01 694.36 696 697.92 702.46 709.46 715.16 722.22 727.11 731.65 736.69 745.05 755.98 761.21 764.08 766.32 768.02 768.54 769.94 771.09 772.32 772.59 772.4 772.59 772.54 770.39 769.73 769.06 764.74 753.89 742.89 736.65 729.87 724.18 722.21 723.18 725.74 726.65 726.62 725.9 723.36 722.65 723.52 723.45 721.68 719.36 716.97 713.8 709.43 704.64 700.23 696.1 689.77 682.66 676.21 667.78 660.1 650.28 644.48 640.71 638.57 638.12 638.71 638.89 638.05 639.21 638.97 638.99 639.32 638.97 638.65 638.67 637.54 637 637.28 636.82 636.79 636.36 636.78 637.75 637.04 637.81 640.51 643.99 646.18 647.71 648.27 648.74 649.98 650.51 651.15 652.94 653.4 654.15 654.19 653.77 653.19 653.83 653.72 655.44 655.17 655.19 655.7 656.51 657.98 658.93 658.89 660.48 661.22 662.41 662.91 663.95 664.69 665.65 666.03 666.94 667.13 667.93 669.37 670.73 669.11 668.05 669.46 670.79 672.5 674.2 677.1 678.39 678.96 679.44 678.39 675.5 673.33 671.54 670.8 670.73 670.76 670.73 670.8 669.78 668.87 669.08 669.15 669.67 670 668.11 666.59 664.27 663.56 663.65 663.97 663.16 661.71 663.04 664.45 665.58 666.13 666.48 667.36 668.86 669.52 671.17 671.84 674.92 676.17 677.49 678.61 679.96 681.77 683.57 685.32 686.86 689.25 690.43 692.05 693.54 695.49 697.05 700.04 703.05 705.64 707.97 710.63 714.09 715.48 716.45 716.52 716.67 716.98 716.4 715.76 715.98 716.3 716.95 716.07 716.28 716.61 716.71 717.24 717.3 718.31 716.23 715.4 715.19 713.65 712.43 711.33 709.76 708.26 707.79 708.4 708.09 706.65 706.13 704.52 704.11 702.52 700.05 697.71 694.72 693.61 691.88 691.91 692.42 693.21 696.19 703.09 710.71 717.57 724.65 730.68 736.41 744.81 755.22 760.08 764.66 768.39 772 777.67 782.03 788.23 791.79 792.52 793.97 794.71 796.06 796.62 796.84 796.74 796.03 795.5 795.66 795.05 794.43 794.4 794.2 793.34 793.08 793.3 793.43 793.01 793 793.64 794.32 794.45 795.19 796.09 797.21 797.6 799.53 803.54 807.73 810.89 817.17 819.35 819.78 819.36 822.34 821.41 817.65 814.11 813.23 812.79 803.11 793.74 784.54 775.64 759.52 747.73 735.41 723.28 711.03 699.47 686.44 679.56 673.02 664.76 658.02 652.12 647.33 639.88 634.47 630.19 625.37 620.47 612.42 604.98 599.48 595.32 589.91 582.47 573.24 562.78 553.03 540.22 534.97 528.34
687.88 688.19 689.45 690.59 690.71 690.84 691.08 691.34 690.39 688.9 688.44 687.9 686.17 685.07 684.21 683.49 682.68 680.55 679.2 678.14 677.51 676.22 674.59 673.52 672.55 669.06 668.62 667.1 666.36 665.03 664.23 663.69 662.29 660.48 660.33 660.13 659.8 659.55 659.8 660.42 661.17 660.05 662.28 663.1 664.21 665.17 666.22 667.8 668.9 667.32 668.59 668.1 670.1 671.99 674.67 676.67 678.42 678.38 679.08 680.52 681.78 683.5 685.01 686.17 687.03 687.57 688 688.87 690.51 691.33 691.38 691.3 690.95 689.29 689.08 688.3 686.51 685.03 684.06 682.74 681.17 678.89 676.16 674.34 672.57 670.41 668.5 666.46 664.48 662.7 661.23 661 661.37 661.33 661.41 660.81 661.3 660.83 660.76 659.85 657.61 656.14 653.55 652.4 650.29 648.2 647.98 648.88 652.42 655.07 657.02 659.51 661.67 663.83 665.66 667.27 668.47 670.91 671.45 672.12 672.68 673.97 674.27 674.88 675.99 677.31 679.51 681.5 683.54 687.05 689.48 692.95 695.59 698.55 701.95 707.87 711.33 717.86 723.42 728.41 733.94 740.75 750.88 758.45 763 765.74 767.15 768.54 769.83 771.33 772.37 773.84 773.42 773.85 773.62 772.85 773.19 772.26 770.43 764.91 754.16 745.37 739.38 735.33 733.55 732.82 734.01 732.63 731.8 731.73 730.44 726.63 724.59 724.35 722.27 720.98 718.91 716.86 712.09 707.73 703.59 699.14 690.56 686.58 679.73 672.44 664.89 656.14 650.84 644.39 641.58 639.1 638.68 639.47 639.42 639.4 639.91 640.29 639.74 639.2 639.92 638.83 639.18 639.29 638.25 637.46 637.85 637.26 636.98 637.78 638.19 638.17 638.97 641.78 644.5 647.14 647.79 648.82 649.97 651.08 651.42 653.23 653.88 654.48 655.14 655.55 655.34 656.17 655.69 656.26 656.27 656.76 656.54 656.87 657.33 659.12 660.92 660.92 661.14 661.75 662.41 663.34 665.33 666.01 666.81 666.8 667.48 668.47 669.57 669.13 669.95 669.84 669.67 669.4 670.75 672.01 672.69 675.82 678.31 678.37 678.72 678.03 675.68 673.89 673.01 672.08 671.61 671.08 671.4 671.18 671.18 669.97 669.7 669.59 669.78 668.98 667.73 665.2 663.91 663.49 663.11 662.91 662.73 663.44 664.7 664.25 664.96 666.9 667.63 668.48 669.06 669.86 671.57 673.41 675.75 677.92 678.88 680.6 681.49 683.13 684.41 686.19 688.67 691 692.93 693.83 695.61 698.6 700.93 705.22 706.01 708.07 710.26 711.59 714.04 716.02 717.95 719.02 720.26 720.69 720.31 718.71 719 718.46 719.45 719.42 719.85 720.17 719.39 719.36 719.71 719.58 719.42 718.73 718.62 717.24 714.48 713.66 711.5 710.65 711.16 710.71 710.08 706.99 706.55 705.76 704.48 702.06 698.89 696.01 695.35 694.32 694.22 694.71 694.52 695.79 698.85 702.39 708.73 715.23 722.1 728.36 734.15 744.4 751.17 757.87 763.81 768.98 773.75 780.54 784.72 788.03 790.43 792.61 794.2 794.75 796.07 796.26 796.49 795.59 795.67 795.11 795.17 794.36 794.08 793.43 792.34 792.89 792.57 792.6 792.56 792.39 792.82 793.27 794.54 794.89 796.11 796.65 797.4 800.19 807.23 812.31 815.56 817.74 819.29 819.44 820.84 824 824.08 823.24 817.54 815.07 813.7 809.13 798.72 789.07 776.19 765.77 756.78 745.76 734.08 723.4 711.99 697.77 689.56 683.56 675.08 666.33 658.12 652.36 646.16 640.45 635.07 629.94 625.94 619.65 611.63 606.61 603.48 597.21 590.3 582.61 570.89 559.92 549.08 540.3 533.77 527.17
688.64 691.26 692.22 693.03 692.7 693.24 693.18 692.78 692.92 691.8 691.72 691.1 688.31 687.41 686.98 686.19 685.33 684.25 682.97 682.26 679.47 678.15 676.96 676.29 674.96 673.63 672.35 671.97 668.09 667.59 667.48 666.76 665.47 664.27 664.32 664.32 662.36 663.35 663.92 663.58 664.33 666.27 666.92 669.14 667.82 668.73 669.52 671.99 672.26 672.43 672.33 672.68 672.83 675.14 678.46 679.37 682.04 682.67 683.32 683.77 684.57 686.4 687.79 688.5 690.27 690.35 691.79 691.53 691.85 692.3 692.54 691.9 692.15 691.86 690.88 689.54 687.88 686.83 685.14 684.3 682.69 680.77 678.49 676.42 673.5 672.11 669.55 667.59 664.91 664.7 662.93 663.11 662.3 662.64 662.36 662.79 662.59 662.43 662.54 661.37 659.29 657.03 655.08 653.85 652.06 650.66 649.29 651.2 653.4 655.01 657.83 660.16 662.65 664.86 667.1 668.78 670.28 671.67 673.1 673.08 674.37 676.25 676.66 676.67 676.63 677.69 680.8 682.88 684.93 688.97 693.56 695.39 697.03 700.7 705.97 711.61 716.09 722.2 727.31 731.46 736.35 745.07 751.95 758.65 763.7 766.74 767.66 769.55 770.74 772.16 773.21 774.1 774.45 774.94 774.78 774.9 774.1 773.54 772.97 766.01 756.41 751.23 747.38 742.2 740.54 740.62 740.72 738.09 737.77 737.13 733.36 729.36 728.22 725.7 722.37 720.45 719.3 715.38 710.81 706.25 702.33 694.87 687.69 681.3 673.66 666.9 661.31 655.28 649 645.09 642.82 639.82 639.99 640.16 639.89 640.23 640.99 641.05 640.92 641.05 640.63 640.78 639.72 639.41 638.4 638.34 638.13 638.62 638.46 638.44 638.98 638.78 639.85 642.63 645.6 647.83 648.87 649.27 650.25 651.67 652.75 655.42 655.83 656.52 657.03 656.75 657.21 656.7 657.9 658.23 658.62 659.36 658.06 657.54 658.55 660.16 661.81 663.61 664.04 663.42 663.48 664.61 665.5 666.75 668.34 668.49 669.32 669.69 669.69 670.01 669.7 669.21 669.93 670.27 670.5 671.47 672.39 674.17 677.52 678.29 677.73 676.94 676.21 674.95 673.65 672.62 672.35 672.4 672.04 672.05 671.78 670.88 670.19 670 669.85 668.77 667.34 665.26 663.48 663.73 663.47 663.24 663.03 663.82 665.31 665.76 665.17 667.18 667.94 669.37 670.04 671.54 672.89 674.4 677.23 679.56 680.98 681.43 683.84 688.55 690.76 689.62 691.64 693.76 696.32 699.09 702.11 705.47 712.32 714.1 714.82 714.31 713.86 714.5 715.65 717.84 719.08 720.08 721.55 722.1 722.77 722.49 722.3 721.9 721.86 722.1 722.72 722.72 722.11 722.73 722.89 721.79 721.27 721.19 720 719.4 718.72 716.28 715.01 713.29 713.54 712.06 710.89 710.22 707.04 705.99 703.64 701.23 698.8 696.86 695.95 696.83 697.24 697.21 696.54 697.44 700.34 702.34 705.84 711.5 719.05 727.36 735.01 742.16 750.25 755.85 761.67 767.57 774.87 779.81 783.69 786.67 789.48 791.85 793.85 794.7 795.71 795.85 795.62 795.12 794.62 794.34 793.86 793.2 793.16 791.99 792.24 792.02 790.46 791.8 791.6 792.62 793.09 792.95 794.41 795.39 796.34 796.88 799.33 804.39 810.71 816.13 818.26 820.02 821.43 823.32 824.54 827.11 825.43 824.26 821.93 816.04 808.15 802.3 793.5 781.64 771.03 761.1 750.45 740.1 729.81 721.25 707.66 698.65 693.1 688.28 678.45 667.25 661.02 652.7 646.39 640.27 632.88 629 623.12 615.81 610.33 607.97 604 596.27 588.11 580.13 568.36 560.37 549.35 540.42 533.29 528.86
690.53 692.05 694.78 695.36 696.47 696.27 695.95 696.48 694.23 694.42 693.92 692.43 692.11 691.44 690.93 690.4 687.63 686.63 685.65 684.62 683.09 681.91 680.96 679.71 677.36 676.58 675.6 674.88 673.15 672.87 672.07 670.69 668.09 667.67 667.36 667.21 667.21 667.87 668.16 669.03 668.52 669.57 670.81 671.86 673.65 673.7 674.11 676.17 675.99 675.89 674.94 674.64 675.81 679.2 682.57 684.85 684.85 685.43 685.66 685.95 689.26 690.03 691.74 693.4 692.25 692.97 693.47 693.72 694.65 695.35 694.59 694.75 693.81 693.02 692.43 691.09 690.41 689.09 688.19 685.91 683.33 682.29 680.01 677.04 675.66 673.86 671.17 669.04 666.97 664.76 664.44 664.43 664.09 664.36 664.06 664.07 664.09 663.81 663.81 662.78 661.04 659.99 656.95 655.4 652.94 651.86 650.18 651.81 653.55 656.42 659.07 660.96 663.35 666.84 669.09 670.59 671.96 673.35 675.28 674.56 676.45 677.54 677.9 678.57 679.2 679.6 681.94 684 686.39 690.48 695.24 697.22 699.98 704.41 708.76 712.4 717.42 722.26 727.02 733.59 741.87 747.13 753.15 759.66 764.07 766.14 768.86 769.7 771.37 772.3 773.8 774.08 774.97 775.57 775.21 775.45 775.01 775.01 774.84 766 757.27 755.66 752.62 751.85 751.87 750.64 744.8 743.3 740.39 738.5 734.18 730.79 729.56 724.74 722.08 720.77 719.19 714.49 707.92 702.8 698.19 691.44 683.45 677.42 670.66 664.36 659.82 655.6 651.8 646.08 642.15 640.38 640.47 641.54 641.37 641.27 641.8 640.86 641.35 641.21 641.06 641.03 640.75 640.25 639.87 638.9 638.96 638.81 639.24 639.4 639.19 639.7 640.73 644.21 646.53 648.55 649.58 650.08 650.98 653.64 655.16 656.57 656.55 657.11 657.85 658.48 659.38 660.07 659.55 660.43 660.82 661.32 661.41 663.37 664 662.65 662.68 663.74 664.62 666.31 665 665.84 666.13 666.91 667.72 669.11 669.75 671.3 671.33 671.14 671.26 670.85 670.38 670.69 670.51 670.92 671.84 673.31 674.48 677.28 676.6 675.77 675.94 674.52 674.04 673.6 672.71 673.22 672.67 672.93 672.23 671.66 671.74 671.72 670.51 668.83 667.73 665.68 664.46 663.87 664.62 663.29 663.78 664.45 665.41 666.2 666.49 667.33 669.65 670.41 671.03 672.26 673.71 676.18 678.35 680.63 682.47 683.15 687.55 691.7 694.07 697.38 698.91 699.55 699.26 702.45 706.11 711.79 716.23 720 723.29 725.59 721.78 720.18 721.34 723.5 723.57 724.08 724.49 724.59 723.93 723.83 723.97 724.5 725.46 725.96 726.63 725.03 725.26 725.09 724.72 725.26 724.35 725.22 723.24 721.85 720.65 718.9 716.61 715.54 715.24 713.27 711.1 709.93 708.2 706.27 704.83 703.53 702.15 700.1 699.61 699.98 699.55 699.41 699.1 698.92 701.05 703.53 707.28 710.56 717.69 725 733.37 739.41 748.35 755.08 761.63 768.69 774.79 779.19 782.82 785.94 788.46 791.14 793.1 793.94 794.43 794.27 794.78 794.68 794.19 793.45 792.68 791.89 791.87 790.55 789.95 790.41 789.89 790.91 791.17 791.28 791.92 792.94 794.73 795.81 797.09 798.59 803.06 810.37 816.82 821.22 821.15 822.9 824.65 827.19 832.01 833.83 829.5 824.7 816.82 808.77 800.48 792.84 783.9 773.68 766.64 756.44 747.13 737.51 727.53 715.06 706.87 701.19 696.1 690.39 679.62 669.09 659.26 654.63 647.9 639.81 633.31 627.73 620.33 615 610.87 605.75 599.6 593.69 586.62 574.88 567.91 559.98 549.55 542.43 533.76 527.93
692.61 694.28 696.39 696.14 698.13 698.01 698.27 698.84 698.07 697.59 698.05 695.62 694.33 693.68 693.02 692.02 691.11 690.2 689.22 686.67 685.18 684.22 683.28 681.75 681.3 680.62 679.81 677.31 676.29 675.41 675.49 673.71 673.06 672.19 672.55 671.12 670.08 671.36 671.74 671.94 673.62 673.84 675.53 675.47 677.36 678.98 679.67 680.26 681.38 682.45 683.42 679.57 683.3 685.38 687.47 688.93 689.97 692.1 693.85 692.59 691.85 693.6 695.19 696.01 697.63 696.97 697.23 696.65 696.81 696.82 696.65 697.09 696.69 695.08 694.52 693.38 692.14 690.34 689.81 687.4 686.08 684.74 682.48 678.61 677.53 674.82 672.44 670.26 668.47 666.76 666.26 665.11 664.71 664.93 665.37 665.82 665.69 665.78 665.64 663.23 661.81 660.53 658.5 656.76 655.32 652.59 651.36 652.19 654.77 656.55 659.29 661.86 665.97 668.11 670.42 671.16 673.35 674.62 675.8 677.98 678.5 679.72 680.26 681.44 681.3 682.27 683.09 685.25 688.19 690.54 693.09 697.27 702.25 706.94 710.43 714.92 719.5 723.11 728.16 736.57 742.24 748.55 753.94 759.35 762.03 766.77 768.38 770.36 771.68 772.9 773.71 774.76 776.14 776.71 776.04 776.18 776.04 775.6 772.44 763.36 760.97 759.92 755.41 754.79 755.14 752.9 748.14 746.24 744.75 740.99 735.93 731.97 727.56 723.81 722.33 720.1 716.57 712.89 707.88 701.94 695.38 689.17 681.04 674.87 667.98 662.8 659.64 656.36 653.23 648.02 643.29 641.66 641.22 641.92 642.43 641.83 642.5 642.61 642.5 641.94 641.37 641.96 641.19 640.61 640.43 640 640.09 640.41 640.05 640.15 640.25 640.98 641.04 643.48 646.61 648.83 649.7 650.74 651.88 654.5 656.02 657.62 658.17 658.18 658.66 660.1 660.62 661.15 662.44 663.34 664.36 663.79 664.45 665.75 666.62 665.86 664.98 665.36 666.01 667.45 667.65 666.96 667.2 667.8 669.27 670.75 671.54 671.63 672.4 671.81 671.98 672.48 672.61 671.93 671.32 671.04 672.16 672.37 673.39 674.61 674.42 675.17 675.42 674.53 674.31 673.97 674.36 674.43 673.71 673.8 673.24 672.8 672.47 672.45 671.24 670.2 668.02 665.49 664.1 664.86 664.62 664.32 664.18 664.16 665.21 667.22 668.05 668.32 668.25 670.51 672.16 673.64 674.44 676.95 679.47 681.68 683.66 686.28 692.1 697.3 697.32 700.12 701.26 704.76 706.68 708.22 711.87 714.64 721.21 725.95 727.75 729.37 730 731.95 734.05 731.36 732.21 732.06 731.77 730.01 729.32 729.46 727.13 726.96 727.31 727.95 729.26 729.23 729.35 729 727.6 727.12 728.04 727.49 726.39 726.04 724 721.52 717.75 717.46 716.87 713.9 712.36 710.33 709.85 707.93 706.11 706.17 705.64 704.55 703.91 703.24 702.74 700.85 700.18 700.04 701.45 703.57 706.58 710.57 716.91 722.89 729.01 736.59 745.41 754.55 762.54 767.83 772.64 777.47 781.71 786.14 789.08 791.24 791.94 793.07 793.36 793.96 793.87 792.87 792.52 790.95 791.39 790.92 790.06 789.47 789.26 788.53 788.48 788.08 790.08 790.43 791.23 792.53 794.19 796.1 799.34 802.98 809.66 817.46 822.72 824.41 826.71 829.07 830.72 830.58 834.08 829.3 820.22 812.53 806.04 798.39 792.36 785.44 777.21 768.23 759.35 750 740.55 733.74 722 713.76 707.36 701.96 698.06 691.44 675.98 667.02 661.22 655.84 647.66 639.23 632.52 625.24 619.6 614.89 610.82 604.98 598.46 593.14 582.36 574.78 567.1 557.66 548.29 540.14 532.61 524.77
692.87 695.59 696.92 699.03 700.13 701.08 700.69 701.08 700.39 699.96 700.3 698.33 697.76 696.6 695.39 694.79 693.24 691.99 690.66 689.82 688.76 687.67 685.37 685.03 683.52 682.64 682.01 680.92 680.34 680.55 678.47 676.61 675.79 674.91 675.02 675.58 675.74 675.89 674.92 675.41 676.89 677.48 679.81 681.47 683.07 685.67 684.82 684.41 685.33 687.62 690.45 696.63 699.59 701.63 697.2 695.1 695.02 697.89 698.69 700.77 701.32 701.66 699.67 700.21 701.35 699.94 700.59 700.79 700.91 700.83 698.62 698.63 698.7 697.85 697.62 695.95 694.91 693.28 690.91 689.72 687.53 686.06 683.61 681.31 678.63 675.96 673.69 671.32 669.79 667.81 667.7 667.2 667.07 667.6 666.63 666.76 666.59 667.27 666.47 664.76 663.45 662.12 660 657.8 654.97 653.46 652.05 653.17 655.86 657.73 660.07 664.41 666.41 669.71 671.79 673.7 675.56 677.8 677.97 678.8 680.51 681.16 682.6 683.84 684.72 685.92 685.33 685.92 688.51 691.87 694.92 699.1 704.75 710.01 712.67 717.04 721 727.93 733.65 740.3 745.58 749.51 754.4 758.42 763.1 766.83 768.03 770.3 772.16 773.23 774.44 775.35 777.17 777.5 777.52 777.36 776.65 774.71 767.72 764.41 763.66 762.51 761.21 760.22 757.25 754.16 749.31 746.81 744.18 739.9 737.11 730.34 727.01 725.39 722.68 718.76 715.11 708.48 704.72 698.33 693.33 685.8 679.17 670.93 665.85 662.26 659.38 656.82 653.73 649.73 644.7 642.28 642.23 642.79 643.39 642.64 642.85 643.93 642.64 642.62 642.67 642.3 642.24 641.67 640.19 640.43 640.7 641.51 641.31 641.74 641.8 641.5 642.14 644.01 646.43 649.44 649.75 651.39 652.72 655.08 657.37 658.67 658.97 660.16 660.9 661.02 661.88 662.22 663.38 663.94 664.89 665.38 666.32 668.45 667.85 667.19 666.16 666.81 667.06 667.95 668.91 669.64 668.83 668.56 669.83 671.28 672.68 673.04 673.8 673.72 673 673.53 673.35 673.07 672.82 672.25 672.41 671.9 672.94 673.36 673.87 673.98 673.74 673.66 674.68 674.3 674.71 674.78 674.93 675.53 674.98 674.06 673.01 672.28 671.01 669.77 668.01 666.88 665.36 664.84 664.62 664.65 664.82 664.34 664.25 666.4 668.85 669.56 669.48 669.67 672.26 674.03 676.5 678.39 680.29 682.86 685.18 687.74 693.12 697.53 699.9 702.14 705.02 709.09 712.15 713.4 715.81 721.59 727.51 729.33 731.61 733.22 736.32 738.68 739.77 740.71 742.94 743.93 741.48 739.63 739.51 738.3 736.62 735.66 735.12 733.21 732.15 730.87 731.76 730.79 731.21 730.49 730.76 729.8 728.44 728.15 726.48 723.59 719.04 717.72 716.02 714.07 714.13 711.73 710.99 710.27 709.77 709.64 707.62 707.43 706.35 704.87 704.53 703.48 702.12 701.65 702.35 704.14 707.11 710.45 714.9 720.33 725.43 734.28 743.07 755.01 760.42 766.07 771.2 776.11 782.3 787.32 789.76 790.59 791.41 792.41 792.54 792.5 792.6 792.11 791.51 789.63 789.14 788.45 787.29 785.91 787.42 786.71 786.44 786.89 788.16 788.61 790.02 792.08 794.02 797.24 804.03 810.21 818.28 822.51 826.12 828.2 831.06 833.07 833.96 828.89 820.96 814.14 811.52 804.53 798.63 791.38 781.85 777.14 769.44 762.75 755.19 745.91 733.81 726.71 721.17 710.78 705.42 701.59 698.33 687.45 676.81 668.69 663.03 657.28 649.33 639.65 630.31 625.76 619.51 616.6 611.86 604.05 598.08 588.35 581.05 573.15 565.21 554.92 545.83 537.2 530.51 524.01
694.26 696.73 698.03 700.67 701.98 702.74 703.52 703.39 703.03 703.46 700.91 700.48 700.29 699.54 698.11 697.91 695.94 695.73 693.26 692.32 690.8 690.06 688.95 687.98 686.9 687.31 684.98 683.68 683.42 682.36 682.29 681.27 680.15 679.12 678.31 678.6 678.94 679.07 679.63 680.62 682.09 682.86 681.64 684.95 687.12 688.7 690.11 691.68 694.62 696.27 697.08 703.04 708.95 709.74 708.85 710.08 705.14 705.02 705.29 708.67 708.58 709.11 706.79 707.1 707.5 709.22 707.21 706.39 704.99 705.31 703.7 702.49 702.12 701.56 699.59 698.07 696.44 694.04 693.36 692.12 689.35 687.22 684.47 680.94 680.13 677.16 674.98 673.1 671.2 670.21 668.32 668.11 668.54 668.44 669.14 669.19 668.72 668.1 667.34 666.11 664.76 662.82 661.15 659.05 656.59 654.62 653.08 654.14 656.96 659.26 662.98 665.48 668.48 671.28 673.79 676.3 679.33 679.52 680.72 683.7 685.34 685.08 685.4 686.79 686.82 688.09 689.13 689.85 691.24 693.23 696.99 700.38 706 710.89 715.68 720.28 724.91 728.78 735.4 741.05 746.41 750.55 756.05 759.64 763.31 766.22 768.57 770.16 772.54 773.75 775.51 776.49 777.18 777.55 778.05 778.01 777.3 772.41 768.58 767.17 765.9 765.24 764.42 762.15 759.57 755.79 750.44 747.89 743.82 740.44 734.58 729.68 727.52 724.57 722.5 717.74 711.46 705.38 701.33 696.83 687.99 680.12 673.68 668.34 665.34 663.02 660.49 657.93 654.87 652.25 646.29 643.47 642.67 643.84 643.77 642.98 644.14 644.57 644.28 643.34 643.2 642.65 642.73 642.03 641.91 641.32 641.32 641.38 642.52 643.14 642.95 643.2 643.45 643.69 645.53 648.13 650.46 651.16 652.71 655.4 657.9 658.48 659.37 660.62 661.78 661.93 662.64 663.59 664.72 665.98 665.91 667.08 667.85 668.65 669.16 668.38 668.76 668.29 668.3 668.98 669.67 670.58 671.54 670.79 670.54 671.52 672.56 674.09 675.15 674.98 675.43 675.5 674.28 673.45 674.58 673.26 672.64 672.55 672.89 672.52 672.78 673.05 672.65 674.32 674.97 675.61 675.47 675.63 676.18 675.96 675.03 675.75 674.5 672.83 670.8 669.28 668.34 666.75 665.9 664.85 665.06 665.11 665.07 664.41 664.82 666.66 669.48 670.6 670.41 671.04 673.46 674.99 676.6 679.25 681.26 683.48 685.67 689.55 693.19 697.14 699.03 700.61 703.8 709.6 713.74 716.82 719.63 724.83 728.34 730.64 732.92 737.79 740.15 741.46 742.82 744.23 745.53 745.93 746.44 747.07 747.42 743.81 743.48 741.09 739.64 737.06 736.42 736.12 735.62 733.85 735.31 736.42 735.03 734.93 735.42 733.86 729.38 723.61 719.71 717.77 715.19 714.6 714 713.93 712.58 712.64 712.38 711.96 711.66 710.6 708.65 706.86 705.67 704.16 703.55 703.03 703.18 705.22 706.65 708.52 713.39 718.53 724.81 732.41 743.09 749.37 758.19 763.84 769.34 775.48 782.06 786.28 788.43 789.92 790.96 791.67 792.22 791.81 791 790.07 789.74 788.7 787.96 786.97 785.52 784.21 783.6 783.72 783.35 784.89 786.3 787.42 788.91 790.64 795.05 801.52 806.51 815.39 819.93 825.43 830.96 832.2 834.68 836.48 829.06 820.2 812.61 805.54 798.61 792.74 787.47 781.79 777.32 771.22 764.11 756.19 747.55 736 729.62 723.68 718.31 711.28 705.98 701.98 694.28 685.48 676.93 670.05 663.84 658.13 650.05 639.24 632.72 625.71 620.69 617.99 611.85 600.51 594.04 587.57 578.96 571.38 562.12 553.86 546.93 538.37 527.85 524.97
694.45 697.94 700.11 702.24 703.81 703.85 704.64 704.43 704.66 704.54 704.44 703.97 702.78 701.69 700.71 699.59 698.42 697.89 696.27 695.9 694.64 691.81 691.32 690.34 690.44 688.99 688.6 687.62 686.92 685.4 684.32 684.4 683.29 682.62 683.11 683.17 683.65 682.78 682.97 685.65 687.42 688.74 690.46 690.59 692.34 692.49 694.37 698.27 701.84 706.18 711.35 716.53 721.25 716.74 715.11 713.82 711.08 711.17 716.49 718.34 717.33 713.62 711.66 710.98 711.38 713.09 713.59 713.32 712.4 709.52 709.58 706.37 705.36 704.78 703.42 701.64 699.91 696.8 695.05 694.86 692.75 691.12 685.96 682.26 680.87 677.93 675.99 673.95 672.94 671.06 669.52 669.39 670.24 669.32 670.4 670 670.37 670.07 669.19 667.85 666.44 664.14 661.82 659.66 657.72 656.1 655.26 656.39 658 661.12 664.34 667.67 672.15 675.26 678.52 681.37 682.32 681.48 683.86 687.02 687.99 689.54 691.08 691.33 689.16 690.4 691.59 692.42 693.23 696.94 699.98 702.82 706.69 713.13 716.15 721.9 725.81 730.21 735.03 740.24 747.32 750.54 756.28 759.48 763.21 765.8 768.28 770.41 772.76 774.31 775.53 776.6 777.94 778.28 778.41 778.08 777.26 772 770.17 769.25 767.41 767.24 765.21 763.59 760.28 756.19 751.43 748.1 743.99 737.88 735.55 730 727.17 724.31 721.33 713.41 707.32 702.87 700.32 693.7 686.53 677.74 672 668.54 665.63 663.27 661.16 657.86 655.07 650.92 646.32 643.45 644.32 644.47 644.36 644.06 644.62 644.54 644.42 644.7 644.62 643.99 643.33 643.22 642.24 641.61 642.06 642.76 643.14 644.2 644.79 643.64 644.07 644.62 644.89 647.27 649.2 651.13 652.4 654.26 657.72 658.23 660.16 660.5 662.33 662.37 663.36 665.02 666.03 667.29 667.69 668.61 669.13 669.44 669.25 668.59 668.83 668.8 669.7 670.09 671.08 671.71 673.26 673.19 671.8 673.36 673.66 675.51 675.69 675.93 675.99 676.48 676.19 676.56 676.19 675.1 673.4 673.58 672.69 672.93 672.95 674.03 674.27 675.58 676.18 676.33 676.84 676.78 677.56 677.12 677.31 676.3 676.2 675.66 671.33 670.37 668.94 668.83 668.02 665.66 666.16 665.69 665.38 664.93 664.25 668.11 671.32 671.35 672.06 671.79 672.61 674.67 676.98 679.16 681.31 684.62 686.43 689.68 692.08 695.81 698.04 700.03 702.73 705.9 710.22 715.05 717.48 722.8 727.43 731.17 735.09 738.91 740.84 742.61 744.8 746.29 746.8 747.37 747.4 748.17 748.11 747.23 746.68 744.16 742.17 740.32 739.47 738.56 739.17 741.23 741.5 740.29 739.25 736.64 736.05 734.95 731.06 725.62 720.51 718.17 716.84 715.48 715.04 716.15 715.8 714.93 715.69 714.63 713.84 712.7 710.11 708.73 706.57 706.23 705.24 702.87 704.22 704.95 706.15 707.79 710.57 714.32 725.79 732.78 739.55 746.12 754.59 761.03 767.51 775.58 779.29 782.93 786.71 788.77 789.82 790.53 790.72 791.06 790.53 789.56 788.5 786.91 785.49 784.26 783.75 782.8 781.96 781.63 780.91 781.49 782.53 783.14 786.48 790.79 796.58 802.65 811.45 816.14 819.88 826.64 829.31 832.05 832.16 825.61 815.2 808.34 801.64 798.57 792.02 783.97 777.32 772.58 768.58 762.03 758.11 750.58 739.94 731.14 724.94 720.87 716.31 711.16 707.47 701.25 692.41 684.25 676.76 670.11 663.69 658.06 648.35 641.59 634.56 627.47 620.77 618.79 609.22 600.52 594.22 587.86 577.84 568.3 566.51 556.85 545.63 537.59 528.38 526.06
695.49 699.06 701.75 703.56 704.86 706.21 706.43 706.78 706.84 706.64 706.45 705.75 705.23 704.27 703.56 703.26 701.37 699.74 698.36 698.15 696.25 694.8 694.75 693.88 692.41 692.35 691.39 690.35 689.41 689.21 689.02 688.39 685.75 685.87 685.92 686.74 687.4 689.93 691.86 694.05 693.32 695.23 697.61 697 696.98 698.67 701.05 704.44 708.27 713.57 718.79 724.03 726.18 726.8 721.99 719.98 715.67 718.7 722.73 724.14 723.12 720.68 718.89 717.88 715.72 717.75 719.41 718.93 717.16 716.51 715.73 712.58 707.63 706.58 706.33 704.12 703.13 701.55 700.69 698.39 696.67 692.24 687.73 683.07 681.28 680.08 677.93 675.37 672.89 671.49 671 671.22 671.32 671.64 671.99 672.24 671.29 670.89 670.38 669.21 666.92 664.93 663.07 661.07 657.95 656.99 655.17 657.84 661.02 664.79 668.73 671.79 676.03 678.49 682.27 683.89 685.93 687.96 689.86 691.77 690.25 693.89 694.89 695.87 696.97 696.9 695.88 696.51 696.98 699.17 701.54 703.98 706.94 713.11 719.08 724.13 727.06 732.23 736.72 741.05 744.82 750.63 755.05 759.08 761.53 765.23 768.23 770.44 772.73 774.06 775.82 777.04 777.51 778.26 778.7 777.6 775.93 773.66 772.17 770.51 769.44 768.68 766.37 764.01 761.3 755.85 751.35 747.01 742.74 737.64 734.44 730.01 726.55 722.16 715.6 710.71 706.19 702.61 700.26 692.56 685.14 675.38 672.02 668.73 666.56 664.13 660.73 658.04 654.97 651.97 647.04 644.13 644.97 644.97 645.05 645.39 646.3 646.15 645.57 644.84 645.09 644.19 643.91 643.74 642.64 643.12 642.97 643.21 643.68 644.06 645.27 645.45 645.69 644.81 645.58 646.61 648.95 650.42 652.33 653.36 655.36 658.89 660.02 661 662.33 663.53 663.91 666.63 668.51 670.33 670.21 669.65 670.35 669.87 671.5 670.47 669.42 669.86 670.74 671.53 672.43 672.93 674.22 674.94 673.09 672.99 675.05 676.16 677.75 677.41 677.83 677.98 677.36 676.75 676.14 675.39 673.59 673.45 674.26 674.12 675.13 676.3 677.21 678.09 677.5 677.7 678.71 677.81 678.31 678.74 678.55 678.41 677.85 677.14 673.92 671.88 670.22 670.74 668.84 667.88 667.28 666.69 666.12 665.78 664.62 669.78 672.89 673.93 674.06 673.83 673.27 674.09 677.1 679.72 682.52 684.65 686.92 689.63 692.07 694.58 696.82 699.61 702.17 704.49 706.97 709.92 714.19 719.33 725.22 728.08 733.45 737.69 740.51 743.61 746.61 747.09 748.72 749.35 749.52 749.67 749.19 748.74 748.19 746.6 745.57 744.91 743.85 744.05 744.61 744.26 743.18 741.96 739.45 737.84 735.29 734.84 732.23 726.32 721.34 718.93 718.13 718.1 719.16 718.78 718.02 718.17 717.58 717.22 716.87 715.53 712.91 711.23 708.66 707.75 706.8 706.06 705.75 706.15 706.52 707.69 710.45 714.1 720.72 727.52 734.02 742.95 750.74 757.3 765.85 770.85 775.05 779.69 784.49 787.55 788.28 789.49 788.9 789.47 788.42 787.84 786.98 785.14 783.33 782.06 781.04 779.91 778.7 778.62 779 778.81 779.84 779.82 781.38 787.13 792.51 803.87 811.43 812.07 815.88 818.24 823.3 823.08 822.27 814.83 807.18 800.02 793.73 786.82 778.84 772.55 770.46 765.77 761.35 756.04 749.18 740.33 732.74 728.82 723.28 719.54 714.96 710.83 705.65 698.03 690.03 682 673.98 668.51 661.6 654.13 646.93 640.87 635.11 627.1 621.94 615.24 608.49 601.06 595.91 587.78 577.69 570.48 563.36 556.62 545.76 540.63 532.44 526.82
698.24 700.34 702.71 704.79 705.72 706.84 708.64 709.51 709.31 710.16 709.26 708.95 706.5 706.01 705.57 704.55 703.84 703.14 702.54 701.45 698.45 697.76 697.87 696.88 696.46 695.61 695.01 693.29 692.5 692.17 692.39 691.95 690.63 691.28 691.22 691.76 690.79 693.25 694.96 697.47 700.36 702.11 704.54 705.76 703.64 702.93 705.79 709.92 716.19 721.38 724.31 728.29 728.26 728.57 725.33 723.06 723.3 725.29 728.44 730.33 726.96 724.73 724.88 724.9 724.54 725.26 726.48 726.37 721.16 719.1 719.06 717.52 714.21 711.57 710.47 709.15 705.84 703.64 703.36 700.97 698.16 693.81 688.31 686.13 683.02 680.66 678.24 676.11 674.65 673.55 672.86 672.89 672.22 672.2 672.62 672.53 672.21 672.09 671.61 669.36 667.39 665.78 663.74 662.23 659.77 656.99 657.67 659.25 664.47 667.52 670.6 673.89 679.33 684.06 686.11 686.67 688.18 690.29 692.13 694.84 696.76 698.58 699.9 700.56 702.04 701 700.52 700.68 701.19 702.92 704.39 705.89 708.57 717.1 720.74 724.5 728.21 732.36 736.66 741.08 746.19 750.93 755.31 759.1 762.17 763.96 768.6 770.3 772.04 773.65 776.16 776.92 777.84 778.56 778.77 777.81 776.39 774.6 772.6 771.93 770.31 768.91 767.54 764.52 761.15 757.12 750.68 746.76 741.69 737.38 733.61 728.87 724.64 718.17 712.64 707.16 704.48 701.25 698.11 692 683.7 677.45 671.13 669.2 667.31 664.87 661.12 658.3 655.67 652.48 647.71 645.18 645.59 645.88 645.76 645.55 646.21 647.34 646.63 645.94 645.33 645.07 644.81 644.78 643.99 643.82 643.66 643.82 644.38 644.5 645.93 645.89 645.99 646.51 646.34 646.75 648.01 649.81 651.46 652.94 656.24 658.39 659.86 661.29 662.3 662.77 665.91 667.37 668.57 669.54 670.04 671.07 670.64 671.97 672.07 672.39 671.08 671.66 672.56 673.38 673.93 675.3 676.04 676.24 676.84 676.26 675.26 676.54 678.1 678.41 678.11 679.3 678.08 677.87 678.14 675.51 674.79 674.34 675.85 676.76 677.81 678.45 678.5 678.7 678.54 678.53 679.25 680.35 680.11 680.2 679.51 679.21 678.95 677.45 676.73 673.32 672.68 672.64 670.52 669.11 668.49 667.66 667.4 666.09 667.19 672.12 675.18 675.48 675.27 675.27 675.54 675.41 675.06 680.18 682.09 684.64 687.4 688.75 691.91 693.91 697.27 699.43 701.91 703.85 706.09 708.68 710.97 716.13 721.75 724.74 729.59 734.93 739.83 744.47 745.98 747.03 748.66 750.13 750.63 750.92 752.25 751.81 752 749.57 748.19 747.38 747.21 746.3 746.51 746.92 745.06 744.06 742.27 739.29 737.72 735.62 733.38 727.22 722.86 720.8 719.32 720.88 721.96 722.11 721.89 720.87 719.77 718.96 718.31 718 718.35 716.45 714.22 710.31 708.36 707.37 706.46 707.25 707 708.16 709.61 713.01 717.87 724.82 731.53 738.04 743.11 752.29 760.45 764.84 770.19 775.13 780.3 786.59 787.68 787.94 788.15 787.74 786.95 786.47 785.08 782.57 781.26 780.81 778.69 777.66 777.09 775.94 775.51 775.3 776.19 778.38 778.8 782.32 791.55 797.71 803.57 806.23 809.33 812.84 816.47 814.18 810.34 802.18 794.83 791.7 784.86 776.23 771.19 766.34 760.79 756.92 752.6 750.07 739.99 734.89 729.25 726.11 721.49 717.24 712.81 709.78 704.79 695.33 685.93 678.18 671.47 663.37 658.32 651.54 645.15 639.11 632.14 625.37 619.28 612.83 605.21 600.71 593.6 586.25 578.92 569.29 562.6 554.52 547.81 542.49 533.41 527.96
698.54 701.17 703.23 705.41 707.05 709.13 710.76 711.28 711.29 712.03 711.15 710.77 710.83 709.22 708.61 706.17 706.2 705.24 704.28 703.17 701.67 701.81 700.88 699.15 698.53 697.41 696.9 696.6 696.36 696.16 696.07 694.62 693.25 694.35 694.83 694.16 696.17 697.89 700.16 700.33 702.95 704.97 707.25 708.24 709.66 713.16 718 718.11 724.82 729.1 732.1 735.19 734.55 732.53 729.09 726.58 726.49 728.84 730.42 732.69 732.53 731.63 732.6 730.6 730.95 732.06 731.11 730.42 728.23 724.82 723.11 720.23 718.24 715.74 714.07 713.19 710.38 707.18 705.88 702.14 699.14 694.03 690.12 687.4 684.37 680.72 679.16 676.73 676.24 675.22 673.61 674.08 673.93 674.05 674.22 673.75 673.37 673.02 671.31 670.26 667.99 666.82 664.7 662.82 658.98 657.59 659.09 662.38 668.08 670.54 672.66 676.01 681.34 685.27 687.7 690.02 692.73 694.98 697.94 700.58 702.36 703.03 704.61 705.92 707.32 707.5 705.41 705.68 705.04 706.55 707.18 708.7 712.31 716.53 721.55 725.86 729.37 732.96 736.63 741.65 746.61 751.15 754.68 758.72 761.68 764.58 767.65 769.85 772.04 775.13 775.98 777.32 778.21 778.92 778.7 778.43 777.83 776.16 774.1 771.99 771.13 769.09 766.35 764.07 759.18 754.76 749.55 745.3 740.76 737.06 730.92 725.17 719.9 716.32 711.58 706.88 703.55 699.52 693.6 688.02 684.49 679.86 673.86 669.44 667.55 664.67 662.13 658.72 656.09 652.23 647.4 646.01 646.76 646.83 647.26 647.11 646.88 647.31 646.68 646.68 646.07 646.14 645.39 645.6 644.07 644.13 644.44 644.76 644.81 645.52 646.26 646.72 646.42 646.61 647.14 647.03 647.94 648.21 650.01 652.95 655.26 657.97 658.98 660.67 662.35 663.85 664.69 667.13 667.46 669.34 670.2 671.81 672.67 674.22 674.6 673.46 673.41 672.51 674.3 675.89 676.52 676.84 678.75 678.37 678.92 679.62 678.25 677.89 678.45 679.75 679.58 680.08 680.15 679.83 679.19 678.08 676.88 677.35 677.68 679.55 679.22 679.48 679.8 679.98 680.08 680.16 680.73 680.89 681.62 681.4 681.35 681.28 680.5 678.51 677.25 675.12 674.43 674.26 671.84 669.46 668.39 668.33 667.38 667.55 669.77 676 677.1 677.79 676.91 676.78 676.84 677.13 675.93 677.65 680.47 682.9 686 688.65 691.07 693.91 696.23 698.44 700.9 703.38 705.55 708.89 711.37 715.14 717.76 720.92 725.17 732.3 738.45 742.1 742.31 745.32 747.48 749.47 751.56 752.14 752.34 752.61 752.58 752.4 751.51 751.16 750.24 748.5 748.26 747.68 746.09 744.75 743.02 741.19 739.11 736.31 733.25 728.24 725.5 723.32 724.05 723.95 725.1 725.48 725.87 725.13 724.97 725.69 725.84 724.17 722.49 718.97 713.95 713.34 712.26 710.96 708.1 708.43 707.98 708.42 709.21 711.05 713.29 718.53 726.73 731.54 739.68 745.05 751.17 757.6 765.78 772.47 780.58 784.43 786.67 787.04 786.81 786.69 786 784.58 783.72 782.18 779.76 778.04 775.87 774.9 774.4 773.34 772.84 773.55 773.96 775.26 776.31 779.84 787.88 793.25 797.86 801.74 803.74 806.3 806.09 806.47 802.42 794.81 787.42 779.47 771.48 765.45 763.49 758.62 755.71 750.39 745.94 738.9 733.75 730.5 727.38 723.84 720.17 714.25 711.91 707.5 698.6 691.35 684.06 676.74 667.8 660.57 654.89 647.75 640.01 635.3 629.64 622.21 616.47 608.28 602.81 598.73 591.46 582.12 574.19 568.59 562.04 553.77 549.45 543.73 531.64 528.82
698.35 701.58 704.5 706.48 708.36 710.73 711.73 713.33 713.76 713.99 713.2 712.79 712.69 712.1 711.13 709.72 708.87 708.08 706.14 705.2 704.46 703.57 703.09 702.4 702.37 701.49 701.02 699.25 698.85 699.47 699.15 699.04 698.26 698.83 699.7 697.84 699.73 701.72 704.37 706.57 708.6 709.47 710.8 711.68 716.85 722.88 728.17 734.36 739.13 742.77 742.65 739.6 737.21 734.7 732.27 731.05 732.22 734.12 735.03 735.53 735.32 736.38 737.65 739.24 741.06 739.83 736.04 735.2 732.8 728.43 725.64 724.81 722.44 720.14 717.3 716.17 714.06 710.62 707.28 704.71 699.36 695.45 691.8 688.52 684.44 682.14 679.67 678.16 676.19 676.31 674.9 674.55 674.95 674.48 675.52 675.04 674.71 673.52 672.45 670.82 669.04 667.12 665.99 663.04 660.45 660.37 660.54 664.22 668.41 670.94 673.99 679.47 683.44 687.39 689.54 691.81 694.93 698.2 701.86 704.53 706.5 708.65 707.67 708.86 709.52 710.08 712.24 712.25 712.25 711.85 709.17 711.24 713.75 717.5 721.26 725.65 729.14 734.34 737.44 742.12 747.77 751.8 756.76 759.54 762.86 765.04 768.04 769.58 772.6 775.14 776.1 777.38 778.09 778.72 779.25 778.89 778.02 777.5 776.39 774.31 771.69 769.23 766.13 763.2 756.09 751.87 747.77 744.65 740.2 735.66 727.86 722.93 719.17 713.88 709.51 705.98 703.52 697.59 692.03 688.51 684.88 680.04 674.89 671.21 667.16 665.41 662.76 660.07 656.83 652.31 649.18 648.33 647.65 647.24 647.62 647.65 647.6 648.8 648.87 647.82 646.7 647.12 646.37 646.15 646.35 645.91 646.11 645.5 646.1 646.6 646.92 647.2 646.82 647.68 646.92 647.35 647.5 648.98 650.31 652.52 654.8 656.83 658.07 660.4 661.73 662.9 665.09 666.95 667.97 669.12 671.53 672.78 674.28 676.27 676.94 677.28 677.69 677.29 676.55 678.21 679.12 680.55 680.71 681.23 682.02 682.61 681.33 679.16 678.97 680.53 681.57 681.63 682.11 682.81 681.49 679.66 680.39 680.17 681.07 682.01 681.75 680.79 680.58 680.86 680.35 681.13 681.97 682.89 682.85 682.2 682.51 682.19 681.88 679.77 677.13 676.38 676.77 674.65 671.64 670.25 669.3 669.21 668.95 672.53 673.99 676.22 678.95 679.25 679.17 679.29 679.13 678.57 676.63 676.6 678.4 681.65 685.11 687.81 690.87 693.96 696.01 698.45 700.06 702.64 706.47 707.58 710.43 713.77 716.69 721.33 724.83 729.27 733.26 737.44 741.3 743.8 746.16 748.9 751.42 753.1 753.8 754.55 753.58 753.5 752.97 752.76 752.37 752.81 750.93 748.73 745.76 744.79 743.46 741.49 739.19 736.59 733.5 729.8 726.18 725.78 724.95 727.07 728.7 729.82 728.41 729.04 729.01 729.63 729.35 729.7 728.13 723.69 716.24 715.43 713.92 713.86 711.98 710.3 709.49 709.41 709.42 710.36 711.82 715.12 721.2 726.58 732.97 740.55 746.47 753.23 761.08 768.57 774.22 779.35 783.8 784.94 784.63 784.89 784.24 783.81 782.64 780.38 778.17 776.13 774.31 772.42 771.16 770.19 769.82 770.81 771.74 772.58 774.34 776.31 782.22 788.22 792.61 798.35 800.5 799.2 798.63 795.12 788.85 783.03 780.13 769.38 763.79 759.05 754.45 749.96 746.01 741.83 739.32 736.3 732.77 728.19 724.77 721.75 715.92 712.55 709.05 702.48 695.1 687.56 679.42 669.7 664.25 657.55 650.61 643.18 637.18 631.69 624.62 618.12 612.09 606.15 602.39 596.71 584.49 575.87 569.96 564.23 556.83 553.87 549.64 539.78 535.23 529.28
699.76 702.89 705.29 707.67 711.16 714.38 714.21 714.72 715.58 716.01 716.29 715.55 715.96 715.25 713.99 712.4 710.94 710.33 708.92 708.48 707.66 706.51 705.52 704.32 704.54 703.34 703.82 702.87 703.01 702.98 701.98 702.03 700.94 701.58 702.69 703.46 704.51 706.73 708 710.06 711.18 712.75 714.69 719.35 724.65 731.57 735.31 742.79 746.33 745.61 743.66 742.7 741 739.57 737.13 736.65 738.35 739.18 740.17 740.87 741.91 744.24 743.05 743.51 744.91 743.38 741.95 740.66 738.87 734.03 728.77 726.83 724.75 722.55 721.18 719.27 716.09 712.07 709.71 706.71 700.91 697.45 693.5 688.82 686.52 683.68 681.64 679.29 677.18 676.61 676.48 676.19 675.85 675.91 675.98 675.43 674.43 674.25 673.18 671.61 669.68 667.95 665.74 662.82 661.34 662.69 664.7 668.06 671.53 673.37 677.89 682.53 687.64 691.05 694.56 696.57 700.75 700.73 704.33 707.41 708.82 711.3 713.19 713.29 713.93 713.99 715.93 717.1 716.23 715.46 716.35 716.72 717.05 718.97 721.12 725.86 731.56 734.31 736.94 743.03 748.62 752.31 757.1 761.4 763.35 766.39 768.3 769.65 773.21 775.63 777.12 778.16 778.85 779.2 779.72 779.68 778.75 777.88 775.92 774.66 772.46 770.22 766.03 759.18 755.08 750.4 746.56 743.36 739.11 734.86 725.82 721.36 716.95 712.75 708.75 705.1 700.08 696.03 692.52 688.64 684.8 679.53 675.44 669.72 668.46 666.22 664.01 660.87 657.26 653.48 648.81 648.68 649.16 648.89 649 649.02 647.73 648.96 648.95 648.14 647.67 648.03 647.56 647.58 647.99 649.26 648.98 648.09 647.93 648.28 648.46 647.62 647.94 647.97 648.08 648.12 648.54 649 649.88 652.13 654.23 656.55 658.11 660.28 660.97 663.07 664.78 667.05 668.78 670.14 672.7 675 678.11 678.9 679.33 679.48 680.65 681.72 682.61 683.17 684.12 682.6 683.57 684.1 684.84 684.97 684.38 683.51 681.28 681.34 682.37 682.83 683.4 684.37 683.67 684.32 683.75 682.99 683.36 683.86 683.89 683.27 682.94 683.5 682.63 682.33 682.62 683.51 683.57 684.36 683.64 684.08 682.83 680.38 678.02 678.53 677.29 673.59 671.9 671.11 670.48 670.11 670.32 674.9 677.41 679.07 680.34 681 681.11 680.61 680.51 680.24 678.99 678.83 679.16 679.27 684.29 687.69 690.07 693.36 695.31 698.54 700.44 703.8 705.25 706.8 709.56 711.88 713.94 717.5 725.64 728.96 731.87 735.74 738.14 741.62 746.2 748.69 751.28 752.54 754.15 754.62 755.38 756.26 756.06 754.41 753.98 753.51 754.03 751.02 746.54 744.86 745.16 742.57 740.32 737.72 734.69 731.52 730.29 729.87 728.62 730.23 731.99 732.35 733.61 733.26 733.58 732.85 731.41 732.37 730.2 726.06 720.72 717.42 716.7 714.06 713.4 712.17 710.42 709.73 709.02 709.8 710.7 714.18 718.77 723.55 728.79 734.57 740.36 747.12 758.07 765.17 769.73 773.44 777.13 780.88 783.27 784.15 784.14 783.72 781.64 779.62 777.6 772.03 770.78 769.95 768.33 767.26 765.97 767.09 768.03 770.02 772 773.17 779.37 783.85 788.36 790.21 789.44 787.73 789.85 786.25 781.11 774.88 767.47 759.55 754.6 753.51 749.35 746.24 742.93 739.45 736.58 733.17 729.54 727.48 723.63 717.24 713.25 708.83 704.28 699.89 694.13 684.19 673.1 665.56 658.23 651.77 646.12 641.23 633.25 628.76 624.31 615.69 609.84 605.59 601.3 590.99 580.99 574.73 570.6 561.95 556.73 553.89 547.76 541.38 536.86 529.12
700.88 703.06 706.61 709.95 714.16 715.69 717.02 718.33 718.97 718.67 718.57 717.84 717.49 717.18 716.86 715.97 714.31 712.05 711.46 710.67 709.86 709.1 708.04 707.46 707.91 706.8 706.03 705.52 706 705.49 705.68 705.95 705.64 705.29 705.82 706.42 707.91 709.57 712.15 714.4 716.54 716.47 718.43 723.27 728.91 735.18 742.8 747.58 748.1 746.68 746.42 744.74 743.69 744.62 746.11 746.73 745.64 742.81 743.67 744.29 747.47 748.03 749.35 749.44 748.31 746.57 745.73 745.83 743.15 736.46 733.28 731.31 728.98 725.11 723.39 720.43 717.83 714.01 711.13 706.26 702.07 697.97 693.72 690.92 688.54 685.22 683.35 680.6 678.92 677.22 676.58 676.77 677.04 676.56 677.26 676.01 675.34 673.96 672.85 671.71 670.18 667.54 664.91 663.21 663.31 664.58 665.76 668.5 672.79 677.08 681.03 686.11 691.27 694.06 697.89 702.24 704.54 706.65 709.04 710.9 713.64 714.97 716.86 715.56 717.77 720.16 721.13 721.16 719.2 719.55 720.39 721.58 722.04 722.52 725.03 729.06 732.47 735.17 737.72 743.44 747.96 753.49 759.28 762.12 763.99 766.83 768.17 770.41 772.65 775.51 777.54 778.18 779.1 779.2 780.19 780.09 779.85 778.35 777.85 776.71 773.03 769.62 763.98 759.3 755.42 751.01 746.57 742.79 736.75 731.33 726.33 720.53 715.63 710.42 706.93 703.43 699.74 696.54 692.22 687.99 684.54 680.23 675.01 671.77 669.29 666.69 664.41 660.86 656.44 652.35 650.51 649.34 649.44 649.59 649.62 650.26 648.69 649.4 649.54 648.68 649.1 649.17 649.02 650.04 651.53 652.01 649.92 650.04 649.5 649.14 650.03 649.52 650.09 649.34 648.33 648.66 649.43 650.92 651.44 652.14 654.18 655.69 658.38 660.29 661.54 663.14 664.85 667 668.63 671.8 674.16 677.43 680.11 682.14 685.94 691.86 695.85 691.26 692.58 693.63 694.2 694.05 692.49 692 691.57 688.08 686.7 685.25 683.42 682.67 683.26 684.59 685.23 686.2 686.68 687.04 687.54 686.65 686.65 687.06 684.98 684.12 684.4 684.47 685.36 685.64 685.96 685.76 685.1 685.24 685.15 685.17 684.2 680.75 679.05 679.57 676.64 674.45 673.98 672.9 671.41 670.79 674.24 676.47 678.79 680.55 682.25 682.82 683.08 682.94 681.86 681.27 681.43 680.87 680.92 680.85 683.23 686.01 688.87 692.27 694.61 697.24 700.82 702.57 704.55 706.89 709.17 711.07 712.9 716.49 720.61 725.84 730.08 734.47 737.54 742.02 746.13 748.4 750.2 752.51 754.53 756.21 756.99 756.36 757.29 758.25 757.56 756.79 754.8 752.19 748.62 745.93 745.46 743.72 742.45 739.57 736.04 734.38 733.52 732.84 733.2 734.62 736.06 735.18 736.35 737 736.64 735.51 735.47 735.6 733.12 728.81 722.78 720.66 718.33 716.33 715.56 713.33 711.61 710.69 709.16 709.37 710.64 712.76 715.14 718.02 725.09 728.89 734.57 743.72 750.16 755.86 761.32 770.04 773.89 776.32 782.25 783.71 783.38 781.71 780.26 778.34 773.44 770.52 768.37 766.35 765.02 764.47 763.8 764.4 765.13 765.84 766.65 769.18 773.36 778.78 782.85 782.91 781.67 781.08 777.33 774.35 768.2 766.62 760.65 753.23 748.03 746.18 744.86 741.6 740.24 737.44 734.89 731.59 727.65 724.52 719.26 714.4 710.04 707.14 702.84 698.98 686.32 675.34 667.72 662.28 655.11 649.63 644.18 635.66 629.69 627.9 623.14 615.41 609.41 604.11 598.51 590.5 581.57 575.65 571.31 564.29 558.29 553.56 549.4 541.69 536.4 529.04
701.38 704.53 709.6 714.46 716 717.32 719.05 719.83 720.94 721.62 720.85 720.61 719.02 719.45 718.25 718.06 716.6 715.6 714.56 713.88 713.29 711.56 711.11 709.79 710.08 710.4 709.14 709.14 709.72 708.39 708.25 708.7 708.49 709.89 710.8 712.06 713.51 713.08 714.94 716.96 719.26 722.07 724.83 728.7 735.5 740.36 746.05 747.94 748.6 748.56 748.8 748.58 748.6 748.45 749.66 750.5 750.35 750.02 750.47 750.29 751.33 751.93 751.5 751.89 751.26 751 749.83 749.28 744.47 740.15 736.28 734.35 731.26 728.42 724.58 722.12 718.6 716.04 712.16 707.92 703.55 699.12 694.69 691.96 689.11 687.08 683.81 681.21 679.13 678.97 678.22 677.38 677.23 677.13 676.92 676.78 675.57 675.17 673.63 672 670.45 667.36 665.51 664.48 664.71 666.31 668.89 672.39 675.19 678.97 684.11 688.47 693.03 697.79 704.29 707.53 708.22 709.63 711.72 714.88 717.79 719.63 719.7 720.53 721.12 722.22 723.74 723.72 723.95 724.83 725.12 725.21 725.6 726.88 727.97 729.49 734.27 737.05 741.79 744.96 748.43 754.47 759.02 761.72 764.38 766.82 768.79 771.27 774.19 776.1 777.17 778.54 779.24 779.47 780.2 779.92 779.66 779.24 777.79 776.55 774.21 769.15 765.24 760.26 755.37 750.8 745.88 739.07 733.68 729.17 724.18 719.22 714.81 710.42 705.92 702.08 699.33 695.49 692.04 687.69 683.95 679.09 675.29 672.52 670.45 667.95 664.94 660.35 656.33 652.91 651.25 650.33 650.86 650.66 650.95 651.15 649.6 649.91 650.35 649.84 651.05 651.17 650.48 651.54 653.14 653.04 652.13 651.28 651.16 650.54 650.7 651.47 650.8 650.11 650.07 650.1 649.78 650.75 651.48 652.89 655.39 657.44 659.27 660.6 662.51 663.71 664.89 667.49 670.08 671.96 676.29 681.27 687.99 689.88 697.47 703.1 707.37 711.14 713.2 713 707.05 706.87 705.8 703.13 700.61 698.36 694.72 689.41 685.28 684.47 684.13 685.5 688.18 689.44 692.63 693.44 691.24 691.91 691.11 689.35 688.38 687.59 687.05 686.08 686.85 686.62 687.27 687.24 686.37 686.88 687.15 686.32 684.43 681.61 679.68 677.01 676.51 676.22 674.41 673.18 672.05 671.25 676.74 678.41 681.37 683.63 684.07 685.43 684.84 684.86 684.19 684.2 684.3 684.16 682.63 682.07 682.79 685 688.44 692.06 695.13 698.32 700.17 701.89 704.46 707.03 708.47 711.24 713.54 715.82 719.54 722.46 726.15 729.87 736.33 741.48 745.9 748.51 749.85 751.27 753.74 756.21 757.89 758.57 758.98 760.03 758.94 756.25 754.36 752.49 750.11 747.43 746.34 745.14 743.08 742.22 739.55 738.03 737.65 736.25 736.67 737.97 739.1 739.18 739.89 741.11 739.05 737.56 737.63 737.16 734.55 731.91 727.98 723.33 719.79 719.3 718.31 715.79 713.26 711.59 710.78 709.85 710.6 711.04 712.07 713.54 716.18 720.39 726.81 736.41 741.24 747.39 757.13 763.19 766.14 773.29 780.32 782.72 782.77 781 777.99 773.86 769.55 765.12 764.46 762.76 762.16 761.64 760.41 759.76 760.35 761.59 763.09 764.98 768.98 771.61 772.65 772.23 771.35 772.43 770.98 765.15 759.97 753.14 748.9 745.09 745.07 743.72 741.23 739.79 737.33 734.39 731.22 729.58 725.51 720.96 717.23 713.01 708.75 703.89 698.47 691.53 683.25 672.61 663.81 656.57 651.52 646.53 640.38 631.52 628.17 626.04 620.23 613.96 609.19 602.4 598.53 590.83 581.98 576.03 571.87 564.43 559.54 554.06 549.17 542.09 535.4 528.33
702.61 705.78 711.51 715.1 717.84 719.87 720.8 722.02 722.55 722.91 722.89 722.3 723.09 721.69 721.52 721.25 718.56 717.5 717.16 716.6 714.88 714.24 714.22 714.33 712.49 712.7 711.97 711.57 711.99 712.45 712.24 713.04 711.73 713.48 713.92 714.96 716.57 718.18 718.93 721.64 723.3 724.82 727.61 733.22 739.15 743.69 746.49 748.36 749.24 750.05 750.58 750.4 751.02 752.68 754.26 755.22 755.42 754.69 754.22 754.93 755.25 755.55 755.43 755.63 753.83 753.46 752.81 750.84 747.57 744.35 740.77 738.64 734.48 730.29 726.91 723.58 720.23 717.88 714.29 710.34 704.18 699.64 697.14 693.78 690.07 688.01 683.87 681.54 680.36 679.92 678.4 678.05 678.23 677.83 677.55 677.1 676.39 674.95 673.41 671.96 669.28 667.88 665.88 665.44 665.64 668.31 672.52 675.3 677.69 681.62 686.55 690.41 696.41 702.1 707.28 710.83 713.81 716.24 717.38 718.07 720.72 721.37 721.99 724.65 727.28 727.23 727.6 725.84 727.04 728.02 728.48 729.36 731.16 730.55 731.52 732.04 734.63 737.45 743.59 747.22 751.76 756.28 760.12 762.67 764.61 766.12 768.62 770.57 774.41 775.96 777.25 778.59 778.95 780.17 780.43 780.66 780.12 779.5 778.22 776.89 774.01 770.03 764.67 760.55 755.22 749.43 743.34 738.17 730.69 726.81 722.69 718.42 714.73 709.22 705.59 701.99 698.2 694.98 691.19 687.01 682.04 678.14 675.89 672.65 670.47 668.42 664.01 660.72 657.65 653.14 651.87 651.34 651.63 651.85 651.32 651.57 651.67 650.13 650.87 651.37 651.67 652.46 652.55 654.17 654.68 653.38 653.44 653.09 652.49 652.64 653.16 653.2 653.39 651.62 651.06 650.62 651.01 651.87 654.07 655.24 656.65 658.62 659.74 662.01 663.33 664.65 666.04 668.14 670.52 673.94 681.41 688.96 697.09 706.88 715.47 723.2 721.46 725.63 727.26 727.01 724.64 721.57 716.67 710.77 706.31 704.98 701.06 695.06 690.21 686.11 686.06 686.35 689.08 693.36 695.57 696.25 698.36 697.73 697.51 694.07 693.69 691.18 689.22 687.77 688.08 689.37 688.85 688.5 687.96 687.99 688.2 688.41 687.48 682.42 680.32 678.5 677.39 677.57 678.02 675.47 674.29 675.22 677.94 681.37 683.19 684.56 687.21 687.21 687.1 686.44 686.02 685.95 686.25 685.55 685.49 684.88 683.86 685.62 688.63 691.19 695.64 698.41 699.66 702.09 704.97 705.95 708.88 711.44 713.35 715.99 718.15 720.48 723.86 727.86 734.78 740.13 744.73 747.58 750.1 751.79 753.64 757.02 758.29 759.64 758.44 758.12 756.46 755.57 754.41 752.66 751.16 749.88 749.03 747.96 745.27 744.62 743.17 742.09 741.04 740.82 741.11 741.94 741.25 741.89 742.7 742.94 742.12 742.3 743.07 740.56 738.77 734.95 729.53 725.17 723.17 720.91 719.07 717.26 714.9 713.94 711.62 710.85 709.58 710.01 711.06 711.89 714.09 716.48 721.85 726.57 731.08 738.4 751.04 756.11 763.31 768.28 775.61 779.23 775.76 775.9 772.07 768.91 763.34 760.48 760.1 759.44 759.4 758.95 758.01 756.67 757.68 757.44 758.59 760.46 764.37 766.34 766.99 765.97 765.74 764.7 758.38 752.58 752.06 746.77 743.38 742.11 741.65 740.23 738.12 737.12 734.92 731.99 728.76 724.25 720.54 717.45 714.27 711.13 705.91 700.49 692.7 685.28 678.24 668.23 661.39 655.43 649.43 643.3 638.04 630.92 627.13 624.46 619.01 612.97 607.44 601.65 596.02 588.29 580.73 576.63 570.19 564.76 559.47 555 548.66 543.68 536.33 525.79
702.36 707.66 712.8 715.59 718.63 720.83 722.57 724.05 725.34 725.25 725.58 724.57 724.43 723.43 722.89 723.16 721.97 721.09 720.13 718.09 717.78 716.74 716.41 716.91 715.59 715.48 715.52 713.92 714.11 714.57 715.43 714.93 716.18 717.28 718.57 718.46 718.84 720.71 722.54 724.82 726.84 729.62 732.79 737.12 741.3 744.26 747 748.84 750.22 751.57 752.78 752.48 754.25 754.99 756.39 757.38 758.26 758.69 758.51 758.52 758.62 758.83 758.19 757.58 757.41 755.41 754.71 751.72 749.37 746.75 745.06 741.81 738.66 734.71 731.97 727.76 723.43 720.02 715.33 709.62 705.52 701.02 696.89 692.76 690.71 687.31 684.25 682.42 681.5 679.86 679.26 678.77 677.97 678.1 677.42 676.38 675.66 674.73 673.55 671.07 669.32 667.03 666.52 667.93 669.49 671.69 676.88 677.8 681.04 684.51 689.81 694.24 701.88 705.97 710.07 712.45 716.11 719.15 720.57 721.83 723.14 724.71 725.85 727.02 729.46 730.7 731.62 731.63 731.48 732.76 732.02 732.99 732.98 733.44 733.45 734.98 737.86 740.17 744.17 749.3 752.07 755.73 759.78 762.37 763.83 767.1 768.81 770.92 773.4 775.72 777.17 778.39 779.57 780.39 780.11 781.12 780.68 779.97 778.19 776.85 773.13 767.78 763.87 758.24 752.7 746.22 742.05 735.67 729.21 725.11 721.75 717.18 711.91 708.63 704.34 701.61 697.32 693.99 688.53 685.87 682.13 679.03 676.22 673.2 671.16 666.98 664.71 662.05 657.8 654.4 653.26 652.48 652.34 652.58 652.28 652.29 652.62 652.01 651.62 652.12 652.56 652.95 653.09 653.84 654.78 653.89 654.48 655.03 654.57 654.7 654.45 654.39 654.1 653.7 652.74 652.79 651.78 653.42 655.11 656.78 658.39 660.1 661.6 662.83 664.09 665.96 667.32 669.43 674.34 683.96 694.62 698.83 711.32 719.07 727.87 735.9 741.47 745.36 746.48 738.53 734.67 729.66 725.24 720.31 714.77 710.93 709.81 701.78 694.14 687.61 687.31 688.65 689.65 695.05 698.06 699.58 701.46 702.04 700.66 699.78 698.46 696.12 692.66 690.33 690.2 690.59 691.19 690.65 689.95 689.26 689.53 689.38 687.86 684.82 682.23 679.67 681.2 682.63 681.01 680.64 678.61 680.1 683.49 686.14 686.92 686.89 687.64 688.28 688.8 688.48 687.98 687.62 686.73 687.14 686.73 685.58 684.42 684.58 689.25 692 695.15 697.45 699.1 701.86 703.69 706.29 708.74 710.74 712.61 715.22 717.22 719.97 722.48 725.49 728.69 736.47 741.2 744.33 748.42 751.19 753.3 755.33 756.44 758.46 757.16 757.72 756.3 755.36 754.86 754.13 751.75 751.26 750.29 750.46 749.58 748.72 747.55 746.79 745.09 743.88 744.21 745.68 746.64 746.08 746.5 746.01 746.33 746.56 747.83 746.42 742.9 738.46 729.88 726.47 724.51 722.7 720.05 718.44 716.85 715.4 712.23 710.62 710.18 709.48 710.06 711.27 711.94 714.01 717.95 722.74 727.34 732.52 741.07 749.47 756.91 764.94 772.29 772.9 769.75 766.89 763.25 759.99 758.9 758.29 757.35 756.92 756.06 755.45 754.23 752.87 754.37 754.31 754.53 755.28 756.86 758.26 758.52 760.02 759.27 756.2 751.4 745.89 742.16 740.1 739.16 739.34 738.62 737.24 735.57 733.67 731.27 728.93 725.43 722.24 719.28 715.19 711.34 706.91 702.5 695.18 689.7 682.16 675.67 666.1 658 652.56 645.78 642.27 637.23 631.5 626.91 622.75 617.79 612.62 606.71 600.19 594.6 588.4 582.79 576.19 570.3 565.29 560.22 555.36 549.49 545.2 531.72 526.72
