111.05 109.64 111.11 110.51 110.86 110.35 112.25 115.18 110.74 109.23 110.04 110.67 114.42 114.13 112.11 113.68 112.12 111.4 111.11 111.63 109.8 109.01 108.95 108.85 108.9 110.13 112.18 114.02 111.21 111.56 111.44 9999 108.93 9999 105.72 106.78 112.68 113.27 111.96 112.58 113.44 112.68 112.32 111.94 113.08 115.17 114.58 115.75 116.98 114.04 112.3 114.93 119.48 119.13 117.71 119.63 117.78 121.14 123.02 123.48 125.35 126.82 128.62 130.48 133.44 135.72 140.25 146.47 150.91 151.26 155.61 157.25 153.84 154.01 153.3 153.51 156.46 159.29 161.37 162.31 163.71 166.28 165.58 167.55 165.4 169.67 171.58 175.71 177.27 177.69 179.47 182.75 185.56 187 184.02 183.66 182.01 178.24 176.45 175.47 170.68 165.75 165.53 165.74 166.13 171.04 176.47 179.88 184.99 190.64 198.91 208.29 215.71 208.25 211.72 221.21 223.66 223.38 219.87 218.38 217.87 216.51 211.38 206.92 203 198.75 194.98 189.2 185.93 184.41 183.64 183.34 181.64 177.76 176.84 176.34 176.32 174.43 172.23 172.49 170.21 170.03 169.55 168.9 172.19 171.5 177.27 180.71 182.4 181.09 180.18 179.82 180.7 183.79 183.83 184.95 187.45 189.31 190.82 197.4 202.77 211.71 214.1 221.55 228.35 231.06 230.53 227.96 222.16 215.55 211.64 209.85 208.6 201.4 194.75 191.75 190.65 187.64 186.67 183.36 184.35 185.44 188.13 189.7 192.73 197.07 201.73 207.47 213.02 213.02 212.95 218.76 221.83 216.09 212.13 214.62 220.03 224.51 222.01 218.61 217.78 212.8 209.91 211.23 212.16 209.82 208.99 207.39 205.88 198.07 194.69 194.44 192.41 189.94 185.27 181.18 181.9 183.21 182.19 183.68 181.98 182.74
105.82 110.48 111.7 110.87 110.86 108.97 110.6 111.29 112.8 9999 109.38 109.36 110.59 113.06 114.06 112.55 112.51 111.4 112.52 113.47 112.47 112.94 111.17 108.98 108.95 108.98 110.05 113.2 111.45 111.95 111.44 109.36 105.21 108.88 111.24 111.91 112.07 113.12 113.41 112.58 110.34 110.73 110.33 111.97 112.88 116.78 114.24 115.63 117.7 117.84 112.92 113.61 118.58 116.27 115.3 115.98 117.78 124.46 124.47 125.37 127.9 129.75 131.41 132.68 134.17 135.13 139.3 142.27 146.61 151.26 149.55 152.94 153.97 156.87 157.75 158.49 157.97 158.64 161.14 164.97 170.83 169.43 165.58 166.78 167.4 171.23 173.46 175.51 175.97 178.8 180.84 182.08 185.99 189.99 187.02 183.66 183.94 180.5 177.72 176.2 174.73 168.53 166.16 166.03 165.72 167.27 173.61 178.64 186.51 190.54 198.4 204.17 209.97 210.8 209.96 219.35 221.47 223.04 224.49 224.36 221.64 218.25 212.06 204.55 200.81 198.25 193.17 191.37 186.82 186.99 188.36 186.84 183.99 178.37 173.05 172.9 171.79 172.3 172.74 172.28 173.54 171.68 173.63 174.45 172.71 169.55 172.44 174.94 176.32 178.2 178.66 179.72 181.74 183.61 185.39 187.81 192.6 194.49 192.73 195.77 198.32 203.01 213.58 220.58 228.98 234.68 233.32 227.96 221.4 217.21 216.15 212.78 208.08 201.33 194.4 190.91 192 190.02 188.75 185.54 182.19 183.94 186.2 188.89 190.49 195.43 199.88 203.91 208.15 209 208.84 211.88 212.92 213.09 212.13 216.39 218.31 218.51 218.5 217.61 215.96 211.2 214.15 214.21 213.2 212.92 212.59 209.5 205.88 201.15 195.41 194.65 190.98 187.07 187.09 182.89 182.58 183.71 184.12 184.36 185.59 188.27
106.97 111.91 111.7 108.53 108.07 108.94 107.37 108.55 111.86 111.57 109.98 110.93 109.89 112.37 112.96 114.12 113.82 111.91 113.94 114.33 114.06 113.84 114.57 111.93 109.84 111.53 114.9 114.13 110.82 111.14 111.73 112.42 108.87 105.96 110.92 110.36 111.69 110.59 111.87 112.27 110.42 108.54 109.19 111.97 113.49 116.59 114.65 114.55 115.11 117.76 116.9 114.09 113.8 114.58 115.24 116.06 118.77 127.36 126.83 127.18 131.31 131.99 133.37 134.8 136.57 136.6 138.38 142.01 145 146.63 149.47 151.57 153.97 155.42 160.43 161.05 158.86 161.14 163.16 166.89 171.9 172.69 168.67 173.09 174.74 175.19 174.46 175.36 179.53 183.92 185.84 187.58 189.34 191.95 191.65 185.99 189.05 184.6 180.67 179.96 180.02 177.94 170.21 165.94 165.85 166.04 169.05 175.49 184.13 189.01 193.74 197.81 199.77 200.59 203.55 210.79 216.7 220.15 223.67 224.25 222.07 216.69 210.39 205.33 202.88 200.74 195.57 191.37 188.74 191.59 190.41 190.75 181.96 177.35 175.39 173.45 170.63 171.68 175.49 176.68 173.54 173.39 170.41 173.54 176.7 174.97 170.47 169.38 172.54 176.39 177.91 178.82 182.93 185.94 189.61 187.9 193.98 196.82 198.1 196.44 198.83 203.52 207.88 220.99 229.16 235.84 235.63 229.64 221.03 216.81 215.97 211.46 207.03 201.88 197.47 193.12 193.43 190.96 188.16 185.17 181.67 183.94 185.81 188.52 188.88 192.12 197.12 201.29 204.13 206.11 206 206.6 206.42 210.43 210.51 222.58 218.83 213.23 212.39 213.22 210.46 213.64 219.2 220.53 216.19 215.03 214.29 212.15 206.2 202.73 197.82 193 193.08 189.06 188.17 183.33 182.95 184.38 185.63 187.67 188.93 190.8
109.12 111.05 110.13 112.11 108.6 108.94 107.43 107.48 111.15 111.93 112.25 109.74 110.12 110.41 112.59 112.76 112.76 113.08 113.12 113.32 116.14 116.06 116.87 114.78 110.66 111.54 115.79 113.23 112.87 112.8 111.72 114.13 115.46 9999 109.28 109.98 111.51 110.99 112.49 111.76 108.54 108.93 112.08 110.93 112.47 114.88 114.84 113.33 114.03 117.18 119.74 117.74 115.42 114.88 115.58 116.91 123.26 127.6 127.45 128.13 129.72 131.67 133.69 135.36 136.55 138.31 141.07 144.09 143.85 145.58 149.47 149.78 152.9 158.3 163.09 163.51 159.89 160.28 163.23 165.88 168.15 169.76 170.17 171.44 175.9 175.37 175.88 176.76 180.09 187.41 191.17 192.21 193 195.49 196.03 190.68 189.05 187.35 185.54 182.66 181.7 179.52 176.16 169.74 166.2 166.02 166.29 171.31 177.21 181.5 184.24 186.24 189.15 194.41 203.55 209.28 210.32 215.16 221.23 225.01 222.62 216.72 212.54 207.99 201.48 199.07 194.91 190.01 191.27 191.21 190.83 189.72 184.57 175.67 175.75 173.16 170.32 171.58 174.8 178.14 176.15 175.94 173.27 169.05 171.58 176.2 176.44 174.32 170.52 173.1 176.94 178.75 184.79 191.51 189.61 189.19 192.09 196.16 199.08 202.15 201.17 203.8 208.49 215.19 223.84 238.16 235.92 228.63 221.48 217.58 215.69 209.98 201.75 198.15 196.94 192.71 193.3 191.29 188.41 187.8 185.23 183.12 185.22 186.74 188.64 190.47 193.79 197.9 202.17 202.85 200.97 202.78 203.45 206.94 210.47 220.31 217.77 210.92 208.44 206.17 205.81 211.55 216.78 219.01 217.76 215.63 215.83 212.6 209.5 202.73 199.13 197.63 191.13 190.42 189.17 184.94 183.64 186.27 186.86 191.86 195.7 196.08
109.14 110.86 110.88 108.27 108.18 107.68 107.64 107.54 108.99 112.45 112.42 110.09 110.19 110.27 112.81 112.33 112.36 112.94 113.12 111.76 112.43 113.97 114.26 114.14 112.59 109.33 111.74 112.5 114.67 113.29 113.29 114.13 117.62 113.83 106.48 109.52 109.4 110.05 113.71 112.15 110.41 112.11 114.67 111.91 112.47 116.27 117.24 114.38 117.33 117.94 118.62 116.68 114.87 115.27 117.28 118.22 122.62 127.6 128.03 129.52 130.87 132.33 135.46 136.39 140.12 141.73 144.54 145.94 145.78 146.01 149.55 150.33 150.98 158.44 164.51 163.5 160.59 160.36 163.2 165.88 169.13 171.02 172.5 175.1 184 182.84 181.79 182.9 182.01 188.11 192.34 194.77 196.4 200.39 200.07 194.67 190.47 188.59 184.97 183.75 181.96 179.81 178.07 174.3 172.17 169.36 166.69 168.66 172.62 175.42 178.2 182.97 189.87 196.19 203.36 202.67 202.26 205.45 219.46 226.07 223.25 214.67 208.46 205.23 203.07 198.59 193.06 191.85 194.22 192.04 189.9 187.89 182.22 177.77 170.74 170.43 170.29 170.58 172.18 174.58 176.81 175.94 173.89 173.12 171.31 172.99 176.01 176.4 177.95 174.65 178.06 177.97 182.69 188.22 190.62 191.69 195.48 199.68 202.54 204.67 206.69 209.91 212.86 217.2 224.11 233.38 234.18 227.98 221.48 218.93 214.56 205.89 201.23 198.7 196.01 194.07 194.81 193.1 189.47 188.79 185.99 185.4 185.22 186.02 188.25 191.82 195.24 194.74 199.29 200.02 198.37 199.67 201.68 208.28 213.14 217.87 212.3 214.24 205.92 202.82 202.05 205.2 207.46 211.34 212.53 213 212.33 209.53 207.67 204.62 199.23 197.94 196.52 193.99 190.67 189.29 187.85 187.79 188.64 191.74 195.68 197.33
106.9 109.98 110.6 111.77 108.48 9999 107.41 112.09 107.89 109.96 108.85 111.88 111.94 110.7 110.41 111.63 112.85 113.87 112.11 111.6 111.78 111.22 111.37 111.56 111.74 111.15 111.22 112.33 114.32 114.99 117.98 118.4 117.75 117.45 112.74 107.54 105.76 105.18 104.02 9999 112.97 114.43 114.9 113.06 112.68 117.35 117.62 117.42 116.09 115.68 114.78 114.64 115 115.45 117.68 119.51 123.27 125.91 128.66 129.46 130.79 132.67 134.37 135.96 138.22 141.3 146.14 148.39 149.05 149.08 150.7 151.94 153.13 154.5 161.21 163.61 161.53 164 166.87 169.86 175.88 178.67 179.36 182.02 184 188.35 184.81 186.19 185.75 187.79 195.46 199.23 201.3 202.37 201.67 198.16 192.25 188.59 185.62 184.37 183.48 183.2 181.38 177.18 177.35 176.14 171.9 169.15 171.57 174.29 178.15 184.64 189.88 194.89 198.92 202.67 198.2 206.4 212.55 221.97 219.83 216.27 210.44 206.53 203.93 201.12 196.06 195.36 194.22 191.46 186.78 183.63 181.11 177.54 172.56 170.43 170.52 171.02 173.3 175.38 177.16 176.86 176.1 176.32 174.68 172.55 171.38 173.08 175.86 175.69 173.65 178.63 185.74 192.75 194.34 191.69 197.53 201.77 204.8 207.92 212.94 216.7 219.87 222.18 226.28 232.54 238.92 226.44 219.56 216.79 213.84 206.19 202.21 201.24 197.63 193.52 192.37 193.09 190.36 189.26 186.77 185.32 185.97 186.15 186.44 189.95 194.16 194.64 195.52 196.82 197.75 196.16 200.86 208.01 209.6 211.14 212.3 213.59 208.74 200.99 199.53 201.66 201.56 203.65 206.27 210.62 211.29 206.52 204.39 201.52 199.33 199.82 198.15 194.82 192.73 190.6 189.15 188.93 190.38 191.34 195.92 199.2
108.91 107.98 109.28 112.13 111.91 107.97 109.8 112.93 112.01 110.41 108.32 109.33 113.06 112.85 110.7 111.81 112.22 113.74 112.06 111.6 110.94 110.75 109.97 110.16 110.76 109.93 110.73 112.62 113.03 111.42 111.6 114.4 117.75 113.08 111.99 113.03 110.86 112.04 110.3 114.12 108.25 112.45 114.5 113.96 115.07 117.35 117.86 119.16 116.19 114.78 114.8 114.76 115.28 115.5 117.37 122.15 127.72 128.83 128.66 132.85 132.46 132.38 133.78 135.91 140.14 142.53 146.49 151.21 154.42 152.9 151.62 151.15 155.54 154.95 156.35 159.4 161.58 164.82 170.08 176.94 181.42 181.55 184.69 187.56 187.99 194.6 191.64 189.47 192.5 189.08 195.71 204.15 207.6 206.86 203.44 198.26 193.71 188.99 186.7 187.25 188.75 189.3 186.64 184.24 182.21 177.47 175.72 170.87 169.04 172.59 177 182.08 186.83 188.18 189.46 192.77 195.05 202 207.86 211.64 215.03 209.58 206.75 203 199.5 197.29 197.02 198.78 197.14 188.7 184.77 182.33 179.27 177.04 173.04 170.86 171.22 173.56 174.38 175.43 176.53 177.08 176.1 179.26 177.64 174.31 175.08 175.07 172.85 175.71 175.87 177.75 179.33 191.47 195.23 196.89 198.28 200.24 205.44 210.62 215.53 221.01 225.14 227.09 229.28 232.74 236.69 231.95 226.63 216.79 210.39 206.29 202.13 199.97 196.33 194.76 193.34 193.45 193.23 192.65 187.84 184.53 187.64 185.61 189.22 187.47 190.04 193.38 192.95 194.23 197.34 197.34 197.02 200.37 202.74 208.26 213.69 217.22 210.24 208.32 201.24 198.07 197.37 198.01 204.85 206.8 204.75 202.17 200.27 202.03 199.33 198.26 200.17 193.74 192.02 191.92 191.14 192.09 194.51 192.88 197.59 200.81
110.54 110.74 111.38 111.11 112.37 112.07 110.43 113.36 111.64 112.61 110.64 111.32 111.71 112.64 111.8 110.71 110.89 110.85 108.4 109.63 110.7 110.18 108.33 108.34 110.18 112.05 110.8 112.82 110.14 108.46 108.02 109.16 112.72 111.89 111.19 112.37 109.95 111.62 109.77 107.11 9999 107.22 113.35 115.43 116.72 115.94 122.75 119.98 117.9 116.18 114.88 115.26 118.16 118.15 118.16 121.65 126.03 128.84 130.95 131.01 132.76 134.75 137.01 138.36 144.94 148.73 149.7 151.57 153.14 155.85 153.87 153.22 158.86 161.57 156.57 157.95 160.55 164.07 170.43 179.23 180.89 184.72 188.53 190.75 192.19 199.94 192.9 193.16 198.23 197.11 199.35 205.19 208.97 206.33 201.24 197.26 192.57 188.75 186.7 187.9 190.19 192.7 189.65 187.05 184.28 181.39 178.45 177.36 169.68 169.16 173.85 178.06 181 181.89 183.56 188.85 192.42 198.76 203.98 204.7 206.11 206.07 200.94 196.78 194.49 193.5 195.07 195.09 193.93 188.7 185.63 182.27 179.73 177.17 173.42 173.76 174.62 175.45 175.92 177.84 179.04 177.81 178.98 180.16 175.84 175.91 180.05 178.79 178.11 175.93 176.56 179.65 181.44 184.51 192.94 196.02 198.28 198.08 204.28 210.07 216.72 223.55 226.91 228.79 228.43 226.7 225.41 223.71 223.43 218.08 206.24 203.63 202.27 200.77 194.74 193.13 191.01 191.59 192.8 193.03 193.17 188.48 185.71 185.61 185.36 189.34 190.29 193.52 191.58 193.24 193.22 195.95 194.24 198.3 204.98 211.99 217.72 217.22 213.19 211.8 209.83 205.63 198.05 193.61 197.81 199.44 199.02 199.45 197.79 200.27 198.75 197.79 197.52 195.33 192.56 191 193.63 193.32 195.95 197.63 198.48 201.27
107.37 109.33 111.3 112.84 111.48 109.8 111.82 113.36 113.29 111.68 112.97 112.33 112.39 111.31 111.78 110.56 110.62 108.15 107.18 108.28 110.7 109.69 105 104.85 109.21 109.03 109.46 111.6 111.64 109.31 107.85 113.12 113.54 111.89 112.35 111.51 112.02 109.87 9999 107.4 112.7 107.84 109.04 117.31 116.83 119.51 122.75 122.13 120.35 119.6 115.79 117.34 117.68 118.61 120.05 123.71 126.23 128.47 131.08 131.01 129.34 134.86 138.1 141.29 147.53 154.11 157.05 158.6 156.39 154.28 154.25 154.52 158.86 164.81 162.14 160.18 160.6 164.99 171.44 174.68 180.31 185.57 192.65 198.94 200.82 199.94 202.24 198.86 202.91 202.11 201.77 209.93 210.26 204.6 198.32 194.03 190.93 190.68 190.99 190.99 192.62 195.42 196 191.14 187.63 186.92 183.17 178.74 173.88 169.05 169.35 174.33 177.06 179 182.89 188.71 192.42 197.12 202.35 200.46 196.6 197.84 198.73 192.71 191.18 190.31 188.16 192.2 193.6 189.03 182.78 180.75 180.3 176.02 174.18 173.53 174.33 175.6 176.18 179.01 179.99 178.68 180.2 180.16 180.63 177.33 175.73 177.96 181.29 180.46 176.9 177.44 182.7 184.39 189.31 193.62 196.04 195.61 202.94 207.91 213.21 220.09 224.78 224.66 222.44 216.48 215.53 219.29 220.14 215.39 210.14 201.57 196.94 196 195.14 192.04 190.34 191.11 191.04 192.66 193.57 193.27 190.64 187.13 188.79 186.88 187.74 190.02 189.6 191.51 190.81 191.59 195.12 202.05 208.51 214.54 216.36 217.16 210.05 209.69 205.74 205.3 201.36 193.55 193.38 196.61 196.68 195.15 195.69 194.1 195.68 197.79 193.28 192.19 188.32 190.69 192.31 191.06 192.98 198.82 200.72 202.59
9999 100.84 111.06 107.34 106.38 110.52 110.45 111.93 113.06 113.25 112.06 109.55 111.53 113 111.01 110.42 111.19 109.81 107.85 110.32 111.41 106.88 105.79 109.45 111.25 109.66 106.36 103.54 110.56 111.98 110.05 114.91 114.8 112.89 113.7 110.73 113.14 105.28 112.46 108.59 108.86 109.73 110.58 115.41 115.13 118.6 121.37 118.13 120.57 120.34 118.19 118.85 119.62 118.97 122.69 125.3 125.76 125.42 129.55 130.63 128.34 134.79 137.33 140.68 148.74 156.75 159.95 160.27 160.27 159.61 155.34 154.8 160.78 163.41 163.56 164.4 164.25 163.74 168.03 171.92 178.08 185.79 195.01 202.3 205.34 205.78 208.61 208.01 209.43 208.55 209.06 211.29 213.13 206.5 203.82 199.6 195.77 197.15 193.4 190.99 199.48 200.98 201.14 196.42 189.47 188.63 186.13 182.46 178.09 173.05 169.12 171.06 174.36 177.71 183.94 188.98 193.03 194.7 197.34 192.67 191.16 191.29 193.19 193.55 193.73 188.88 185.59 186.99 189.49 187.05 182.78 179.64 178.65 175.24 172.28 170.84 174.77 176.13 177.43 180.52 181.49 182.06 182.39 183.01 184.1 182.66 177.52 175.28 175.59 175.8 175.94 176.73 181.85 182.71 185.74 188.84 190.48 195.61 199.26 203.01 208.44 213.15 217.61 218.7 214.18 210.44 212.08 219.85 218.15 213.56 210.53 203.78 196.73 194.23 192 191.13 189.29 188.18 189.91 188.95 189.8 191.48 192.29 191.26 188.79 185.34 185.99 187.73 188.6 190.56 189.37 189.3 193.14 201.31 208.71 210.61 207.36 207.41 210.05 200 196.24 198.84 198.21 191.83 189.6 189.94 192.17 194.68 193.56 189.27 189.83 192.04 191.83 187.57 182.53 187.72 189.69 189.48 192.8 196.37 201.98 203.96
105.56 104.78 9999 111.27 103.04 106.62 111.9 110.61 113.06 111.04 112.07 111.2 109.86 111.16 109.26 106.89 106.76 110.54 111.81 109.74 112.1 9999 9999 104.97 113.5 110.96 9999 112.43 109.18 102.61 108.58 106.36 110.69 112.06 113.7 112.8 109.37 105.26 108.39 109.43 107.43 109.67 112.63 110.37 112.38 116.14 117.03 118.13 118.62 120.15 120.65 120.6 121.35 120.94 126.29 122.38 121.95 121.44 123.03 128.03 128.34 131.06 139.45 140.79 145.21 152.08 157.6 159.58 161.65 162.47 158.54 156.9 159.41 163.41 163.95 166.52 166.75 165.49 166.4 170.09 176.85 183.71 190.18 198.97 204.7 207.69 208.61 210.5 211.24 211.49 211.73 212.3 211.96 207 196.02 197.42 195.98 197.84 195.38 197.29 206.97 204.68 201.56 198.41 191.44 189.22 186.5 185.16 181.64 177.38 172.35 171.38 176.03 176.6 180.68 185.1 188.26 194.7 189.74 186.48 188.57 190.74 192.12 192.38 192.07 189.16 183.7 181.03 183.81 184.84 183.2 175.72 175.76 173.75 170.23 170.11 172.38 175.81 179.1 182.38 183.41 184.72 183.04 183.75 184.1 178.92 178.31 178.9 176.77 176.75 177.66 176.83 177.31 178.73 182 184.19 188.01 190.27 196.84 198.87 202.55 206.73 209.16 210.66 207.62 208.2 211.87 216.83 215.23 210.59 207.92 203.78 197.06 195.07 190.26 188.46 186 187.87 188.97 187.33 187.24 190.58 189.78 189.07 187.92 185.33 186.15 186.71 184.8 188.27 188.27 188.28 190.77 196.91 201.09 201.86 199.7 199.79 201.7 194.92 193.22 194.59 191.86 188.3 188.51 188.79 188.76 189.09 188.5 189.62 189.81 190.43 191.83 178.99 184.51 188.05 190.15 190.89 192.91 193.82 198.18 203.99
105.96 106.86 106.64 9999 103.36 105.81 110.99 111.91 110.59 109.47 108.8 108.79 108.99 108.91 108.75 107.87 107.3 107.81 112.95 112.56 105.88 106.49 109.55 103.08 103.99 104.21 9999 115.18 113.03 103.59 110.59 109.88 109.74 109.52 111.05 104.18 104.69 9999 107.97 106.41 107.78 108.39 109.91 111.57 110.82 112.43 117.04 115.59 116.44 118.97 119.64 123.34 123.11 119.68 124.61 122.71 122.32 121.74 123.88 127.83 127.91 132.04 134.87 140.45 146.4 153.05 158.69 159.44 159.21 163.11 161.45 158.98 160.16 161.93 166.53 169.15 169.97 168.51 168.56 170.19 172.77 179.16 186.06 192.07 200.71 207.22 210.77 212.44 212.85 212.83 211.84 208.57 206.44 201.64 196.08 194.85 194.51 192.72 197.34 201.7 206.97 201.32 200.58 198.13 192.8 191.03 190.01 189.06 184.5 180.14 178.46 175.15 172.26 171.8 173.59 179.85 183.31 188.06 180.33 182.22 184.54 185.64 189.9 191.13 190.4 188.21 184.21 176.79 178.78 181.35 178.64 175.72 172.84 170.33 166.97 169.2 171.25 175.2 178.56 182.5 183.8 184.18 183.9 183.79 182.58 181.5 180.22 179.52 178.73 179.03 179.46 179.41 179.58 180.47 182.76 182 184.32 188.99 193.36 193.53 196.36 199.63 202.24 204.58 203.27 205.79 211.62 214.44 211.09 209.12 203.73 200.77 195.49 195.13 190.54 187.66 183.45 184.19 184.72 186.31 186.5 188.01 187.62 186.7 186.94 185.33 185.14 183.52 183.24 183.76 187.4 188.3 186.88 189.97 193.59 195.6 195.86 192.24 194.09 194.92 189.39 188.15 185.91 184.72 183.99 184.88 187.31 187.2 186.11 188.55 187.34 188.39 187.36 185.07 187.03 189.34 190.9 193.16 193.48 194.63 197.76 200.25
110.24 107.82 106.79 106.29 102.69 9999 111.91 109.97 109.62 109.47 108.7 109.52 108.3 105.83 102.14 103.45 103.81 108.6 109.23 109.74 103.66 106.88 109.55 108.73 110.08 9999 109.98 110.89 110.84 110.9 9999 9999 9999 105.62 102.37 111.07 9999 110.78 108.03 110.42 108.44 108.24 109.24 109.57 110.69 109.56 118.02 116.55 117.78 117.08 119.33 122.86 123.14 121.2 123.56 124.68 124.83 126.59 127.84 127.19 128.23 132.09 134.9 136.65 140.29 153.51 160.41 164.17 164.59 165.5 162.33 162.07 164.9 166.01 166.53 172.63 173.46 171.52 174.05 174.59 172.42 174.69 179.63 186.42 194.67 200.91 207.99 212.44 212.49 213.04 209.82 201.59 198.54 196.2 192.13 190.09 188.74 188.98 192.67 198.13 201.25 195.25 195.03 194.69 193.27 190.85 188.47 186.79 184.49 179.71 179.43 180.97 180.15 170.81 170.03 174.21 178.88 179.91 180.33 177.01 177.5 181.64 184.35 188.62 188.36 184.74 180.52 178.54 172.18 174.3 171.21 172.6 168.47 169.07 167.88 168.02 169.9 172.6 177.23 179.12 181.9 183.65 185.01 185.06 183.14 181.5 180.77 182.05 182.11 182.09 180.15 181.41 183.47 183.37 181.74 182.35 185.47 186.19 188.82 200.36 203.41 201.63 202.88 204.19 206.44 210.66 212.56 209.62 209.02 204.24 201.08 197.53 195.49 192.73 190.34 187.36 183.71 181.96 184.11 182.08 182.53 184.95 185.26 185.41 186.29 185.23 184.4 182.72 184.5 188.38 187.85 187.2 184.88 185.96 187.13 188.72 188.32 187.25 190.72 189.22 180.38 179.44 181.5 182.15 186.39 187.76 186.15 186.62 186.05 186.81 184.74 185.1 183.65 185.07 185.55 188.64 190.62 191.52 193.48 194.03 196.13 198.28
107.98 108.35 110.3 107.99 103.43 102.95 105.95 108.61 109.32 108.34 106.39 103.67 105.13 9999 112.95 113.29 106.72 101.36 113.19 112.02 103.9 107 110.24 109.25 113.23 110.08 109.75 108.95 108.96 110.64 110.77 111.04 111.08 110.83 110.38 111.07 112.92 110.05 9999 110.27 9999 110.59 111.23 109.54 109.62 110.24 116.85 118.14 117.78 117.78 122.23 118.61 120.17 117.84 124.54 127.63 126.66 125.84 127.82 129.05 130.65 132.09 134.88 137.5 139.95 144.25 159.91 166.49 169.46 170.63 167.67 164.98 170.94 174.7 173.02 177.38 174.47 175.9 175.73 178.71 179.71 174.42 175.33 180.65 188.7 195.39 202.32 206.86 207.85 212.53 209.58 198.93 194.42 191.67 188.91 186.76 185.41 183.54 185.75 191.07 194.16 185.99 187.91 189.28 188.7 188.19 187.45 184.25 182.44 179.49 179.55 179.46 181.67 178.54 168.88 168.7 171.11 172.1 174.43 171.39 173.03 175.93 179.15 181.03 185.41 182.6 179.67 173.63 171.64 166.69 169.07 168.87 168.47 165.44 167.58 166.52 167.33 169.65 172.1 177.6 180.31 183.65 187.27 187.48 188.71 187.16 185.17 184 184.98 181.72 180.54 185.17 184.23 181.19 182.54 185.37 190.85 195 198.3 200.36 208.06 207.51 209.5 210.32 212.15 214.28 213.34 208.83 208.11 204.57 199.61 196.35 194.28 189.83 188.91 187.74 186.51 183.9 182.05 183.27 182.59 183.27 182.12 183.22 184.74 184.52 184.4 181.43 185.49 187.97 186.77 187.6 189.05 186.16 182.92 182.36 180.92 182.86 186.15 184.66 173.65 173.83 177.52 181.33 182.43 184.39 184.57 182.7 183.87 178.32 177.71 180.89 182.64 183.88 186.52 190.38 192.22 190.77 189.79 192.31 193.89 196.17
109.66 109.52 110.22 110.75 105.95 105.93 100.6 105.42 104.94 106.21 106.39 9999 111.07 109.23 104.22 105.67 108.91 108.64 9999 103.18 9999 108.82 108.53 109.77 109.28 108.4 107.54 111.67 111.58 112.04 112.25 113.46 115.95 114.45 109.43 110.92 112.13 108.86 9999 109.68 108.77 109.4 110.26 110.8 113.45 117.3 118.63 117.05 117.47 118.78 120.92 120.04 118.83 117.6 121.78 126.55 123.99 123.53 126.91 128.78 132.02 132.68 135.62 137.98 140.63 144.33 153.12 168.52 172.43 173.6 173.79 168.34 175.33 180.6 178.7 181.11 183.88 182.26 182.26 182.38 183.45 179.23 176.27 178.57 182.35 188.19 195.77 200.11 207.85 204.25 202.71 196.15 192.05 187.01 185.25 182.73 181.87 180.19 179.45 187.8 187.5 185.99 179.92 181.99 182.68 184.03 184.03 182.33 180.04 179.26 178.42 176.41 177.19 177.77 174.34 166.92 165.69 167.16 168.6 171.39 166.61 170.01 171.48 174.32 177.78 175.1 172.4 169.27 166.28 164.3 166.28 166.14 164.85 162.91 164.76 164.6 164.32 166.05 169.49 173.71 178.69 183.3 187.93 190.66 190.1 188.23 189.65 187.12 185.48 182.46 185.02 185.71 183.99 183.13 184.69 188.1 194.39 199.4 203.12 206.61 205.91 205.9 209.33 215.43 215.97 216.41 214.74 211.63 207.79 205.84 201 197.12 192.89 189.83 187.4 187.1 184.91 181.57 183.09 182.14 182.94 179.92 177.94 180.31 181.91 183.04 181.05 181.35 183.05 185.55 187.01 190.73 193.61 192.64 189.89 180.77 177.56 177.31 179.14 176.39 173.65 175.36 176.76 179.73 181.34 180.86 180.83 179.93 179.63 177.22 182.96 185.83 185.64 187.33 186.52 193.04 193.32 192.92 190.78 190.36 191.57 193.99
109.65 109.94 109.96 109.18 110.48 103.77 103.95 100.87 107.57 108.22 9999 111.79 112.02 104.41 106.06 105.72 109.43 105.64 107.66 107.8 109.34 110.7 109.19 109.77 110.36 110.37 110 112.39 111.43 112.39 113.11 113.05 112.67 115.51 112.7 111.56 110.38 112.23 9999 108.44 106.56 9999 114.41 115.23 118.75 118.64 117.14 116.62 118.45 118.78 120.24 120.83 119.19 123.89 124.27 122.97 120.77 122.19 126.72 130.92 134.45 132.92 135.62 138.75 140.51 145.85 152.98 162.71 170.82 178.7 178.23 171.48 175.98 179.1 178.58 181.11 187.81 190.05 190.84 190.38 188.52 182.91 181.27 177.29 176.27 184.17 193.35 197.71 201.11 195.55 197.31 197.8 194.21 187.1 181.67 178.57 178.54 178.47 178.69 183.62 186.08 179.52 174.56 175.57 176.89 180.57 184.03 180.21 177.34 177.34 178.38 175.39 173.49 174.01 172.65 169.71 165.65 162.71 165.63 166.17 164.68 167.61 166.27 167.91 169.2 170.37 165.8 164.43 160.18 163.3 163.53 163.44 162.48 162.91 162.2 162.04 163.84 163.62 167.4 171.85 176.87 181.52 185.85 191.01 193.18 190.31 189.65 187.71 183.5 185.5 186.76 186.37 185.7 183.62 187.01 190.39 195.32 200 204.11 206.08 198.14 203.54 209.23 214.71 217.08 214.64 211.06 209.52 206.29 205.5 198.95 195.54 192.36 188.91 185.82 186.68 185.82 178.46 179.37 180.81 181.93 181.76 179.92 176.63 177.82 177.85 178.65 181.35 180.06 183.22 184.69 191.68 197.38 196.97 193.52 191.19 183.39 179.01 177.42 175.35 172.94 174.57 175.18 177.43 178.98 177.86 178.38 176.91 179 183.02 185.33 187.71 192.09 193.28 190.02 198.87 198.42 197.88 192.36 187.1 187.57 190.75
110.38 109.94 109.26 109.14 110.81 112.08 110.27 109.87 107.44 108.5 113.12 112.3 111.36 9999 105.54 106.14 107.09 107.86 107.35 106.07 105.34 107.86 109.28 110.21 112.93 111.66 112.33 112.71 110.97 112.53 113.65 113.32 114.07 116.21 117.35 110.5 110.32 112.14 113.45 9999 9999 113.11 114.76 115.02 116.29 117.74 117.16 117.57 117.9 118.31 118.83 118.41 119.56 122.67 120.07 125.39 121.07 125.55 127.96 132.96 131.83 131.83 135.15 139.46 143.52 146.76 152.53 161.22 171.66 180.4 181.29 174.54 177.62 179.69 182.23 185.58 193.51 192.35 194.54 192.71 193.94 190.69 188.32 183.72 179.95 179.13 191.2 193.55 195.06 195.55 197.27 199.81 194.05 186.86 179.47 176.4 176.34 173.88 175.18 179.69 182.38 180.94 174.56 174.29 174.84 177.38 180.53 179.08 176.18 177.13 179.11 173.15 171.55 171.07 169.79 166.64 163.51 161.72 161.45 162.99 164.68 162.58 161.83 161.08 164.58 162.51 160.71 161.17 157.17 158.4 157.93 159.51 160.17 160.23 161.36 161.32 161.21 162.31 167.9 172.15 178.16 180.03 185.14 190.79 193.78 194.35 191.29 186.45 186.34 184.74 188.72 188.14 186.19 185.16 187.28 189.78 193.15 194.02 196.32 196.96 198.14 201.12 207.72 213.13 215.84 216.65 207.58 207.96 206.75 204.45 197.8 194.28 190.02 186.8 185.53 182.77 181.56 176.59 178.25 181.79 181.69 182.91 182.23 181.05 177.95 176.26 175.17 176.08 179.23 181.09 181.98 185.47 192.04 196.48 196.35 194.55 190.7 179.91 175 175.37 173.26 174.57 176.63 177.5 176.63 175.74 176.57 176.95 180.82 184.61 187.15 191.45 194.82 196.89 195.42 198.87 202.86 200.36 195.84 192.03 186.06 187.39
109.5 108.87 108.19 108.64 108.35 110.32 111.47 109.22 111.35 111.59 112.13 112.3 111.12 113.17 9999 105.46 104.89 107.01 106.88 106.76 107.63 105.18 109.17 109.94 112.93 110.88 111.92 112.99 111.61 112.88 113.89 115.5 115.2 115.9 118.84 110.81 110.38 112.14 113.24 117.05 115.43 116.33 117.19 118.37 118.9 116.73 116.8 117.09 117.07 115.94 118.83 117.89 119.16 118.17 118.64 123.38 122.89 123.08 125.99 129.31 129.96 130.52 135.02 139.46 143.23 148.42 154.32 162.77 175.48 181.79 184.44 180.61 175.98 180.47 184.28 192.07 193.51 184.37 186.63 184.88 194.92 196.84 193.81 188.99 180.63 178.09 180.78 188.12 189.44 192.31 192.71 195.52 194.14 188.39 179.35 175.64 173.89 171.82 170.62 174.54 175.79 175.4 173.6 172.41 170.93 173.28 179.53 179.08 175.11 176.15 176.98 171.81 166.3 166.53 164.49 162.46 161.73 159.56 160.98 158.32 159.69 157.48 158.09 157.83 157.56 157.56 159.2 156.61 154.63 154.57 154.35 155.21 156.74 158.04 158.51 158.51 159.74 161.89 168.35 170.28 171.45 176.89 180.47 186.89 190.96 194 190.16 186.45 189.68 186.2 189.54 189.34 185.99 186.72 185.42 185.88 187.99 189.77 191.54 194.04 197.35 207.72 208.82 210.63 212.5 212.3 209.29 205.04 203.96 203.79 202.34 196.86 191.87 187.72 185.53 184.11 183.27 178.12 176.91 178.48 179.46 180.86 181.82 184.02 182.86 180.95 178.27 177.87 179.23 180.13 179.96 179.88 185.87 192.79 195.31 194.16 191.13 187.61 182.51 176.47 173.37 175.4 174.49 177.19 175.35 172.64 174.37 178.34 181.86 185.89 190.08 195.88 197.92 200.58 199.96 202.71 205.23 205.05 200.77 195.37 190.35 186.05
111.62 111.1 109.69 108.66 107.94 109.68 111.5 111.78 109.74 111.01 110.51 110.29 111.22 114.12 112.02 107.7 108 9999 108.13 109.65 106.02 107.53 108.53 109.4 110.5 111.55 111.55 111.63 111.3 112.69 113.54 113.52 114.93 115 117.99 118.47 113.72 112.11 115.02 116.63 117.26 115.79 115.12 115.29 117.59 116.71 116.13 116.85 117.62 116.2 117.04 119.41 122.34 121.84 121 117.98 120.41 123.37 125.37 128.08 129.33 130.99 134.64 138.79 142.66 148.23 153.69 163.04 176.24 186.05 188.1 186.7 185.47 180.61 186.63 194.27 193.95 181.6 179.34 187.02 197.21 198.57 195.08 189.96 184.86 178.34 178.07 179.79 182.26 189.31 185.77 187.27 186.44 184.61 179.63 176.35 172.11 170.99 167.81 167.11 170.52 172.75 171.11 173.58 164.94 169.44 174.36 174.06 170.6 171.17 170.98 169.6 162.39 160.16 159.92 157.82 157.05 156.77 156.79 157.37 156.43 157.48 154.24 156.41 157.91 152.19 153.44 153.13 153.23 153.06 153.24 155.02 155.65 158.54 158.51 155.18 157.92 160.24 164.36 164.61 166.52 170.31 176.02 180.47 185.67 190.83 191.03 187.85 190.29 186.97 190.67 192.63 187.42 189.89 187.52 187.37 191.28 192.57 195.91 201.42 204.96 207.72 214.7 215.64 214.48 210.28 205.66 205.31 200.62 199.81 199.2 199.01 194.91 188.81 186.73 182.68 180.77 178.53 174.87 179.39 179.61 179.15 179.22 180.66 184.16 184.37 179.39 178.06 178.69 176.07 176.26 176.54 182.44 189.51 193.33 193.28 191.14 188.72 184.08 180.69 174.33 171.73 174.49 174.95 174.09 169.92 174.09 178.81 182.44 187.14 193.62 202.68 201.81 200.8 199.13 204.77 205.23 200.52 198.8 193.38 188.86 185.38
111.25 114.02 112.12 110.79 111.51 113.15 113.67 113.51 109.35 108.31 110.27 111.14 111.22 113.45 112.18 109.84 109.52 110.49 105.04 105.34 108.75 110.81 108.1 109.62 112.72 111.53 111.03 111.32 112.3 113.4 113.12 113.36 115.14 114.91 115.58 115.26 117.26 116.96 115.02 110.55 109.98 110 116.52 116.1 116.18 117.7 115.99 115.15 114.78 114.8 117.64 119.41 119.4 118.42 122.18 119.87 121.18 122.98 124.63 128.1 129.74 132.2 134.71 138.18 142.66 148 156.62 164.29 172.19 182.26 187.07 189.53 189.05 182.65 185.39 190.85 188.14 181.6 178.4 187.03 196.87 195.54 193.67 190.21 184.97 182.33 181.03 179.95 179.41 182.27 185.77 179.98 179.78 180.09 177.12 173.23 168.76 167.47 165.43 163.91 167.74 168 167.68 167.14 160.01 161.9 169.63 168.29 170.6 165.05 166.61 165.06 162.01 159.45 156.25 154.29 154.31 156.22 154.11 152.25 153.04 152.71 150.1 151.58 151.68 149.73 149.92 149.52 150.78 152.28 151.64 151.66 155.27 154.62 153.76 154.68 157.44 158.99 160.01 162.23 166.14 167.98 171.92 176.3 179.97 183.72 186.33 189.26 190.29 183.54 185.37 188.22 192.85 191.09 187.02 189.17 193.32 197.29 200.41 203.4 207.53 211.41 218.54 221.02 219.22 214.11 207.99 202.55 197.99 197.44 196.6 194.19 195.18 190.65 186.49 182.68 179.27 177.46 174.22 177.88 177.73 175.93 176.87 176.23 175.17 177.68 177.01 174.67 177.48 176.07 174.22 176.16 179.83 187.43 193.43 194.06 191.71 190.41 187.46 184.98 180.1 173.71 173.16 173.39 169.67 170.14 174.63 178.45 181.94 186.24 195.44 206.44 204.86 198.57 197.96 204.28 206.69 195.58 193.71 192.6 187.16 184.38
111.99 113.14 113.24 112.76 112.58 112.19 112.91 113.12 112.04 108.59 110.15 112.2 112.81 112.31 112.44 109.09 108.79 111.35 110.99 109.94 109.04 109.66 112.02 114.43 114.12 111.19 111.94 111.68 112.33 113.21 112.52 114.22 115.18 114.77 114.5 115.07 116.43 115.27 111.67 109.93 109.8 109.75 109.9 115.39 117.38 117.21 116.22 114.28 114.52 114.46 117.49 119.42 119.13 116.85 123.4 121.35 123.43 124.72 126.11 129.5 132.18 133.79 138.94 140.97 142.6 147.64 153.01 158.48 165.39 173.8 182.56 187.84 190.42 186.54 187.29 187.3 183.37 179.75 175.87 183.76 192.53 194.24 191.61 186.12 185.52 188.41 189.24 184.45 182.75 181.26 180.01 173.26 171.86 172.94 170.39 167.98 164.35 162.58 162.61 161.72 164.94 166.12 162.88 162.1 160.01 156.76 157.48 163.53 164.44 160.08 160.01 158.48 157.23 158.52 152.39 151.3 151.42 150.69 150.05 149.91 151.44 151.3 148.19 146.18 144.81 144.29 146.18 146.61 150.07 148.46 148.87 150.98 155.25 151.23 150.24 154.68 155.96 156.3 157.18 160.28 162.77 164.4 165.55 168.71 173.53 177.16 180.16 183.52 184.7 183.34 182.73 186.33 187.54 189.89 191.13 190.27 192.47 194.54 199.5 203.58 208.09 212.76 218.54 217.47 216.86 211.61 204.85 200.75 198.17 195.38 192.31 187.57 187.17 186.15 183.75 181.69 181.33 179.14 174.52 172.77 172.33 175.67 176.18 173.51 171.75 171.15 174.27 173.63 175.08 172.07 173.63 176.2 178.98 185.48 192.19 193.22 194.06 191.55 191.34 187.04 181.42 178.52 174.35 173.39 169.64 169.48 173.86 177.16 182.92 189.3 196.7 205.37 205.9 202 196.88 196.43 198.35 196.97 191.52 190.64 185.52 183.85
111.99 111.07 111.38 114.75 112.38 110.7 110.85 112.87 114.26 112.29 111.16 111.26 112.46 112.31 113.16 113.33 110.92 109.5 110.87 114.66 113.98 114.03 114.44 114.36 112.8 112.51 111.94 112.88 113.23 111.47 111.6 114.08 115.34 114.53 115.74 118.95 118.74 116.69 113.47 114.51 110.97 110.28 111.02 111.8 114.39 117.25 118.13 115.6 114.87 116.96 118.55 120.57 119.63 118.21 119.88 117.69 121.49 123 123.86 124.47 127.44 135.71 139.92 144.68 147.21 147.64 157.4 154.97 158.26 165.27 173.27 184.67 191.12 188.67 189.62 189.42 179.82 178.49 175.87 181.27 190.29 191.08 185.57 181.39 180.12 185.74 189.84 188.83 186.03 184.07 180.92 175.08 169.4 165.21 163.72 162.85 161.08 159.43 160.12 159.52 161.43 161.65 159.09 157.21 156.76 154.22 155.5 158.93 160.97 160.08 156.14 154.93 150.78 150.79 149.59 148.72 148.27 146.53 145.5 147.99 150.03 151.04 148.19 146.26 144.66 144.48 143.43 144.89 148.28 146.85 147.96 153.13 152.24 148.23 149.99 153.53 150.91 152.27 154.39 157.34 161.61 162.41 162.93 165.85 171.67 173.39 172.94 177.02 180.34 183.34 181.43 183.54 185.3 187.84 190.56 188.91 192.59 194.76 197.57 201.15 204.73 211.07 215.04 216.5 212.5 207.1 207.08 203.91 199.73 197.04 196.28 195.6 187.91 186.15 184.16 185.08 181.33 179.2 177.7 176.12 175.54 173.69 172.95 169.86 168.73 168.55 168.54 169.15 169.39 171.88 172.78 174.62 177.7 183.34 186.14 185.03 188.44 190.24 190.29 187.9 183.69 178.33 175.22 172.82 174.99 174.91 173.91 175.16 181.87 190.92 196.67 205.67 205.35 202.51 198.2 194.35 192.63 192.37 188.55 184.61 182.12 182.37
110.77 112.24 109.97 111 110.68 111.79 109.94 113.03 114.66 114.79 114.12 113.19 112.91 112.62 111.28 112.35 114.18 112.92 113.48 112.8 113.43 113.02 111.85 113.04 112.84 112.09 113 111.49 114.48 113.32 114.25 115.26 114.46 115.45 119.02 119.45 121.29 121.08 117.58 114.51 119.29 117.81 118.07 117.55 119.03 118.93 116.77 119.69 121.11 121.74 120.72 119.96 119.63 121.83 118.96 118 123 124.03 124.37 125.54 129.58 136.69 151.16 155.67 156.6 158.23 168.67 162.27 158.89 163.51 170.45 181.4 189.68 190.33 191.29 186.31 180.06 173.6 172.09 178.99 184.63 185.32 179.66 175.38 176.28 183.88 187.65 189.92 190.14 184.92 182.24 175.55 166.94 163.91 158.17 157.05 155.61 155.37 158.74 157.59 158.23 158.51 153.7 155.07 153.87 154.22 153.32 156.09 157.45 158.47 151.78 151.66 149.6 144.92 145.28 145.84 145.68 144.93 145.71 147.3 148.9 148.77 146.57 144.83 144.73 144.08 143.61 144.86 145.89 146.83 150.37 151.78 151.4 147.2 146.3 149.43 150.91 152.33 154.38 156.88 159.78 161.28 164.05 166.79 168.67 170.01 171.37 174.55 177.67 179.99 178.27 182.48 183.72 185.69 187.73 189.1 191.39 195.37 198.56 200.69 206.54 211.6 215.58 216.5 214.57 211.02 209.55 204.08 200.61 197.79 197.87 196.32 194.55 192.5 190.02 187.29 180.8 178.47 179.28 176.03 176.81 170.96 169.55 169.14 169.22 169.95 172.06 172.31 172.68 170.02 172.78 172.56 175.1 177.61 179.61 177.88 184.92 188 188.16 187.83 185.26 178.42 175.14 171.78 173.34 174.98 174.39 172.25 176.27 182.78 193.09 202.59 203.15 201.89 198.31 193.89 191.22 189.56 183.89 182.35 181.37 180.59
111.27 112.24 110.62 112.72 112.69 114.59 111.3 109.83 113.65 117.35 116.81 112.93 110.51 110.36 112 111.76 111.6 110.5 111.52 111.44 111.7 113.06 114.54 116.09 113.78 113 112 111.16 111.61 111.87 111.83 113.72 116.78 115.52 117.35 115.82 118.11 115.17 116.79 119.73 120.02 118.23 119.13 118.21 118.68 115.44 112.23 113.55 117.17 123.63 123.59 120.34 120.09 119.54 117.38 121.47 122.61 124.08 124.69 127.67 131.75 140.42 149.1 162.47 166.41 165.83 174.07 170.38 162.89 162.76 167.19 176.17 183.45 186.34 187.63 179.17 174.75 170.37 168.45 178.99 172.6 175.26 171.82 171.64 179.28 184.97 187.97 186.15 183.48 179.82 175.86 171.4 166.94 159.36 157.81 153.8 152.74 152.29 153.83 155.14 155.91 156.72 151.58 151.9 152.09 152.71 151.87 154.19 155 155.88 149.38 147.11 144.71 143.24 142.32 142.43 141.62 143.72 143.95 145.6 149.14 148.37 144.93 144.83 143.03 143.3 141.07 141.23 144.72 148.27 147.09 145.86 145.51 147.03 147.33 150.06 151.37 153.87 156.35 159.1 161.31 163.15 163.04 166.03 167.93 171.31 173.61 175.59 178.08 176.19 178.27 182.34 184.8 186.63 188.09 187.58 192.39 196.62 200.17 204.76 207.98 212.43 216.93 218.48 214.53 211.46 208.49 205.77 201.87 198.48 198.16 195.4 195.75 195.79 192.09 187.99 181.08 178.47 180.95 177.34 173.68 171.87 171.26 169.37 169.49 170.3 171.73 170.43 170.5 170.58 170.02 168.56 170.43 172.85 173.24 173.71 177.44 181.33 185.84 186.23 182.02 176.85 176.48 176.15 172.02 171.47 173.95 170.87 170.94 178.62 189.42 198.37 199.03 197.63 197.22 193.78 191.7 186.49 183.89 180.7 180.3 178.93
112.37 110.98 113.1 113.7 113.12 113.89 110.35 110.02 113.28 115.83 115.86 111.52 110.52 113.85 112.71 111.87 111.81 110.82 115.12 113.36 112.54 114.92 114.1 114.63 116.45 115.02 113.34 111.16 111.66 113.1 112.52 113.63 115.88 116.73 118.41 116.41 116.46 116.25 115.19 120.6 120.02 119.08 118.9 119.11 118.56 117.48 112.44 112.58 112.58 9999 120.97 119.54 121.98 119.54 122.19 122.97 123.79 122.85 125.02 129.77 139.77 147.65 153.22 161.48 169.37 171.72 174.07 177.73 170.33 167.99 165.67 174.2 179.16 181.76 181.19 178.35 169.43 167.13 165.12 165.88 163.17 166.29 166.52 170.93 178.7 186.55 187.46 181.44 177.18 173.41 169.45 165.22 162.12 160.15 156.68 152.19 151.42 149.93 150.37 150.16 152.48 152 149.17 148.47 149.65 150.26 151.42 152.9 153.2 153.14 149.38 143.72 143.03 141.86 140.31 140.08 141.09 143.61 144.08 146.99 147.5 146.23 143.99 143.29 141.24 139.92 140.14 138.99 144.09 144.07 144.66 145.39 147.93 148.93 151.95 152.35 151.87 153.87 159.96 161.04 161.36 163.68 165.64 165.62 169.35 173.3 179.08 182.27 181.49 178.24 179.61 188.96 188.97 189.92 191.75 189.8 193.73 198.28 203.06 206.6 210.75 213.55 216.87 217.5 214.53 210.17 206.6 205.89 201.1 199.84 193.31 190.49 191.67 189.82 187.4 186.59 181.29 179.15 180.09 176.16 172.1 172.66 174.89 169.68 169.78 169.78 169.95 169.39 170.53 169.31 170.7 167.39 168.01 168.5 167.68 167.63 168.95 172.76 176.47 178.58 176.74 175.53 175.24 173.15 169.21 171.47 170.73 171.67 170.52 176.07 185.23 193.46 196.41 194.49 193.83 191.47 189.44 185.2 180.69 177.51 178.11 180.46
112.39 114.07 113.1 110.59 110.11 112.84 113.96 114.19 116.85 116.82 115.8 113.39 112.72 115.84 113.74 114.25 114.71 112.68 109.47 110.7 110.84 115.37 113.65 111.77 111.68 112.95 112.85 111.29 114.79 114.76 114.62 115.79 115.57 116.77 116.4 117.66 117.21 118.54 118 117.83 120.19 119.27 119.65 119.77 119.54 120.38 112.95 112.4 112.9 113.57 117.57 118.46 116.27 119.75 118.46 124.61 126.03 122.43 126.05 131.26 140.73 151.19 156.49 161.79 169.26 175.05 179.18 181.69 176.69 173.66 170.76 177.14 179.08 175.29 171.22 169.55 166.08 164.21 161.63 160.23 156.53 158.3 167.26 175.36 181.99 181.48 179.04 174.89 172.77 168.72 164 160.97 161.25 160.15 156.44 148.96 148.37 145.79 148.06 149.66 148.22 148.59 148.42 147.27 148.61 149.67 151.42 152.64 153.6 151.21 146.06 143.95 140.53 138.64 141.13 142.03 142.5 142.71 144.34 145.8 144.92 142.23 140.8 140.64 141.24 138.52 139.47 140.08 140.59 142.97 145.57 147.16 149.88 151.93 154.36 154.23 153.66 156.25 159.79 161.24 162.64 164.21 165.64 167.84 171.28 173.44 179.96 184.64 185.62 189.01 189.95 188.96 194.15 192.82 193.21 192.84 195.18 197.21 202.19 206.92 209.78 212.94 214.17 215.01 213.83 206.08 201.91 200.48 201.96 199.69 192.49 189.34 188.22 186.45 183.92 185.16 182.96 181.82 180.09 174.96 174.27 176.03 177.27 171.99 172.89 174.1 175.6 174.1 171.51 170.57 171.36 172.17 175.89 169.78 168.72 166.13 164.62 165.93 168.58 170.65 171.74 172.65 171.73 168.82 170.16 171.55 168.69 167.65 170.91 172.64 182.58 188.33 190.44 189.99 188.64 188.53 185.39 184.02 178.57 177.51 178.2 181.37
113.82 115.51 116.21 109.87 111.33 114.71 116.03 114.02 114.48 114.7 116.98 110.6 111.71 114.62 114.53 114.25 115.06 115.28 109.95 113.13 114.78 115.18 113.81 110.34 109.82 110.27 112.96 114.16 114.79 115.3 115.39 115.2 114.13 114.27 115.33 115.82 117.92 119.24 119.4 118.39 119.52 119.27 118.05 119.48 118.96 119.97 117.85 118.2 119.24 117.27 116.66 118.51 115.65 116.29 118.46 118.86 119.85 123.25 129.88 138.14 148.52 153.34 158.35 165.3 171.32 176.22 176.5 181.69 179.51 180.48 175.76 177.02 176.94 173.49 169.38 167.41 162.84 161.73 159.37 156.81 156.53 155.35 161.08 172.56 178.88 176.46 171.45 167.85 165.99 163.77 159.83 157.07 159.89 162.35 151.96 147.16 143.06 142.15 144.21 148.25 149.8 147.15 147.71 146.56 146.38 149.01 150.82 151.74 150.82 148.36 144.24 143.95 140.14 140.66 141.09 141.95 141.55 141.73 141.97 140.92 140.51 140.1 140.32 141.87 141.43 139.86 140.33 140.55 141.19 141.85 143.82 146.61 147.32 148.89 151.38 152.78 154.65 156.32 159.79 161.67 163.24 164.47 166.16 167.85 171.84 174.93 178.24 188.15 190.68 194.96 196.7 195.49 200.61 199.37 196.44 195.32 200.31 201.86 201.51 203.29 206.2 209.77 211.21 213.68 211.79 206.08 202.23 202.01 204.98 197.71 194.4 193.22 188.38 189.27 187.6 185.51 184.19 183.31 178.53 181.09 180.53 179.4 177.8 176.11 176.12 177.38 177.65 177.27 176.85 175.66 176.57 177.42 175.89 179.36 173.16 171.28 168.03 165.38 164.31 164.92 166.74 168.79 169.82 167.13 169.21 168.53 168.69 166.34 167.21 166.14 178.47 184.14 183.13 187.68 185 184.53 183.28 180.62 177.24 178.54 179.14 180.81
112.65 113.49 110.31 113.44 112.97 115.9 114.57 114.59 111.24 111.74 114.74 113.04 116.16 117.78 117.41 117.23 113.06 110.99 109.94 111.74 114.24 114.84 114.56 115.05 112.82 113.11 113.8 113.96 114.68 115.39 116.62 115.24 115.3 115.24 116.03 116.47 115.79 117.49 117.29 117.38 118.29 118.44 115.74 119.27 119.52 120.17 119.94 120.62 121.6 114.98 115.91 117.25 114.64 117.72 117.93 117.86 120.33 128 137.59 143.79 150.08 154.97 159.03 165.22 171.95 174.53 174.09 176.74 172.94 180.32 176.97 177.75 180.67 181.03 180.81 177.84 167.8 161.24 160.86 158.96 155.63 155.93 158.8 163.31 167.45 171.23 166.54 162.2 158.57 157.11 156.74 154.93 154.94 153.61 151.96 147.35 140.61 138.91 138.94 141.69 147.51 147.03 144.89 144.94 145.21 146.5 146.88 146.21 145.97 145.76 141.82 141.65 140.14 140.28 141 141.33 140.86 138.76 137.99 137.26 138.33 137.54 137.42 140.75 137.96 139.86 140.04 138.21 140.95 142.48 141.91 142.91 146.9 148.98 149.34 151.71 155.79 158.77 160.62 162.2 164.07 165.23 166.8 168.72 172.71 175.31 180.26 185.52 193.09 198.66 201.6 202.26 205.24 203.93 201.51 199.57 201.34 203.61 204.66 206.01 205.06 207.3 208.54 204.33 210.77 207.84 207.67 205.65 203.98 201.93 199.03 196.99 193.59 191.46 190.82 186.9 183.92 184.28 180.79 181.06 182.8 181 178.81 179.33 179.25 180.5 181.04 182.34 182.46 181.79 182.54 183.16 181.91 184.47 181.05 175.78 172.29 167.29 164.42 162.94 162.24 162.64 164.68 166.02 167.15 165.07 166.47 165.28 164.08 166.7 170.08 178.99 177.64 183.09 180.85 181.89 182.22 176.47 174.42 178.23 179.14 178.32
112.44 114.53 114.69 113.44 116.1 114.64 113.86 115.15 115.97 112.82 116.25 117.45 118.26 120.38 120.31 117.69 113.06 117 117.86 112.26 113.16 115.34 116.11 114.99 115.42 114.51 113.73 114.92 116.31 115.39 118.36 115.86 115.91 114.8 113.86 115.34 115.67 116.28 116.54 116.43 114.54 114.67 115.74 118.4 120.89 119.25 119.46 119.02 121.89 121.21 117.51 118.11 114.66 114.83 117.53 117.86 125.67 134.74 140.31 146.54 151.15 155.89 158.99 164.8 170.18 170.48 169.53 171.23 172.94 169.76 174.08 175.24 180.63 181.51 181.74 178.7 168.01 167.74 171.03 169.75 165.24 155.93 152 159.29 162.91 167.1 163.01 158.69 153.41 150.23 149.3 148.91 149.08 148.97 148.63 144.91 141.96 137.62 137.36 137.5 141.2 144.65 143.73 142.86 141.63 139.78 140.38 141.81 142.76 143 141.32 138.62 140.14 138.8 137.94 137.2 135.95 135.66 135.52 134.58 135.01 135.31 134.75 135.91 140.77 140.22 135.24 135.51 137.89 139.42 140.88 142.98 146.29 147.49 150.28 152.33 156.77 159.5 161.57 161.39 162.83 164.84 168.1 169.85 172.47 177.93 182.75 182.73 187.78 200.01 203.6 205.58 205.24 204.09 202.55 202.38 202.6 205.02 205.94 205.67 204.21 203.95 202.07 201.17 202.82 208.88 204.56 205.78 204.68 202.65 199.64 194.89 193.66 192.19 190.56 188.98 187.52 183.71 181.02 182.64 187.58 185.38 188.41 188.08 186.46 187.68 187.86 188.38 187.74 186.36 187.01 186.92 186.65 184.47 180.6 179.54 178.16 171.4 169.98 168.81 164.29 161.44 161.31 163.46 165.1 163.34 161.27 159.08 162.09 165.43 169.71 171.85 174.23 179.32 176.53 178.55 178.6 176.06 175 178.07 178.54 180.95
116.07 116.45 116.62 116.9 114.61 111.81 111.78 113.87 116.05 114.81 115.71 115.13 116.89 116.92 115.77 112.59 109.61 115.19 115.29 112.96 110.38 114.14 113.25 113.64 114.75 115.35 115.27 115.67 116.32 115.57 115.03 114.7 114.71 112.27 112.01 112.73 115.13 115.31 115.95 116.3 115.32 116.83 116.19 119.99 122.47 123.75 119.8 119.12 119.65 121.76 121.79 115.99 119.1 118.93 120.86 117.94 127.88 133.67 139.62 145.44 151.27 156.38 160.57 163.15 167.59 165.67 165.05 165.55 165.16 164.81 166.63 171.43 174.45 176.38 179.33 178.03 172.29 175.37 175.49 171.78 168.05 160.34 149.46 152.57 154.39 157.44 157.52 153.4 150.24 146.13 143.85 143.07 144.02 144.94 150.29 146.48 145.34 141.11 135.67 134.97 137.47 140.66 141.53 140.34 140.07 138.7 135.94 137.43 139.76 138.14 137.22 136.62 137.59 134.58 133.25 133.24 132.55 133.33 134.06 132.23 131.72 133.08 132.85 135.26 137.65 138.45 135.24 135.3 136.8 137.88 138.99 141.83 142.75 145.9 146.32 151.91 155.31 157.37 160.49 161.39 164.35 166.68 170.09 172.99 174.77 177.24 179.9 181.18 186.23 194.45 197.83 206.11 205.67 205.73 205.58 204.03 202.97 205.35 204.96 202.01 198.05 197.59 195.15 198.19 198.94 201.6 204.56 202.08 202.35 201.12 198.04 194.92 193.34 190.57 189.41 184.39 182.48 185.95 186.55 186.96 187.58 194.84 194.77 194.61 192.52 192.16 191.81 192.57 191.06 189.67 188.62 188.82 187.02 184.24 179.27 178.27 176.87 175.96 173.45 168.8 165.41 162.39 161.44 160.86 160.16 160.03 157.04 159.08 162.52 165.15 167.84 169.49 167.86 169.68 173.43 174.82 175.85 175.1 176.55 177.09 177.43 180.95
114.83 115.39 112.95 112.01 114.61 112.57 110.96 111.87 113.63 114.19 114.69 113.88 114.63 111.88 109.28 109.62 110.03 115.19 115.21 113.64 113.35 113.43 115.01 116.11 115.55 115.53 115.81 115.37 115.86 115.13 115.03 115.11 117.03 112.18 112.13 115.44 115.86 116.55 115.57 115.66 115.23 120.83 119.33 119.99 121.52 121.17 119.57 120.08 119.43 119.38 120.52 114.72 113.28 118.23 122.08 116.71 120.3 129.8 135.7 142.11 148.85 156.43 159.45 162.34 163.44 161.91 160.55 159.39 160.67 164.81 161.21 165.02 167.36 167 168.45 168.64 169.84 175.72 172.12 170.05 167.22 160.07 149.46 143.19 144.95 146.85 146.34 146.85 148.58 141.93 140.52 137.21 137.56 136.93 143.93 146.48 141.03 142.03 137.66 133.82 132.7 135.29 136.54 140.09 138.48 138.4 134.45 134.31 135.47 134.47 134.7 135.21 134.53 134.58 131.43 132.01 131.82 131.99 131.54 130.89 132.77 133.22 134.81 134.74 135.71 134.26 134.59 134.91 137.43 137.08 137.16 140.13 141.56 144.68 146.26 147.11 154.4 156.39 160.88 164.01 167.18 167.71 171.26 173.73 169.93 172.12 177.58 179.26 185.6 191.66 195.56 198.44 205.4 205.73 205.06 204.51 203.75 202.43 201.76 199.86 195.19 193.74 191.95 193.48 193.98 196.64 196.45 195.78 198.51 195.91 193.47 192.6 189.22 188.23 188.62 184.74 183.77 188.53 191.02 194.33 195.37 198.63 199.13 198.42 198.08 196.86 195.6 193.59 190.62 187.56 186.03 183.92 182.14 180.06 179.27 179.7 179.36 177.87 176.38 169.83 168.22 165.58 162.49 162.32 160.56 159.33 156.82 158.93 158.82 161.82 164.61 166.1 164.75 164.62 168.44 172.54 172.45 175.46 174.93 176 176.7 181.89
113.36 113.52 111.34 112.53 114.56 115.23 113.86 110.36 111.94 111.41 111.7 112.14 109.12 109.3 111.48 114.95 111 111.99 113.1 111.1 112.86 113.7 112.79 112.34 115.98 119.43 115.78 116.29 115.46 114.72 114.24 115.15 118.05 118.82 119.02 115.6 115.83 114.8 9999 9999 114.01 119.65 123.62 121.65 116.26 112.09 112.15 118.31 120.4 117.26 118.96 119.34 116.29 112.93 116.75 120.26 122.67 124.12 130.93 136.48 145.62 152.72 158.35 158.36 157.21 157.15 155.99 154.99 155.16 158.29 155.05 156.56 158.23 159.09 161.6 161.16 165.57 168.18 165.76 164.51 160.77 154.26 146.3 140.7 138.65 139.81 140.69 142.39 144.68 142.12 139.78 135.92 132.48 131.25 134.61 139.84 132.49 136.5 138.76 136.68 133.25 131.52 134.64 136.1 138.96 135.9 133.61 130.32 130.4 130.69 131.87 134.18 137.08 132.37 129.12 131.59 131.05 129.39 129.54 130.77 130.37 130.48 130.77 132.96 133.96 133.08 133.44 132.77 135 137.09 136.91 140.81 141.85 143.8 144.55 145.75 149.5 153.72 157.77 163.82 167.18 165.25 167.17 169.32 170.24 169.02 174.9 177.7 183.67 189.61 192.38 196.21 198.73 204.45 198.83 200.12 200.78 198.71 197.08 195.58 193.72 190.66 188.76 189.48 189.72 192.23 190.17 195.78 191.25 193.12 189.63 187.71 186.66 186.8 187.87 178.31 179.12 186.92 192.89 196.97 198.45 202.37 202.24 201.8 200.77 196.23 192.11 187.58 185.54 182.8 182.95 182.16 182.35 179.16 177.63 183.54 183.69 182.63 179.83 175.04 171.03 166.63 164.19 162.77 161.64 160.96 157.16 157.82 158.82 156.88 160.86 161.56 160.98 160.97 162.74 165.74 172.24 174.5 172.87 173.5 176.29 181.41
111.84 110.9 111.75 113.5 115.34 115.23 114.53 114.26 113.24 111.77 110.47 111.77 111.49 107.73 9999 110.96 110.54 109.82 113.1 108.33 108.24 109.51 111.37 112.42 114.46 117.58 117.98 113.34 112.47 112.33 113.39 112.33 112.22 116.32 115.64 115.41 116.82 111.57 9999 9999 9999 120.18 121.63 118.71 9999 9999 112.24 9999 116.42 120.42 118.96 120.82 123.16 116.21 113.31 118.92 120.82 118.71 122.85 128.71 138.84 146.78 153.75 156.95 158.24 159.47 154.83 152.1 151.91 152.82 151.02 151.58 152.6 154.72 156.93 155.51 161.94 162.66 162.26 159.54 153.19 148.59 142.16 140.7 136.23 134.22 136.17 139.61 141.42 139.13 137.76 134.3 131.43 127.26 128.45 132.87 132.49 130.61 132.74 133.09 134.74 132.02 130.18 132.48 135.58 131.59 130.58 131.06 128.79 128.75 130.45 131.05 132.83 129.99 129.12 127.33 127.95 126.13 128.56 127.83 128.37 128.29 129.67 131.78 131.73 133.47 132.71 132.77 133.79 137.21 136.51 139.52 140.47 142.53 145 147.61 149.11 150.58 152.98 157.86 162.18 161.24 165.16 168.73 169.11 168.83 176.22 176.84 184.01 188.9 192.52 193.38 194.59 197.09 198.84 195.12 193.1 193.96 194.57 191.75 188.93 187.64 185.2 184.72 185.99 186.09 186.79 188.72 189.86 194.25 191.69 187.55 185.5 183.92 184.28 176.5 179.09 185.41 191.52 199.57 203.04 202.37 198.11 197.22 196.34 193.46 187.53 188.12 186.89 184.88 185.15 182.9 181.16 179.46 182.68 183.54 185.49 184.41 181.1 175.08 172.87 171.5 168.51 166.45 162.85 159.85 159.86 158.16 157.59 155.55 157.38 156.66 156.9 157.38 158.67 160.66 163.32 172.69 170.71 169.84 172.11 177.91
113.65 109.52 110.92 112.77 113.56 112.57 113.73 112.71 113.26 117.03 110.94 111.19 114.69 107.99 9999 108.13 109.49 109.42 108.13 109.93 108 108.09 109.35 110.98 112.85 113.92 112.65 112.66 111.58 111.45 111.54 112.33 110.37 111.45 113.55 116.08 117.6 9999 9999 9999 9999 118.89 120.98 116.49 9999 114.97 112.77 9999 9999 118.76 120.55 120.95 116.21 9999 9999 9999 115.47 118.71 121.24 125.66 130.34 143.89 150.06 152.72 152.47 156.62 156.05 150.71 149.18 149.16 151.02 148.99 148.63 150.48 153.06 151.17 153.31 160.54 159.3 154.4 146.71 143.22 138.94 138.34 133.5 131.45 132.67 138.08 139.26 136.16 133.22 129.95 129.74 124.18 125.81 129.61 127.63 126.65 128.48 129.44 130.82 133.23 131.94 129.62 131.79 129.07 128.28 129.1 129.84 127.48 129.42 127.62 129.19 128.73 126.55 124.4 125.59 128.04 127.09 125.18 125.61 128.36 126.42 128.74 131.79 135.05 132.16 132.47 134.52 135.37 139.39 143.61 144.15 143.16 144.29 147 147.22 149.53 150.42 150.8 157.01 161.24 164.19 165.2 166.88 166.34 174.51 177.78 183.16 186.87 189.17 189.78 192.08 193.06 193.57 190.63 187.99 190.95 187.39 187.22 185.04 184.89 182.99 181.31 181.37 182.69 184.61 186.07 189.86 192.21 193.42 192.57 185.45 183.33 181.45 175.39 179.75 183.8 189.28 194.32 199.19 199.47 195.64 193.34 190.64 188.54 188.64 191.2 190.96 190.04 188.96 189.16 183.39 180.38 184.03 185.78 185.04 181.41 179.09 176.25 174.63 173.44 171.85 165.94 164.35 161.3 160.99 160.35 157.81 155.55 154.92 154.93 153.93 155.12 157.38 157.37 160.66 165.63 169.78 165.32 167.48 173.82
115.7 113.83 112.3 114.39 114.65 114.67 113.73 111.54 115.32 116.82 111.98 107.77 107.42 107.47 9999 9999 9999 108.21 108.33 116.12 111.43 109.09 109.89 109.26 111.52 113.47 111.93 112.54 112.01 111.05 109.98 110.46 109.89 111.25 112.56 115.58 115.1 110.68 9999 9999 111.85 117.84 122.91 120.04 120.02 120.88 115.95 9999 9999 120.58 116.9 117.98 113.48 9999 9999 9999 9999 116.2 120.44 124.32 130.69 135.69 145.4 148.87 149.87 153.17 154.99 150.59 147.79 147.28 148.52 145.83 146.97 147.88 149.01 147.66 148.41 152.83 150.18 145.19 141.54 138.27 135.54 135.04 133.5 130.5 128.74 131.84 132.72 130.93 128.7 127.68 127.1 124.74 123.71 125.95 125 126.65 126.82 127.58 126.54 128.51 129.14 128.6 128.74 128.73 125.84 125.54 127.74 125.84 126.57 126.42 127.29 127.01 125.19 124.93 122.49 125.33 123.02 123.99 125.87 127.19 124.59 125.08 127.07 129.27 132.62 131.61 134.52 135.94 140.24 142.35 143.55 142.6 145.82 146.73 146.94 147.36 149.83 149.37 151.86 159.22 159.53 164.13 163.33 165.52 172.57 176.3 181.25 184.28 186.21 188.79 190.48 189.95 187.74 190.63 185.89 184.89 183.93 184.08 181.41 181.48 180.5 179.44 179.33 180.87 183.29 185.61 188.29 190.33 187.9 187.74 184.16 182.5 175.83 169.79 177.76 182.58 187.26 194.13 197.98 197.38 195.64 196.59 197.67 195.66 195.41 196.26 195.37 190.09 188.45 185.79 182.02 184.34 186.62 186.22 185.04 183.54 181.03 178.92 177.3 176.66 173.38 171.42 164.65 162.58 163.39 160.6 159.28 155.41 155.32 155.12 154.12 154.77 157.08 156.79 160.51 165.97 169.28 172.96 165.47 170.25
114.54 116.2 115.04 110.28 110.81 111.8 110.5 113.33 111.53 108.43 107.52 107.54 107.89 107.75 9999 9999 9999 107.75 109.4 116.12 118.25 116.32 111.58 109.02 108.16 108.71 111.72 112.65 110.49 110.36 110.28 110.19 109.89 110.31 111.84 116.4 117.39 116.25 115.35 113.57 115.54 116.74 118.25 118.86 120.28 120.88 117.54 118.92 122.47 116.18 120.1 120.4 114.4 9999 9999 9999 9999 119.24 120.44 125.25 128.88 131.91 137.16 140.18 148.18 150.12 153.64 155.23 147.99 144.34 144.87 145.83 143.58 144.26 146.3 145.22 142.74 144.87 145.28 139.44 137.55 134.85 134.16 135.92 132.62 129.42 127.29 125.56 127.31 126.83 125.39 126.03 125.04 122.6 121.93 124.47 122.32 123.08 122 124.1 123.58 122.88 125.62 127.36 126.78 127.14 124.69 124.96 128.32 126.18 125.37 125.49 125.46 125.36 125.89 124.93 122.47 123.98 122.28 125.86 128.13 127.9 124.21 124.3 127.46 130.23 131.08 130.56 133.01 136.68 140.36 141.26 142.68 143.44 144.76 144.91 146.49 146.51 148.39 148.18 150.94 154.63 158.01 161.92 161.8 166.24 169.85 174.17 179.59 182.91 184.82 185.85 185.25 187.17 183.55 185.25 182.23 182.44 179.33 179.76 176.51 176.62 178.81 178.34 180.22 183.55 184.81 186.27 188.36 190.33 183.6 183.81 180.05 179.5 174.04 169.63 179.58 183.97 188.82 194.14 198.83 199.89 196.83 202.26 200.51 198.69 198.29 198.54 197.4 193.81 188.63 185.7 184.2 185.79 189.1 187.17 185.86 185.33 182.63 181.5 179.78 177.73 174.18 173.33 171.52 164.27 164.07 162.95 159.28 159.25 155.32 155.08 154.72 154.09 154.05 157.71 159.58 164.31 169.31 174.97 173.85 168.13
109.83 111.22 111.86 107.65 107.51 109.58 111.8 107.49 107.6 9999 9999 9999 9999 9999 9999 9999 9999 109.2 114.13 117.46 118.21 115.84 108.36 109.25 109.1 109.05 108.48 109.18 109.49 109.57 110.87 110.39 109.7 110.43 111.83 112.86 116.95 117.25 118.51 119.16 115.85 117.83 114.61 117.1 116.57 117.58 116.81 117.78 117.4 118.24 115.78 114.64 113.77 113.09 9999 9999 9999 119.83 121.95 123.26 127.49 132.31 135.4 137.57 140.81 148.54 150.1 149.96 150.58 145.37 141.41 142.71 141.15 141.09 145.01 143.85 138.64 138.43 138.08 136.99 135.31 131.06 131.04 134.05 131.09 126.71 126.33 124.77 122.82 122.62 121.3 123.48 124.04 121.33 121.42 122.79 121.38 120.92 122 124.67 124.13 124.4 124.66 125.55 125.51 124.94 124.96 124.98 127.45 124.47 121.96 122.5 124.67 123.7 122.24 123.76 124.28 123.47 124.24 123.13 127.19 126.75 125.99 125.57 128.15 129.96 130.05 131.35 132.16 136.68 139.02 139.62 142.22 142.65 144.26 145.25 146.75 146.69 148.74 149.85 151.1 152.93 157.36 157.86 157.3 165.28 169.79 172.56 176.33 178.34 179.81 181.37 181.07 184.72 184.91 182.3 182.23 179.93 177.58 174.72 174.26 174.8 176.67 179.05 183.31 186.36 186.37 187.13 188.04 187.55 185.79 183.94 180.35 177.18 175.25 168.96 178.81 185.44 187.21 192.48 196.35 199.72 201.72 202.26 202.42 198.97 197.71 196.8 196.85 196.01 194.15 188.05 185.18 185.09 185.98 188.32 185.7 185.58 185.15 182.9 179.61 177.4 174.84 173.96 171.9 168.88 166.41 159.9 158.55 158.08 155.25 155.1 154.99 156.33 155.56 159.15 161.92 162.94 168.07 174.14 179.39 174.46
111.25 108 9999 107.43 107.58 9999 107.39 107.49 9999 111.68 9999 9999 9999 9999 9999 109.22 107.7 107.35 107.87 116.31 118.21 116.92 108.44 108.46 108.63 109.57 108.44 9999 9999 9999 110.58 110.51 110.78 110.31 111.07 113.15 114.07 116.17 116.85 115.36 115.5 112.71 116.41 116.92 116.23 115.86 116.81 116.99 116.81 117.96 121.37 115.15 113.61 9999 9999 9999 118.22 118.75 121.56 123.26 125.73 129.31 133.95 135.06 136.68 137.19 146.17 145.93 146.66 145.21 145.26 143.17 141.15 138.6 141.78 142.07 136.66 134.53 132.48 132.55 130.79 130.06 127.2 129.62 128.94 126.71 125.1 124.51 122.8 120.41 119.5 119.79 119.58 121.03 121.2 121.04 118.97 118.79 120.46 121.34 121.66 122.99 123.98 123.53 125.01 123.45 122.89 123.34 123.88 123.25 122.08 121.09 125.56 124.42 120.02 122.24 124.28 124.56 125.54 126.92 125.19 125.07 127.26 126.84 126.06 126.83 129.37 130.01 131.18 132.59 136.53 140.32 141.76 143.22 141.76 141.95 144.53 145.88 147.46 148.2 147.76 150.84 155.92 157.86 152.44 162.8 164.52 167.76 172.59 174.6 177.59 180.02 181.42 184.35 183.76 182.28 180.26 177.98 176.16 173.88 171.87 174.63 177.76 182.26 185.01 186.81 187.41 187.03 186.92 187.54 185.79 177.97 175.59 175.49 174.38 172.65 166.47 179.13 181.7 186.42 191.04 195.72 200.72 204.66 200.27 196.32 193.71 193.37 193.21 194.26 194.79 192.57 188.9 185.01 184.15 184.94 186.25 185.58 183.98 182.52 179.67 176.12 174.39 173.28 170.5 168.17 165.97 162.09 160.4 162.16 157.62 155.1 155.82 156.33 155.04 154.95 158.24 162.05 166.13 174.48 182.01 177.56
109.22 107.99 108.42 9999 108.25 107.38 107.56 107.48 107.61 108.66 107.64 107.51 107.36 107.32 107.34 108.73 108.61 107.37 9999 108.44 115.37 111.45 109 108.72 108.65 108.52 108.59 108.32 108.36 107.99 108.82 110.4 109.84 110.28 110.17 110.81 113.63 113.95 114.4 114.69 117.17 113.58 117.09 116.22 116.87 116.76 113.43 116.62 117.72 117.24 116.69 120.97 120.72 114.19 9999 9999 117.48 119.44 124.44 124.78 124.86 127.04 128.51 132.15 134.78 134.69 135.37 138.65 142.11 143.26 142.24 142.51 144.74 139.47 138.45 138.26 134.85 131.66 129.79 127.66 127.13 127.14 124.19 124.9 125.84 125.57 123.63 122.75 122.04 120.99 119.42 119.16 118.99 119.67 121.38 119.97 118.66 117.04 116.53 121.34 118.78 121.33 121.08 121.41 123.59 122.39 122.76 123.71 122.95 123.38 122.54 119.68 119.23 122.54 122.28 121.7 125.42 124.36 126.12 125.79 125.6 125.5 125.75 127.06 126.56 124.93 128.58 129.9 130.64 132.36 135.87 139.76 139.81 139.97 141.72 144.16 144.97 144.79 144.87 146.84 146.91 151.05 153.73 155.63 149.89 153.97 159.22 167.44 169.78 170.45 175.52 175.63 175.82 179.1 179.67 179.92 178.09 177.98 173.24 171.38 171.18 172.14 179.26 182.58 185.92 190.03 189.79 186.74 181.18 180.47 179.85 173.1 172.69 172.73 173.31 168.2 167.27 172.71 176.86 179.92 182.61 186.7 195.01 201.67 200.27 194.01 193.11 190.66 188.42 190.3 191.54 186.93 189.68 188.2 183.51 181.55 182.65 185.82 180.49 179.66 177.66 176.37 171.93 169.95 167.85 166.34 165.71 165.38 164.55 161.7 161.21 158.61 159.36 156.98 154.76 152.97 155.71 159.04 163.87 174.12 183.87 182.55
114.41 108.92 111.11 108.73 109.35 108.16 109.04 107.61 107.61 107.87 107.62 9999 107.49 107.4 107.49 108.32 107.83 107.66 107.57 110.13 115.49 111.45 108.19 108.23 108.35 108.05 108.94 109.38 108.17 107.92 108.18 108.05 108.14 108.57 110.17 108.86 110.43 110.79 113.69 114.18 115.5 112.69 114.84 117.82 117.92 115 115.17 116.62 116.04 115.47 116.48 117.61 118.7 119.63 117.66 120.44 117.99 118.35 122.05 123.16 124.86 125.19 126.16 129.89 134.28 134.4 134.82 135.39 134.64 137.94 138.74 140.17 140.92 139.47 137.25 136.8 132.83 129.26 126.92 124.77 122.93 123.48 122.48 122.2 122.44 123.41 123.63 121.62 120.73 119.58 119.08 118.96 119.1 119.8 120.76 118.9 116.79 115.81 115.52 115.6 116.16 117.9 119.85 120.16 121.9 121.81 120.71 121.03 118.5 121.61 120.87 119.27 119.41 121.1 123.03 120.04 124.99 124.36 125.42 125.86 124.34 122.98 124.64 123.81 125 125.33 124.62 128.35 130.28 132.98 135.33 136.3 135.66 138.92 140.13 141.08 141.11 142.42 142.24 145.73 148.48 150.51 150.45 149.95 149.89 153.19 158.03 163.88 165.55 169.82 172.12 169.87 171.33 173.69 175.56 177.41 175.62 175.53 171.29 170.6 169.28 169.92 171.71 176.17 184.28 189.55 190.48 183.43 179.06 176.27 175.44 173.1 170.68 171.06 171.56 165.58 162.17 169.75 172.52 179.58 183.86 190.36 196.6 198.29 194.42 189.45 190.25 189.84 187.77 184.27 181.84 181.89 186.57 185.45 183.47 178.39 178.98 180.79 180.49 173.06 172.09 170.63 169.94 167.77 167.58 168.15 164.88 166.42 163.98 160.86 160.24 159.54 159.36 159 156.26 152.88 152.8 160.16 161.15 167.56 174.47 180.65
116.59 113.94 109.71 110.85 111.84 109.96 111.84 108.56 107.46 110.72 9999 107.65 107.55 108.59 112.29 111.41 107.84 107.6 107.55 109.29 111.81 110.11 115.05 108.18 107.91 108.08 108.26 108.15 108.19 108.21 108.85 108.24 108.2 108.85 108.28 108.16 108.34 108.38 111.98 115.74 113.77 110.57 109.39 110.64 110.96 114.04 114.15 114.35 113.68 117.38 117.04 113.18 112.21 113.27 118.25 120.35 119.19 119.76 119.67 123.54 123.87 124.6 125.2 126.69 131.3 131.67 132.5 135.39 133.58 131.37 133.5 132.74 133.97 136.13 133.94 135.28 132.06 126.74 124.67 122.97 121.89 121.77 121.17 120.99 120.47 121.98 122.43 121.72 119.28 119.25 119.24 118.94 119.5 119.75 119.11 116.34 115.74 115.62 115.49 115.48 115.41 115.63 117.66 118.78 119.97 119.75 119.99 118.99 120.24 123.46 123.04 123.73 123.83 120.98 122.55 117.19 119.47 121.58 123.04 124.77 123.8 121.33 120.82 119.57 120.41 124.39 125.37 125.52 129.92 133.07 134.48 136.3 134.73 135.25 135.44 136.3 137.64 139.93 142.19 143.74 146.2 147.82 147.45 148.55 151 153.28 155.4 158.16 160.45 168.4 168.83 167.44 170.01 171.66 174.88 175.15 172.82 173.41 171.29 167.81 168.09 168.35 170.04 172.57 177.85 182.27 183.61 178.68 175.98 174.35 171.63 170.4 167.99 167.98 168.4 162.4 163.18 169.27 172.36 178.72 188.12 192.26 194.61 191.29 191.08 189.45 183.79 182.63 185.28 181.39 178.36 176.71 178.23 178.99 177.24 177.11 175.11 172.98 172.5 169.08 171.81 170.45 170.59 167.94 168.08 168.28 167.88 165.14 162.51 161.04 160.31 160.14 159.47 158.28 156.36 153.27 151.85 155.2 159.3 159.43 164.41 169.45
110.87 115.41 114.26 112.49 110.66 110.38 110.6 112.03 112.52 110.72 113.03 110.81 111.49 114.25 114.02 114.91 113.32 107.57 108.74 113.18 113.01 113.33 115.05 111.02 108.49 109.68 108.44 108.45 107.99 9999 9999 9999 108.25 110.52 108.87 109.39 109.69 110.16 111.34 114.1 110.28 110.38 110.99 111.53 110.23 113.5 113.98 113.84 114.1 114.88 116.83 116.7 9999 9999 113.41 117.6 121.37 118.84 115.14 117.33 121.28 120.43 122.58 125.74 128.85 129.76 133.36 136.54 132.09 127.34 127.61 130.28 128.68 132.18 133.94 130.63 127.08 129.4 123.37 122.32 121.23 120.37 121.2 121.75 120.91 124.3 124.71 121.72 119.29 119.23 119.77 119.54 120.81 119.5 117.26 115.63 115.53 115.41 115.36 115.47 115.41 115.44 116.42 118.51 118.75 119.6 117.85 118.56 121.51 121.76 121.35 120.2 121.22 124.74 120.46 116.61 117.62 118.23 120.44 122.92 120.3 121.97 122.38 120.24 123.71 125.94 122.47 125.15 127.98 129.89 132.51 134.42 131.62 133.06 132.89 132.87 133.51 135.67 140.03 141.5 143.26 144.14 145.39 146.7 149.01 150.51 152.65 156.34 158.1 162.7 165.34 166.53 169.46 170.47 172.1 172.68 170.57 171.26 168.24 165.17 164.8 165.92 166.92 169.4 172.78 178.35 177.21 175.43 174.09 172.23 169.54 168.99 167.99 164.2 159.65 160.52 165.73 173.5 178.41 179.82 185.78 188.99 189.38 188.01 186.83 186.11 181.11 178.36 177.12 175.53 174.49 174.74 173.13 172.66 172.27 174.19 176.01 170.45 169.97 169.08 170.1 169.05 169.15 169.55 168.37 166.72 164.96 163.18 163.95 164.77 163.62 163.09 161.79 158.28 161.22 159.89 156.42 156.23 155.86 155.05 156.72 160.19
109.32 112.79 113.59 113.08 114.77 115.64 112.64 111.23 110.36 111.54 111.17 110.21 111.95 113.12 114.11 113.72 116.17 114.3 110.08 112.79 114.21 113.81 112.12 112.16 111.74 108.56 108.19 108.01 9999 108.15 108.1 9999 108.08 110.47 109.78 109.39 110.29 113.58 111.39 110.45 111.58 114.69 114.82 114.85 111.54 112.51 112.22 112.82 114.1 113.74 113.96 117.88 116.09 9999 9999 114.03 117.48 120.1 117.86 114.81 116.85 120.43 119.32 126.68 127.65 129.47 131.17 132.98 128 124.83 122.88 124.2 123.29 126.69 129.41 124.11 121.85 124.99 121.15 120.35 119.62 119.17 121.38 120.24 120.1 121.27 121.39 121 120.99 120.21 118.94 120.39 121.44 120.14 116.56 115.36 115.4 115.49 115.3 115.19 115.42 115.4 117.89 118.7 118.73 118.4 118.05 120.23 120.97 121.32 120.07 118.8 120.76 122.4 117.5 116.65 119.7 120.3 121.47 121.06 120.68 121.24 123.82 124.2 124.07 126.42 123.36 123.26 127.03 128.14 125.44 131.02 131.62 131.73 132.43 131.41 131.67 134.22 136.78 138.92 140.49 143.37 146.2 148.44 149.69 150.51 150.62 152.76 157.15 160.21 161.48 163.11 166.44 169.59 172.14 172.46 169.23 168.45 166.87 163.32 163.23 163.96 164.77 166.55 169.2 170.51 172.42 172.08 171.43 170.3 167.36 166.39 165.31 158.5 158.03 166.75 173.7 177.29 181.43 187.15 189.68 189.48 187.4 182.79 184.03 182.77 181.11 178.34 177.97 175.49 173.37 171.86 170.75 170.35 169.28 169.54 169.21 169.36 169.43 169.67 165.67 165.83 166.42 164.84 165.22 166.07 167.63 162.55 165.44 163.3 162.85 161.72 161.68 161.54 159.15 158.39 155.64 159.35 158.23 150.98 151 153.35
111.65 112.63 113.79 112.55 108.83 108.64 108.49 113.24 116.48 113.77 111.46 113.36 111.87 110.52 111.01 112.66 115.37 116.72 113.91 112.94 113.37 113.86 110.68 113.87 110.69 113.29 111.76 108.71 109.17 108.56 107.99 108.03 108.2 108.46 108.66 9999 112.73 113.18 112.19 112.45 113.74 116.37 115.1 110.53 109.9 110.18 112.49 112.72 112.63 115.73 114.46 115.13 118.02 117.26 9999 9999 114.86 116.61 119 116.59 117.14 117.13 117.69 119.93 121 124.1 127.85 127.31 122.83 124.36 120.17 120.27 119.08 119.48 123.76 117.9 117.18 120 118.83 119.12 118.73 121.48 120.27 118.67 118.35 119.33 119.97 121.19 120.99 122.88 121.98 121.45 119.76 119.4 115.61 115.26 115.48 9999 9999 9999 115.37 115.4 117.38 117.97 116.37 116.85 117.57 119.53 120.11 120.21 120.63 122.54 122.36 118.87 116.68 118.06 121.32 121.81 118.71 121.06 116.82 117.8 121.83 123.64 125.56 126.71 124.16 122.72 122.88 126.96 125.61 127.77 129.19 128.27 130.94 129.45 130.24 132.01 132.82 134.88 139.05 142.63 143.99 146.99 148.65 147.87 148.71 151.39 154.84 157.36 159.74 159.75 162.44 167.66 171.4 171.1 167.94 167.21 165.16 163.32 161.82 160.74 162.7 164.96 167.31 169.3 168.35 166.54 164.7 167.72 165.36 164.05 163.22 157.21 163.76 169.68 176.21 178.12 183.3 191.4 190.3 186.38 183.29 182.73 179.33 179.92 178.64 182.13 182.97 177.71 174.89 172.4 172.13 172.08 171.74 168.99 169.77 167.54 168.05 168.39 165.67 166.31 167.77 166.26 169.94 170.61 171.31 165.4 168.86 167.13 167.06 166.26 166.22 163.31 160.22 161.01 159.13 157.08 155.87 156.01 152.5 150.24
113.26 113.97 113.7 114.99 112.59 109.67 9999 108.47 112.17 115.55 116.27 115.22 114.44 112.63 113.86 112.44 111.49 112.66 112.66 113.05 113.5 113.1 113.25 113.87 114.54 114.39 115.66 110.21 108.23 9999 108.01 108.47 108.71 111.55 110.93 110.93 112.73 114.79 111.54 114.55 113.82 114.1 115.68 112.78 110.71 112.73 115.07 113.88 112.61 115.73 113.92 114.85 119.1 118.95 116.88 116.53 112.88 114.77 116.07 116.11 118.22 116.57 117.69 116.43 119.69 120.47 123.39 120.49 120.71 123.09 119.28 118.36 117.36 115.88 116.86 118.55 116.04 116.89 116.42 116.04 118.36 119.55 117.44 118.98 118.1 118.75 119.81 120.5 119.84 120.7 118.89 119.39 118.33 118.67 116.2 115.46 115.28 115.18 9999 115.2 115.45 115.6 116.65 114.78 114.28 114.85 117.11 117.1 119.49 120.46 117.84 118.64 118.23 116.94 116.98 120.34 119.09 122.91 122.99 119.43 117.12 9999 117.9 122.78 122.74 125.11 124.95 122.87 120.53 125.1 126.34 128.03 125.75 124.71 126.31 125.77 127.61 129.4 129.62 134.04 138.75 139.47 142.06 143.29 146.24 146.64 148.71 149.68 150.97 154.33 155.17 154.25 160.38 164.39 169.45 166.87 165.3 165.04 163.69 160.82 158.24 160.29 161.19 161.68 164.34 166.24 165.03 162.51 161.06 164.97 163.28 161.02 158.46 157.21 165.6 169.34 173.77 177.49 183.62 188.6 187.76 187.32 187.13 188.42 184.49 182.9 180.32 182.13 179.63 179.7 177.77 176.42 177.42 175.96 174.41 173.9 173.27 169.23 168.17 169.14 171.8 170.5 171.76 170.04 173.12 173.11 171.34 172.79 173.65 171.23 172.23 171.55 169.57 168.42 165.48 164.54 163 162.14 156.26 155.12 151.32 149.18
115.88 115.38 116.08 115.15 115.48 113.38 108.45 110.01 9999 108.58 113.27 112.39 114.51 113.98 113.31 113.39 114.67 113.49 111.85 113.27 114.3 114.61 114.15 115.23 115.44 114.74 113.86 114.78 9999 108.14 108.2 108.24 108.66 108.49 111.2 115.05 115.26 114.7 116.27 118.17 116.85 116.23 115.95 111.52 109.73 114.09 115.38 113.2 111.87 113.45 119.95 119.3 117.99 119.67 116.48 115.88 116.11 112.54 115.14 116.35 116.38 117.5 115.71 112.34 113.2 116.68 118.79 116.86 117.31 116.72 115.82 115.93 115.57 114.13 115.21 120.39 117.69 115.78 116.14 117.62 116.47 116.34 116.9 118.4 118.74 120.37 119.75 118.98 119.18 120.7 117.39 117.29 118.86 118.66 116.24 115.35 115.27 115.37 115.49 115.4 115.39 119.13 116.65 114.65 114.56 113.72 115.49 119.25 119.87 120.05 117.15 116.93 117.05 116.88 116.71 116.93 116.84 120.76 124.71 121.08 117.12 118.65 121.39 118.56 120.59 124.01 123.34 120.75 123.7 122.94 121.41 124.31 124.6 124.71 125.14 124.64 124.2 127.67 126.95 131.12 134.37 136.39 137.68 140.46 143.48 144.52 148.9 144.8 146.45 150.36 150.01 151.09 157.79 160.94 163.64 166.1 162.2 160.71 159.71 158.92 158.24 157.93 158.44 159.75 160.36 161.06 160.07 158.35 160 163.49 163.83 158.6 155.45 160.23 167.01 169.8 173.01 176.31 180.63 183.34 184.83 187.76 190.26 191.33 190.3 186.28 183.38 180.22 182.62 182.45 180.9 179.8 183.53 182.8 180.25 177.72 178.81 175.02 175.39 176.4 175.87 172.82 177.26 177.3 176.91 175.48 175.02 175.01 175.55 174.5 174.26 173.48 172.39 171.92 168.8 167.17 163.88 163.67 159.54 157.59 154.67 152.39
117.46 116.22 116.05 115.56 116.19 115.76 108.71 9999 9999 108.38 108.78 112.39 108.69 112.07 114.71 114.51 114.63 114.96 114.18 112.47 112.1 112.36 113.31 115.06 115.44 113.31 114.42 115.28 112.15 108.14 108.13 9999 9999 9999 112.1 112.66 112.64 114.7 116.81 116.87 114.94 117.67 112.07 109.82 9999 110.41 111.66 114.56 115.68 116.66 119.95 117.13 117.55 119.11 117.47 115.2 117.53 116.89 115.23 115.71 116.27 115.8 115.1 112.34 112.88 113.45 114.64 116.35 115.36 114.06 114.92 115.51 114.95 114.52 115.87 117.33 117.69 114.89 113.32 114.05 114.93 116.69 116.69 117.75 118.08 120.32 117.98 117.78 118.25 117.45 116.71 115.7 114.98 115.93 116.22 115.35 115.32 115.34 115.48 116.77 119.81 118.24 114.28 116.64 113.74 113.25 114.46 120.65 119.33 118.64 119.97 120.17 117.34 116.93 116.9 116.89 116.88 119.21 123.05 117.07 9999 9999 118.64 116.68 117.89 122.12 120.81 122.49 122.7 122.92 120.3 119.28 120.05 126.44 123.06 126.6 125.71 124.12 123.89 128.56 129.68 134.61 137.02 138.73 139.09 141.74 145.01 144.8 142.84 147.72 146.88 149.88 152.59 157.03 159.86 163.22 164.38 158.26 156.82 156.37 157.12 153.97 154.82 156.72 157.15 158.66 157.23 157.39 158.36 158.63 157.85 155.66 158.17 163.15 167.01 174.99 176.15 176.91 180.16 181.92 184.76 187.59 191.41 193.34 194.09 190.41 188.56 184.71 187.07 185.75 185.39 184.35 185.58 186.2 181.27 182.67 181.41 180.55 181.63 178.99 180.5 177.83 181.02 181.78 179.87 177.3 176.94 176.24 176.68 176.66 176.61 174.39 174.48 173.07 171.13 167.17 167.44 164.82 164.33 162.53 158.17 151.49
115.31 112.82 113.82 115.31 114.9 115.69 114.2 109.18 108.36 108.43 108.18 108.33 113.31 117.81 116.35 115.87 115.21 114.48 114.71 114.85 114.06 114.86 113.19 112.94 112.99 111.68 111.63 113.15 113.15 110.67 108.27 108.39 109.38 113.32 110.92 109.45 113.72 114.97 114.16 115.99 115.62 114.56 109.81 109.57 109.62 111.91 113.12 111.9 115.08 116.29 118.19 116.53 117.42 118.25 119.08 114.49 114.52 116.39 115.1 116.19 116.78 115.26 114.74 117.21 114.74 112.75 111.67 112 112.88 113.2 114.01 114.22 114.6 115.69 116.04 114.43 114.51 112.75 112.12 112.74 113.65 117.58 117.18 117.44 118.38 117.71 116.96 117.53 121.75 117.93 116.04 114.62 113.41 114.27 114.76 115.64 115.15 115.74 117.5 119.61 118.05 114.3 114.77 116.64 115.06 113.07 113.82 116.54 116.27 117.15 121.96 119.54 117.15 117.08 116.95 116.92 116.72 116.63 116.78 116.37 9999 9999 9999 118.19 121.18 122.72 119 121.52 122.01 121.95 118.93 118.69 119.89 124.8 123.06 125.28 127.54 128.14 123.84 123.75 125.93 129.43 135.85 135.6 136.76 137.63 136.55 138.94 140.05 144.37 143.73 145.52 148.79 152.37 157.64 159.31 160.53 160.19 154.26 153.95 154.67 153.97 153.87 153.26 154.62 154.17 155.23 156.75 156.83 156.54 153.66 155.73 161.24 165.62 173.26 177.22 179.23 178.57 178.06 180.96 184.97 188.51 192.48 195.04 194.87 192.79 190.91 189.2 186.7 190.21 189.69 189.03 189.26 190.41 186.9 187.89 187.08 185.5 185.72 184.59 182.9 179.34 181.02 183.85 181.79 179.15 178.65 178.45 177.16 176.98 176.35 175.1 175.14 174.21 171.86 169.57 169.03 167.95 164.29 165.2 160.44 157.39
116.4 114.06 114.41 115.67 115.01 115.14 115.93 116.32 114.81 112.14 109.53 109.97 113.31 116.84 117.89 116.92 115.63 114.85 111.88 111.52 111.61 112.52 111.96 113.35 112.89 111.68 114.46 112.97 112.25 116.71 114.53 112.76 112.61 112.41 111.07 111.55 116.81 117.75 114.16 110.58 109.8 109.57 9999 109.49 109.69 113.79 114.45 113.87 113.11 114.56 115.84 116.53 118.57 118.14 118.76 116.85 114.42 113.01 114.36 112.73 113.23 114.06 115.06 116.78 117.37 113.73 111.3 111.56 114.06 115.56 113.95 114.26 114.59 114.58 114.42 114.97 113.52 112.75 111.22 111.7 112.3 115.51 115.92 116.19 116.32 117.17 117.65 118.72 118.68 116.12 116.04 112.96 112.03 112.98 115.79 114.47 114.56 115.33 115.94 115.74 117.13 118.57 117.08 116.98 113.27 113.53 117.26 119.08 116.28 117.4 118.13 119.09 117.91 121.64 121.75 119.42 116.59 116.08 116.63 116.41 9999 9999 116.87 122.65 121.99 121.33 120.67 121.69 122.07 118.35 118.17 118.7 119.38 123.29 120.99 124.02 126.26 128.18 127.54 123.3 122.85 124.47 129.09 130.11 134.8 134.64 133.33 133.81 140.05 138.29 137.74 140.28 143.16 147.15 150.29 154.33 154.99 156.82 158.62 153.07 152.57 152.86 151.02 150.28 151.92 152.05 152.78 154.12 152.84 150.6 152.71 160.22 167.9 173.43 176.41 177.22 179.18 175.68 174.56 179.96 183.51 187.19 191.36 192.69 193.95 193.8 192.26 192.29 190.04 193.7 196.01 193.87 193.18 192.84 192.7 191.94 190.99 190.52 189.48 186.95 184.04 182.48 183.16 187.2 182.34 181.45 180.73 180.89 179.56 176.81 176.19 175.87 175.2 174.13 172.63 170.67 169.03 169.81 169 165.65 162.29 158.89
114.97 115.88 113.05 113.83 115.5 115.81 114.75 115.78 115.73 114.11 113.21 114.68 116.13 117.12 116.32 115.53 115.65 112.61 109.98 113.01 113.15 112.04 112.43 113.28 113.92 113.93 113.56 112.42 111.46 111.16 111.53 112.69 114.08 116.53 117.85 116.24 115.79 116.12 111.7 110.61 9999 9999 109.89 113.09 114.72 116.69 115.04 115.76 114.59 114.48 115.79 116.69 116.18 115.9 117.39 119.22 114.34 113.14 115.22 109.41 108.97 109.05 110.36 114.24 116.17 114.81 113.15 112.26 111.94 112.71 113.58 113 112.76 112.13 112.72 113.26 112.96 111.63 110.66 110.65 111.04 113.37 116.75 116.01 115.77 115.91 117.42 117.06 115.71 114.86 114.02 111.9 111.87 113.53 117.22 117.42 115.11 114.91 118.38 118.2 116.31 117.76 118.47 116.21 113.27 113.94 116.71 118.9 118.56 119.3 119.87 121.23 119.05 118.86 119.82 122.84 120.22 116.72 116.97 116.34 9999 9999 119.99 122.79 121.5 121.27 119.64 119.77 121.73 120.3 118.63 120.79 122.93 122.88 120.02 124.02 122.03 125.62 127.73 123.75 122.89 122.96 123.2 125.96 129.19 130.38 131.4 133.84 136.78 133.46 135.73 138.49 140.42 143.35 147.2 151.79 153.56 158.14 162.39 161.4 156.35 151.62 151.02 147.92 147.26 147.86 149.43 148.74 147.25 148.61 157.24 164.64 172 177.3 179.24 177.24 176.16 172.7 172.88 176.06 179.94 185.48 187.59 189.34 191.05 191.41 192.73 193.96 192.95 193.7 196.37 195.83 194.74 193.13 192.86 193.02 191.61 191.36 190.36 187.8 185.79 184.19 186.84 187.2 182.61 181.91 181.68 180.62 178.55 176.23 176 175.72 174.15 174.03 173.52 172.29 171.41 170.24 171.39 168.9 166.89 162.19
114.97 113.79 113.84 111.07 113.12 112.55 112.58 114.31 114.36 115.23 111.99 112.69 116.36 117.12 116.58 116.31 117.08 111.04 109.71 110.76 113.61 113.34 113.89 115.64 115.88 115.55 113.56 110.06 113.61 115.19 116.86 113.3 113.98 116.18 116.13 111.1 116.92 113.05 117.06 118.92 9999 9999 9999 114.13 111.31 111.98 112.28 115.35 115.45 114.48 114.41 115.27 114.28 113.37 117.58 119.8 114.79 114.18 114.48 110.03 109.09 9999 9999 110.65 116.57 114.81 113.51 113.73 114.11 114.45 115.19 112.64 110.86 110.99 113.37 112.98 110.77 110.8 110.66 9999 109.96 111.03 114.19 118.15 120.32 117 116.55 117.06 113.72 114.24 113.16 111.9 111.93 114.09 114.9 116.57 116.01 115.53 116.44 116.61 115.04 115.52 117.81 115.92 115.73 117.95 113.67 115.76 123.88 119.3 119.89 120.84 120.84 118.93 118.72 123.4 124.3 120.88 116.91 116.08 9999 116.78 119.99 118.93 118.8 119.83 120.06 120.42 118.62 122.62 121.14 121.48 122.06 123.1 122.32 123.22 120.61 122.97 125.42 126.59 124.95 122.97 122.74 122.91 123.52 127.25 130.4 132.38 133.24 133.46 133.05 135.02 135.56 137.11 143.55 148.92 150.23 156.55 160.68 162.26 160.08 158.37 150.22 149.48 147.63 145.96 145.92 145.16 146.23 154.52 161.65 167.63 173.23 176.1 178.41 177.17 178.92 171.18 171.43 175.26 179.5 182.01 183.21 182.12 183.62 184.5 189.3 192.91 193.53 195.97 196.15 197.28 196.18 193.61 192.48 192.72 191.77 190.61 189.76 188.16 187.44 186.41 185 183.35 181.88 181.02 180.38 180.35 181.03 176.81 175.7 175.49 175.23 174.56 175.11 173.84 170.63 170.24 169.05 168.3 167.37 165
112.03 109.18 111.64 110.23 110.22 110.99 110.72 111.05 112.35 112.77 111.41 112.05 113.39 116.29 114.81 114.97 117.09 114.08 111.54 111.33 112.64 112 114.35 112.37 110.15 109.37 109.22 109.45 111.18 113.53 115.92 117.76 114.86 112.19 112.23 110.68 112.84 113.9 118.61 118.92 118.87 9999 9999 115.62 112.79 113.36 114.9 113.96 113.82 116.9 115.7 114.91 115.54 116.54 116.79 117.22 115.49 115.47 114.37 109.96 9999 110.15 109.28 109.07 117.3 116 114.53 113.84 112.7 112.03 113.4 113.17 112.65 110.86 112.26 110.63 110.52 110.67 9999 9999 9999 110.91 112.26 114.56 114.82 115.69 115.42 116.38 115.13 114.65 113.13 111.98 111.88 111.88 115 115.41 115.63 114.74 115.39 117.98 117.96 113.7 114.44 115 117.97 114.12 116.13 118.33 122.31 119.41 115.43 115.18 115.37 115.52 115.44 115.57 121.1 122.67 117.79 116.47 116.92 121.12 123.02 118.35 119.49 119.28 119.59 120.81 119.91 120.2 118.8 120.59 117.84 119.49 120.83 122.98 120.61 123.17 124.53 125.95 126.68 124.1 122.87 123.14 122.95 124.54 127.52 128.69 131.06 130.45 130.94 131.73 134.3 134.82 138.28 143.14 145.71 150.55 155.03 156.63 157.13 160.63 158.64 149.48 148.36 147.68 144.18 144.93 149.04 157.17 162.93 169.41 172.81 172.33 173.25 174.01 174.69 167.84 168.59 172.84 174.66 176.07 176.54 176.24 177.57 179.94 182.86 188.15 191.49 194.46 196.15 196.17 195.01 192.75 189.47 189.02 188.83 188.84 189.28 188.99 187.5 186.39 185.62 183.45 181.88 178.84 178.97 178.6 180.61 177.73 174.6 174.97 173.35 172.59 172.97 173.4 169.92 170.19 165.23 162.61 161.94 161.98
110.05 109.18 109.1 111.95 109.76 110.67 112.53 108.34 107.93 112.22 112.51 112.05 113.63 114.13 114.81 115.82 114.7 113.7 113 110.9 110.01 110.26 110.82 114.44 114.16 115.79 114.82 111.56 109.44 110.64 110.65 112.66 114.95 111.07 113.04 112.64 114.02 115.27 116.06 118.09 117.74 117.95 112.57 113.69 115.19 115.06 113.09 111.18 110.71 114.79 117.44 115.54 116.64 116.51 117.46 114.87 114.94 114.21 113.9 113.04 111.51 117.04 114.6 112.05 111.58 116.58 114.64 113.27 108.75 108.64 108.89 112.6 114.33 111.53 111.77 110.49 110.77 9999 9999 9999 9999 111.65 114.53 114.79 115.55 116.91 114.95 116.24 117.61 118.36 114.57 111.41 111.88 112.19 111.67 111.75 114.47 114.07 113.76 116.16 120.25 118.58 113.58 113.57 114.76 114.12 115.93 114.44 118.58 117.17 118.59 117.33 117.39 117.91 116.63 115.63 115.65 119.18 123.48 122.92 122.38 122.47 119.39 118.35 117.22 120.3 120.81 120.79 120.56 119.71 121.34 121.36 116.53 115.58 115.53 118.58 121.18 119.64 122.06 125.02 126.22 126.28 125.33 125.93 127.32 124.72 126.05 130.31 127.98 128.59 130.94 128.89 131.38 133.48 135.66 138.09 142.04 145.73 147.26 150.82 156.8 161.59 159.52 154.99 149.36 146.29 142.16 142.77 151.24 157.37 161.6 166.02 168.4 167.22 167.85 169.61 170.68 167.84 165.48 166.6 170.98 170.47 173.42 172.56 174.14 174.01 178.44 182.42 186.88 191.71 194.96 197.67 198.87 198.67 194.94 190.42 183.94 185.97 186.52 184.95 185.25 183.8 182.18 181.25 179.04 175.43 174.89 175.45 176.09 174.74 174.88 173.51 172.75 169.88 170.52 169.28 169.9 168.55 165.23 162.26 160.9 161.79
107.08 9999 108.67 110.23 110.64 110 111.69 110.97 107.37 110.2 111.03 111.14 114.53 113.43 114.48 113.85 113.01 111.91 112.19 113.29 110.91 110.22 109.59 109.27 112.31 116.36 118.34 111.56 116.45 113.05 111.18 111.88 114.72 110.42 108.84 110.53 117.34 117.25 117.54 117.1 117.74 116.1 114.62 116.88 118.31 114 111.04 111.06 111.24 114.81 115.9 115.94 117.32 116.51 117.19 118.32 115.57 113.75 114.58 115.87 114.67 116.24 116.26 112.73 111.43 112.3 114.64 113 108.62 109.09 108.77 108.87 112.9 114.37 115.81 113.77 110.85 110.38 110.18 110.35 113.23 114.34 114.07 115.8 115.57 115.03 115.93 115.38 115.78 114.89 112.49 111.26 9999 111.6 111.38 112.34 116.02 115.49 112.13 113.04 117.72 118.54 116.05 118.37 118.35 119.27 119.63 116.81 113.82 122.83 118.59 120.12 121.7 120.56 120.36 119.08 116.67 115.81 116.44 124.13 120.92 120.74 119.07 116.32 119.41 120.73 120.28 119.74 119.98 121.24 120.17 116.06 115.33 115.17 115.67 115.44 116.43 119.64 122.04 124.58 126.61 126.31 126.62 127.47 127.75 131.3 130.96 129.84 127.3 126.4 128.18 125.8 127.22 130.47 132.16 133.67 135.97 139.37 142.49 146.87 154.08 158.3 156.6 151.03 149.71 144.51 140.54 140.7 148.57 155.94 161.31 163.5 160.77 162.95 164.67 165.94 165.81 164.17 162.81 163.61 165.47 166.07 168.61 170.06 171.62 172.05 174.04 175.95 181.47 187.65 194.66 197.67 200.09 198.51 196.59 191.69 186.98 183.04 185.34 184.54 184.13 182.25 179.61 177.98 175.85 171.97 172.87 174.06 174.24 174.63 173.77 173.74 170.09 169.94 170.58 170.53 167.87 163.27 162.36 166.71 163.61 164.67
9999 106.38 108.67 108.69 108.53 108.22 107.61 108.03 107.76 107.43 111.32 111.76 112.51 116.13 114.53 112.76 111.19 109.69 111.09 113.57 114.28 114.27 111.2 111.55 112.47 113.28 115.2 118.65 116.56 115.39 117.17 116.38 118.51 115.88 108.69 108.37 112.68 118.58 119.89 116.17 114.55 114.41 115.76 115.32 115.26 115.74 113.9 115.39 116.57 115.42 116.18 116.21 114.84 114.73 116.09 116.18 115.33 107.89 107.84 108.03 109.38 114.22 117.26 117.31 115.77 117.33 118.78 112.79 108.52 9999 9999 108.95 113.87 113.1 113.66 115.25 115.79 112.21 111.18 110.94 110.64 113.66 115.2 115.48 114.5 117.48 121.42 118.26 116.3 116.1 114.6 113.38 112.58 111.6 111.55 114.4 113.7 116.53 114.22 111.64 111.56 111.87 114.33 119.58 117.42 117.87 119.63 118.44 115.39 115.08 117.5 115.29 118.98 120.66 119.85 115.24 116.45 118.53 117.21 120.86 125.07 125.95 123.72 120.06 119.41 124.22 119.95 115.33 9999 115.42 9999 9999 9999 115.24 117.96 119.86 118.44 121.24 121.99 122.02 123.68 125.03 125.5 119.89 121.19 128.24 131.73 130.41 127.39 123.6 129.88 128.37 126.26 128.35 130.46 130.9 131.54 134.03 137.56 142.55 148.45 151.06 150.37 146.84 145.21 142.3 139.68 138.74 145.43 153.82 158 159.64 156.1 159.21 161.1 162.31 162.13 161.57 162.81 162.7 163.66 163.66 162.24 166.19 165.61 165.15 169.75 177.82 184.38 188.44 196.45 201.12 194.77 193.75 191.03 187.95 185.02 181.45 181.56 180.38 180.72 179.15 175.79 172.27 171.58 171.97 172.16 171.58 172.38 174.32 170.62 169.4 172.06 169.15 168.76 167.07 167.28 167.4 168.2 166.71 166.06 167.66
107.66 106.36 109.13 109.59 109.87 110.85 109.1 108.89 110.04 107.8 107.6 111.76 110.97 112.6 114.4 112.76 112.26 110.81 110.8 113.92 115.32 114.09 111.72 111.91 114.09 114.69 114.16 114.71 116.56 113.04 114.89 117.17 115.85 110.65 109 111.1 115.64 117.66 117.17 116.79 114.51 114.41 114.5 116.2 114.58 114.17 115.01 114.4 113.83 113.75 114.71 115.27 116.11 115.78 116.09 116.55 109.84 107.55 9999 9999 9999 108.9 114.26 115.5 117.56 116.61 117.98 112.79 109.17 9999 108.62 110.48 113.73 111.87 113.22 113.62 115.45 114.02 114.9 110.65 9999 111.93 112.76 114.44 114.19 119.54 124.28 123.98 117.84 116.27 115.49 115.86 115.46 111.44 113.19 112.32 111.77 116.37 119.1 115.13 112.02 112.45 115.96 117.39 117.48 117.16 120.04 117.35 112.71 116.15 117.89 115.29 116.52 118.29 119.35 117.16 114.79 118.29 122.58 123.58 118.46 120.55 124.54 123.47 122.25 122.71 123.77 119.89 115.73 9999 9999 9999 9999 9999 120.51 123.26 124.6 123.19 119.7 120.66 122.73 125.09 125.25 119.84 122.24 127.87 126.27 128.12 123.27 123.42 125.12 129.79 125.24 128.52 130.52 130.77 130.11 131.77 133.27 136.06 139.69 142.12 142.88 141.43 140.55 139.15 137.97 138.06 139.35 146.79 151.45 151.14 153.33 155.91 159.48 160.71 159.73 158 159.88 158.99 162 160.79 159.13 160.14 163.87 165.67 169.92 178.38 183.12 185.89 191.17 194.29 194.77 189.02 184.91 183.09 181 179.18 182 177.25 177.87 176.73 175.18 172.29 173.65 173.31 174.83 170.52 173.54 174.82 170.08 171.66 175.13 173.59 172.89 172.06 170.35 169.88 170.91 168.62 169.01 169.86
111.38 108.83 109.19 109.59 110.2 110.24 111.22 110.2 110.53 111.97 111.94 111.65 109.09 112.23 112.85 112.29 114.67 112.99 111.87 111.77 109.51 108.24 108.14 107.96 109.59 112.42 110.37 9999 111.54 115.52 117.47 119.14 119.19 111 109.04 113.99 118.82 117.91 117.41 116.04 115.52 115.18 117.43 117.57 116.81 115.51 113 113.13 112.56 116.33 118.03 118.93 116.94 116.07 115.26 111.42 107.53 9999 9999 9999 9999 9999 110.26 116.34 118.32 118.23 118.9 116.26 113.83 108.32 108.46 111.27 114.66 113.44 110.87 111.6 114.47 115.94 115.61 111.6 9999 112.4 114.4 114.85 113.92 116.9 124.24 125.86 119.45 118.31 119.75 116.33 116.53 113.81 113.19 113.65 111.85 112.91 113.45 115.29 119.04 117.56 119.36 116.82 113.8 117.37 118.85 117.35 113.98 118.58 119.81 117.34 120.21 118.13 115.88 118.95 116.54 120.24 118.76 121.72 121.18 116.91 116.96 121.53 121.26 122.71 121.49 117.73 119.71 117.7 115.42 9999 9999 9999 117.44 120.95 121.88 120.72 119.7 117.08 117.15 118.86 123.02 119.44 120.02 125.42 124.71 126.28 123.5 122.55 122.26 125.61 124.13 123.04 128.29 127.85 130.8 132.26 133.61 132.65 132.43 133.61 134.88 135.26 138.42 139.15 135.71 136.73 137.33 135.94 143.49 146.63 149.16 152.18 154.72 157.22 154.94 155.29 156.1 158.99 158.86 157.87 156.63 156.43 157.55 164.2 170.96 175.22 177.96 181.68 184.63 187 188.38 183.09 182.76 181.74 181.43 180.79 179.87 179.36 178.75 178.57 177.97 177.11 176.2 176.24 174.83 173.2 176.07 177.12 172.21 173.85 174.94 173.62 172.24 171.64 169.77 170.92 172.53 170.14 169.01 170.85
112.62 108.98 112.95 110.24 110.62 111.09 112.62 114.08 111.42 112.34 116.1 113.76 111.01 109.86 110.91 110.95 114.67 115.64 112.03 112.47 108.91 108.06 9999 9999 9999 9999 9999 109.6 111.59 116.48 113.57 118.15 115.66 114.74 111.07 117.79 120.06 117.13 117.18 117.28 118.42 116.53 117.43 109.69 109.76 108.31 108.32 109.23 111.31 114.26 117.1 117.59 116.87 116.99 115.15 111.42 107.37 9999 9999 9999 9999 9999 109.51 117.73 119.9 117.21 116.27 118.01 113.83 115.29 111.01 109.91 113.44 113.43 112.87 114.01 113.32 115.67 116.94 113.72 110.43 112.4 112.5 116.06 116.16 115.1 117.92 120.17 116.24 115.75 116.8 116.47 117.9 116.76 116.08 115.87 114.12 115.04 112.24 113.67 117.73 114.06 117.65 118.09 116.79 116.27 118.71 118.09 120.32 119.07 117.54 120.39 120.21 118.38 119.73 118.87 116.87 113.9 114.78 116.84 119.61 121.36 118.85 116.16 122.09 120.69 121.11 122.03 120.6 118.8 117.14 117.35 116.23 115.62 115.46 116.89 120.87 118.12 117.28 9999 9999 9999 117.69 117.71 122.16 122.78 124.09 123.74 122.96 123.38 122.63 123.27 124.13 124.74 122.17 124.52 124.9 129.27 130.92 130.94 130.17 130.45 131.78 131.64 133.52 135.45 135.58 136.24 136.59 134.71 135.61 141.99 146.6 149 150.36 149.77 150.4 150.96 152.68 155.93 156.45 156.78 157.86 156.15 152.98 155.68 164.97 169.77 173.17 176.47 178.68 180.16 181.32 183.09 178.7 179.86 179.41 180.05 180.02 179.09 178.56 178.09 176.43 176.45 176.21 174.93 173.82 174.09 175.57 175.24 173.66 174.38 175.57 174.62 174.6 173.57 172.34 172.78 173.24 171.21 171.36 171.08
109.75 108.39 107.98 109.58 107.4 110.78 110.1 114.29 115.25 112.86 113.4 111.96 109 109.25 113.52 109.08 112.44 111.81 111.54 111.42 111.7 111.86 9999 9999 9999 9999 108.64 109.26 109.03 114.17 113.51 114.15 115.13 116.39 111.81 117.12 119.11 115.56 109.82 9999 9999 9999 9999 106.95 9999 9999 9999 9999 9999 111.29 109.26 112.65 116.19 117.31 113.92 107.94 108.66 9999 9999 107.55 9999 9999 107.29 109.13 111.89 112.67 112.09 114.64 110.9 111.6 116.23 116.05 114.89 118.49 117.39 117.78 114.51 113.89 116.13 115.76 114.98 110.7 110.04 113.13 117.42 117.97 115.9 113.93 116.23 115.99 117.27 117.26 117.03 116.16 116.54 117.12 117.55 118.94 117.27 114.82 111.66 111.63 112.07 114.21 118.03 117.02 117.17 120.66 120.74 117.96 116.16 116.64 116.68 117.71 118.37 117.92 115.16 9999 9999 9999 115.38 119.48 120.56 119.38 116.62 119.87 117.04 119.91 120.34 120.34 116.36 117.37 119.24 121.03 118.76 119.74 120.28 117.93 117.24 117.15 9999 9999 9999 116.93 118.13 118.95 120.8 118.75 118.15 118.18 118.97 120.63 124.95 126.02 126.71 123.96 123.14 124.05 127.83 129.82 129.84 130.36 130.18 129.41 131.4 133.27 135.58 134.84 134.95 133.06 135.2 137.02 141.47 143.86 145.87 144.84 147.04 148.46 150.15 153.07 154.61 157.23 155.55 156.58 152.94 157.12 157.41 160.87 169.19 170.71 173.72 172.37 173.26 176.93 175.23 175.33 175.75 176.07 176.2 175.65 175.63 176.29 176.24 175.21 175.08 174.92 174.47 174.09 176.5 176.38 176.35 175.71 176.8 176.21 175.42 175.05 174.4 172.75 172.83 171.91 172.34 171.08
114.12 109.57 107.02 107.1 107.4 107.59 110.94 111.32 117.59 113.98 111.92 110.21 108.36 108.24 109.41 110.21 111.11 111.81 111.43 110.58 111.31 112.74 114.13 113.2 113.09 116.28 111.77 111.19 113.68 114.08 113.51 112.19 112.96 110.99 110.01 112.61 114.31 108.43 9999 9999 9999 9999 9999 9999 9999 9999 9999 9999 9999 9999 112.81 109.53 109.71 115.63 117.31 116.17 108.66 107.51 9999 9999 107.72 111.58 114.57 110.47 9999 9999 109.28 111.04 108.43 111.6 111.39 115.15 117.25 118.11 116.69 115.14 117.23 116.59 112.81 113.7 116.88 113.56 110.04 110.04 112.82 116.39 118.55 115.82 111.4 113.96 117.95 117.96 117.05 114.16 113.82 117.12 116.79 115.07 117.08 117.44 117.69 116.57 119.27 116.07 112.99 118.81 117.93 119.01 118.74 116.61 117.96 115.65 116.88 117.71 116.53 116.18 112.21 9999 9999 117.47 119.46 120.18 121.33 120.36 120.46 118.21 115.37 115.3 120.76 122.6 121.52 117.99 116.39 121.26 121.63 121.94 121.69 120.72 120.59 119.83 123.11 121.5 117.32 117.32 117.36 116.7 9999 116.72 118.14 121.37 121.26 118.13 121.51 126.02 127.06 127.07 124.89 126.5 129.1 126.87 126.28 128.69 130.66 131.66 130.85 131.71 132.5 133.58 134.22 131.11 131.03 133.58 134.45 138.96 140.3 143.15 147.26 148.65 149.46 152.75 154.61 154.03 151.25 153.12 153.57 156.69 158.51 160.13 164.37 167.39 167.34 166.01 169.42 173.27 175.23 171.67 173.66 173.77 172.75 171.94 172.22 173.34 173.82 174.25 174.37 174.11 175.14 175.53 176.8 176.24 176 176.18 176.52 176.42 175.2 174.9 174.84 173.17 172.67 172.79 173.32 171.44
112.92 114.57 109.91 107.52 107.08 107.58 109.03 111.14 115.31 117.73 111.88 109.42 9999 9999 9999 9999 111.53 111.09 111.92 111.56 112.28 112.39 113.17 114.29 113.95 114.49 114.09 111.85 109.51 108.53 111.06 109.29 107.69 107.13 107.41 107.79 108.88 105.89 9999 9999 9999 9999 9999 9999 9999 9999 9999 9999 9999 9999 114.92 113.91 110.42 107.51 109.49 108.88 9999 9999 9999 9999 9999 107.27 111.02 112.98 109.93 110.21 109.09 111.96 108.03 107.95 108.18 111.23 114.36 115.61 117.03 113.49 114.72 117.02 115.75 114.82 112.26 117.9 112.53 110.46 110.1 113.69 117.44 116.76 116.31 115.04 115.44 119.03 119.35 116.27 113.46 115.29 112.26 112.27 116 117.25 117.27 116.14 117.98 119.03 115.16 115.32 119.98 118.21 120.95 116.61 118.42 116.21 117.36 117.3 115.14 112.53 113.01 117.84 119 119.5 120.23 120 120.71 118.95 120.13 119.71 118.44 118.89 120.84 119.92 120.82 121.55 120.5 118.01 120.82 119.14 123.08 122.65 120.9 121.68 123.11 120.99 122.48 120.99 117.78 116.93 116.62 9999 118.69 122.82 123.4 119 118.71 121.02 120.91 120.81 122.21 124.05 126.78 128.68 126.07 127.94 128.77 131.24 131.14 131.75 131.57 133.58 133.82 130.96 129.53 129.7 130.69 131.86 133.8 143.02 146.41 147.52 148.39 148.14 150.91 149.71 150.37 148.63 151.42 155.51 159.49 158.39 158.77 160.66 162.71 161.73 166.63 167.76 169.91 169.63 172.19 172.19 169.64 168.62 167.84 168.97 170.9 171.9 173.71 174.15 175.49 176.38 176.8 175.83 175.02 174.62 175.15 175.18 174.15 173.29 172.83 172.58 172.2 172.36 172.93 170.15
110.45 116.17 115.9 111.93 107.18 107.58 9999 112.11 111.97 115.78 113.53 108.95 9999 9999 9999 9999 112.88 110.9 111.79 111.73 113.27 113.62 114.1 114.18 115.22 114.44 115.36 111.99 109.83 110.18 111.59 107.5 9999 9999 9999 107.1 107.32 107.45 107.43 9999 9999 9999 9999 9999 9999 9999 9999 9999 9999 111.07 115.81 112.9 107.76 107.81 9999 9999 9999 9999 9999 9999 9999 107.73 9999 9999 9999 108.24 111.95 113.35 108.61 107.79 108.18 108.05 110.84 114.74 116.11 116.97 116.18 115.65 118.69 117.26 110.87 111.09 117.39 110.46 9999 9999 112.93 114.78 115.58 116.08 114.7 115.15 115.37 116.24 116.81 116.17 117.46 114.85 113.06 113.47 115.14 117.61 118.46 116.95 116.78 114.27 112.26 117.1 120.26 118.41 116.8 115.65 113.39 115.82 115.14 118.1 116.2 117.23 117.34 117.01 119.62 115.61 117.24 118.55 119.74 116.21 116.99 118.89 119.54 118.99 117.61 120.33 121.8 121.55 121.29 117.9 118.03 122.52 122.79 120.52 121.71 119 119.04 119.9 121.38 122.02 118.02 9999 124.27 119.8 118.74 118.7 122.4 125.64 120.91 121.23 122.79 126.59 126.21 125.95 126.97 128.66 128.24 130.85 130.81 130.1 130.27 133.11 130.77 130.63 129.19 128.49 128.68 130.27 131.57 132.23 143.39 146.2 146.83 145.01 146.18 149.71 145.53 145.36 146.38 149.23 152.66 154.41 155.41 157.58 159.11 159.87 162.48 164.84 166.29 164.47 168.25 169.44 166.79 164.96 163.97 164.1 167.22 170.3 172.43 173.71 174.62 175.71 175.75 174.89 174.04 173.11 174.27 174.92 173.54 172.73 172.56 171.99 171.18 172.52 172.11 171.61
