713.27 713.19 713.04 711.93 708.99 706.88 704.7 702.87 700.97 699.42 697.64 694.85 692.89 690.62 687.73 686.68 683.81 680.22 675.63 673.92 671.2 667.63 665.91 663.96 661.47 657.37 654.47 651.38 647.13 644.23 640.82 637.63 632.51 629.19 626.58 623.64 622.21 619.84 616.7 611.99 608.08 602.96 599.28 594.47 590.61 586.84 582.65 579.98 578.08 575.45 574.8 572.92 568.39 564.42 559.75 555.18 550.44 546.94 541.89 536.73 530.11 524.54 518.41 512.76 506.29 501.95 496.18 488.99 485.2 482.22 478.47 474.63 471.54 467.62 465.14 463.02 460.3 457 455.55 455.06 453.27 451.13 450.75 450.96 450.16 447.54 446.24 444.94 445.17 443.94 443.13 443.26 441.95 441.14 440.25 439.08 438.47 438.38 437.54 437.58 436.93 436.39 435.34 435.08 434.1 433.45 432.71 433.02 432.22 431.57 431.09 430.29 430.24 429.1 430.01 9999 9999 429.21 430.04 433.33 432.82 431.27 430.89 431.56 9999 9999 9999 9999 9999 9999 428.44 429.9 9999 9999 431.53 9999 9999 433.25 431.63 430.54 431.24 431.24 431.34 431.61 431.96 9999 9999 9999 9999 432.8 433.95 431.72 428.91 430.39 433.96 431.87 432.28 433.46 432.77 429.54 432.67 432.84 432.64 432.84 432.34 432.93 9999
714.79 714.36 714.09 712.05 710.34 708.38 705.9 703.29 701 698.66 696.13 693.81 691.98 689.62 687.36 685.66 682.7 678.65 675.55 672.65 669.76 667.4 665.24 663.03 660.13 657.26 654.04 649.97 645.94 643.07 639.01 635.48 631.46 627.44 623.76 620.22 618.13 617.19 614.61 611.57 608.23 605.19 599.71 594.9 588.93 584.61 580.69 577.04 574.09 571.95 569.2 566.65 563.73 560.5 556.56 553.08 547.92 542.37 535.53 530.47 526.54 521.2 515.46 508.95 502.1 494.4 490.1 486.29 483.93 480.27 476.56 473.28 468.9 465.79 462.42 460.56 459.47 457.81 457.5 456.15 454.09 452.07 451.23 449.89 448.68 448.07 446.45 446.35 445.41 444.78 442.99 442.42 441.06 440.49 439.81 439.31 438.6 438.3 437.55 436.94 436.93 436.08 436.19 434.7 434.66 433.61 433.69 432.51 432.32 431.2 431.38 430.92 429.68 429.33 430.68 9999 9999 428.17 429.85 432.73 432.36 430.83 431.56 430.8 431.61 9999 9999 9999 9999 9999 9999 9999 9999 9999 432.25 9999 9999 433.44 432.1 431.5 430.8 431.51 431.59 432.42 433.16 431.98 433.67 434.34 9999 9999 9999 9999 430.24 429.63 429 432.69 432.8 434.28 432.17 429.64 430.56 432.41 432.2 433.1 431.07 9999 9999
716.32 715.86 714.66 713.29 711.43 708.7 706.39 704.19 700.32 698.02 695.97 693.44 690.92 688.82 686.57 684.02 681.73 678.51 675.41 672.31 669.24 667.18 663.99 662.03 658.64 656.31 652.85 648.94 645.28 641.31 639.07 635.06 631.45 626.7 622.48 618.57 614.85 612.49 610.81 610.25 607.69 604.91 600.88 594.38 588.92 584.89 579.93 575.76 571.92 569.49 565.24 562.28 559.44 554.49 550.79 547.17 543.1 537.92 532.04 526.57 520.96 515.88 509.98 505.42 496.52 492.59 488.13 485.08 481.47 477.19 474.48 470.75 466.97 464.45 464.1 461.76 460.64 459.47 456.82 455.32 453.66 452.85 451.87 450.72 449.18 447.88 446.6 445.7 444.42 443.8 443.3 442.44 440.95 439.9 439.96 439.29 438.37 437.78 437.09 436.45 435.83 435.75 434.77 434.4 434.87 434.05 433.15 432.72 431.88 431.82 432.46 430.87 429.48 430.2 430.27 9999 9999 9999 429.45 429.92 431.41 430.94 431.05 430.54 430.72 431.11 430.91 432.07 9999 9999 9999 9999 9999 430.7 432.29 431.69 9999 429.25 432.67 431.72 430.71 431.75 432.38 431.09 432.15 432 431.35 431.08 431.22 433.49 433.64 431.65 432.01 431.05 428.64 432.99 433.29 433.55 429.61 429.06 431.85 432.48 432.43 431.81 431.89 431.94 432.01
716.93 716.45 715.32 714.31 712.57 709.75 707.25 703.39 700.58 698.16 695.67 693.33 690.32 688.74 685.42 683.45 681.52 678.15 674.74 672.82 669.84 666.05 664.12 661.75 658.83 655.56 651.99 648.44 644.45 641.74 638.86 634.94 631.41 626.4 622.78 616.44 612.88 610.71 609.1 607.76 606.79 605.48 601 596.74 590.77 585.69 580.64 575.26 570.75 564.53 561.14 558.48 554.84 551.46 547.88 543.35 537.49 531.29 526.16 523.31 517.07 511.9 505.13 496.99 493.04 489.83 484.71 482.13 478.55 475.21 470.9 468.39 467.24 465.35 463.95 463.03 460.74 459.75 457.57 456.36 455.06 452.7 450.88 450.55 448.7 448.13 447.04 446.36 445.94 445.76 445.15 443.18 441.22 440.43 439.62 439.32 439.01 437.18 437.38 436.66 436.01 435.6 434.96 434.49 433.76 433.23 432.64 432.52 432.25 431.6 431.98 430.72 429.82 429.57 431.17 9999 9999 9999 9999 430.23 432.38 431.59 430.54 430.2 430.51 430.41 431.1 430.85 431.24 9999 9999 430.7 431.1 430.77 432.04 431.72 9999 9999 430.59 431.9 430.61 431.9 431.98 431.36 431.57 433.22 431.8 431.09 431.32 432.43 433.88 431.02 432.62 435.74 431.59 431.12 430.04 428.55 430.19 431.55 432.36 432.46 432.37 431.41 431.86 431.72 431.92
717.74 716.87 716.25 714.83 712.52 710.41 706.9 703.69 701.14 698.24 694.72 693.28 690.48 687.61 685.1 683.69 681.08 678.47 675.45 672.26 668.93 665.84 663.22 661.1 658.68 655.18 651.3 647.22 643.84 641.04 638.41 635.22 631.22 626.34 621.19 617.17 612.5 609.01 607.04 606.01 605.64 604 600.41 596.74 592.09 587.68 582.6 575.75 569.23 564.73 559.11 554.88 550.69 546.61 542.64 536.56 532.08 526.41 520.38 515.53 509.82 505.32 498.92 494.11 490.72 489.1 485.2 482.76 480.8 476.41 472.44 469.43 468.42 466.56 464.49 463.3 460.73 459.35 457.6 456 454.14 452.6 451.22 449.84 449.3 448.77 447.53 447.63 446.94 446.49 444.25 442.54 441.96 440.67 440.25 441.05 438.46 438.48 436.73 437.07 436.42 435.4 434.85 434.87 433.67 433.29 432.75 432.22 432.05 432.31 432.04 429.93 429.68 430.18 430.37 430.66 9999 9999 9999 9999 430.46 431.29 430.45 430.22 430.92 430.92 430.78 430.63 430.83 9999 430.06 432.31 431.18 432.01 431.2 430.88 431.89 9999 9999 429.81 432.34 431.28 431.6 431.51 431.34 432.13 431.69 431.21 431.4 432.9 431.31 433.75 9999 9999 435.53 433.21 431.92 431.99 432.43 432.22 432.3 432.51 432.22 432.03 432.08 431.95 431.53
718.5 717.58 716.62 715.14 713.68 709.44 706.86 704.23 701.34 698.32 695.39 692.5 690.17 687.47 685.3 683.66 681.1 678.39 675.69 671.32 668.29 666.58 663.96 660.34 658.3 655.47 649.95 646.49 643.91 640.97 637.88 634.86 630.82 625.44 621.03 616.63 612.79 609.1 605.67 603.27 602.09 601.24 599.06 596.79 592.79 589.08 584.41 576.94 572.05 566.01 559.73 554.53 549.57 544.87 539.58 534.12 528.37 522.39 516.56 513.7 510.18 506.53 503.26 500.53 496.4 491.05 490.75 487.81 484.83 482.23 477.7 472.93 469.39 466.28 463.94 461.75 461.23 458.79 458.17 456.57 455.01 453.67 451.33 451.17 449.68 448.48 447.1 446.46 445.84 444.61 443.67 442.33 442.91 442.15 441.11 439.26 438.99 437.91 437.27 436.48 435.73 435.45 434.88 434.48 433.92 433.79 432.6 432.42 432.13 431.23 431.01 429.74 430.1 430.51 430.72 430.86 430.86 9999 9999 9999 9999 431.31 431.16 430.51 430.37 430.47 430.89 430.12 430.93 9999 430.1 430.31 430.57 431.65 431.32 431.41 431.3 432.36 9999 9999 9999 431.73 431.21 431.4 431.56 431.17 431.93 432.26 431.67 432.11 430.27 431.85 9999 9999 430.93 432.36 432.36 431.4 432.65 432.67 432.08 432.83 432.19 432.61 9999 431.97 432.22
718.71 717.96 716.89 715.12 712.17 709.7 706.96 704.35 701.34 698.4 695.46 692.02 690.49 687.96 685.65 683.35 681.01 678.9 674.79 671.59 668.69 666.28 663.73 660.84 657.23 653.54 650.49 646.93 643.69 640.19 637.44 633.97 629.79 625.55 621.34 616.81 611.94 607.9 603.4 600.06 598.62 597.92 596.43 593.88 592.75 589.94 584.62 579.89 573.55 567.88 561.95 556.69 549.71 545.34 540.73 535.01 530.39 525.53 522.89 520.25 517.09 512.1 512.15 507.97 506.71 503.03 502.84 500.81 498.11 489.32 484.85 479.5 474.34 466.85 464.12 463.1 461.4 459.6 458.41 457.04 455.74 454.29 453.16 451.88 450.12 448.93 447.74 446.76 446.18 446.11 444.82 443.81 443 442.3 441.06 439.98 439.46 438.47 437.99 436.58 436.22 435.59 435.18 434.79 434.1 433.35 433.15 432.66 431.51 431.61 431.11 430.61 430.35 430.7 430.55 430.93 430.97 430.65 9999 9999 9999 430.2 431.44 431.01 430.58 430.21 430.6 430.89 431.79 9999 9999 430.23 430.61 430.41 432.07 430.42 431.18 431.14 431.52 9999 9999 9999 431.25 431.67 431.4 431.49 431.34 432.2 432.24 432.64 9999 9999 9999 9999 431.01 431.56 431.76 432.29 431.96 431.97 432.36 432.53 432.79 432.92 432.19 9999 432.03
718.51 717.85 716.03 713.85 712.04 709.76 706.66 704.42 701.55 697.42 695.21 692.44 689.73 687.82 685.64 683.48 680.21 678.18 674.76 671.96 668.61 666.12 663.6 659.23 656.51 653.16 649.64 647.07 643.83 640.31 636.09 632.22 629.14 625.31 621.13 616.66 612.18 606.48 601.51 597.82 595.25 594.84 594.76 592.9 591.42 589 586.17 582.77 576.82 569.12 562.82 555.81 552.8 549.05 545.94 541.37 536.69 531.72 527.53 527.21 523.4 523.24 521.34 517.83 512.45 509.29 506.5 506.87 503.65 500.84 496.9 489.97 477.15 470.35 465.4 463.14 461.05 460.65 458.81 457.15 455.94 454.84 453.71 452.12 450.55 449.66 450.13 448.17 447.86 447.5 446.79 445.32 444.73 442.53 441.21 441.14 440.26 439.07 438.28 437.55 436.81 435.63 435.05 434.51 434.08 433.42 432.87 432.52 431.63 431.33 430.92 430.5 430.32 430.37 430.2 430.67 430.38 431 430.37 9999 9999 9999 430.01 432.45 430.71 431.06 430.84 430.34 431.12 9999 9999 9999 430.48 430.56 432.49 431.34 431.08 431.01 431.59 431.64 9999 9999 9999 430.7 431.25 431.33 431.46 431.45 430.82 431.43 432.64 9999 9999 431.31 431.06 431.25 431.75 431.59 431.22 431.97 431.9 432.39 432.91 432.93 432.88 432.66 9999
717.89 716.94 715.19 713.51 711.02 708.9 706.78 703.74 700.38 697.47 695.16 693.45 689.27 687.74 686.29 683.21 680.74 678.41 675.15 671.82 669.43 666.19 662.44 659.79 657 653.56 650.12 647.33 643.48 639.36 635.73 632.16 628.5 624.8 620.41 615.63 610.11 605.88 601.82 597.41 594.95 593.35 592.69 590.93 589.47 589.05 586.45 583.51 578.77 571.42 563.44 559.74 555.28 554.44 550.68 547.77 544.1 538.58 534.42 533.91 529.97 527.28 524.89 523.24 517.19 514.93 512.84 509.32 507.77 505.42 501.02 492.79 484.43 474.96 468.11 464.02 462.19 460.99 459.2 457.63 457.11 455.75 453.76 452.2 451.91 451.43 450.16 450.41 448.91 448.3 447.33 446.22 444.49 443.56 443.16 442.55 440.86 439.36 439.32 437.25 436.93 436.28 436.11 434.86 433.72 433.84 433.48 432.48 431.84 431.96 431.16 430.31 430.33 430.4 430.19 429.86 429.54 430.17 429.96 430.19 9999 9999 9999 429.39 431.06 432.04 434.33 433.35 431.49 9999 9999 9999 9999 430.04 431.18 430.99 432.45 430.88 430.82 431.16 431.68 9999 9999 9999 430.98 431.23 430.85 431.56 430.96 431.65 431.42 430.3 431.87 431.46 431.75 431.23 431.86 431.93 431.29 431.4 432.31 432.56 432.56 433.1 433.18 433.05 433.04
716.65 715.73 714.61 712.38 710.09 707.84 705.18 702.26 699.25 697.15 694.86 692.75 690.57 688.62 685.29 683.64 680.86 678.29 675.61 672.84 669.26 665.15 661.83 660.23 657.11 653.46 650.42 646.75 642.07 638.26 635.41 631.7 627.63 623.72 619.61 614.01 609.32 604.85 601.61 597.96 594.18 592.51 590.53 587.95 586.87 585.32 584.01 581.32 578.82 569.27 564.52 560.94 559.37 557.43 555.62 552.02 547.19 543.71 538.57 535.9 534.42 532.32 528.84 524.24 519.57 516.53 516.78 515.15 512.77 509.2 501.43 494.83 487.3 477.89 468.03 465.18 463.26 462.95 460.72 458.08 458.33 456.77 456 454.16 454.94 453.7 451.85 451.57 451.04 449.27 449.05 447.95 447.05 444.41 444.48 442.47 440.88 440.18 439.32 438.62 437.44 436.48 436.39 435.25 434.43 433.6 433.19 432.46 432.26 431.83 430.4 430.96 430.33 430.55 430.65 429.93 429.97 429.86 429.34 429.27 430.51 9999 9999 9999 9999 9999 9999 429.04 431.12 431.98 431.92 430.33 430.25 430.27 430.97 430.61 430.36 430.38 430.76 431.52 431.54 430.99 9999 9999 430.22 430.9 430.85 430.95 430.8 432.09 431.77 431.69 431.06 430.57 431.09 431.56 431.76 431.35 431.52 431.76 432.66 432.9 432.41 432.95 432.69 433.39 433.47
715.7 714.14 712.86 710.84 707.94 706.2 703.46 700.8 698.47 696.22 694.37 692.44 690.92 688.32 685.56 683.13 680.74 678.12 675.86 672.42 668.24 664.83 662.44 659.61 657.3 654.16 649.74 645.49 642.04 638.14 634.62 630.11 627.24 622.54 616.89 613.12 608.48 604.91 601.32 597.08 593.62 589.14 586.24 585.23 583.17 581.08 581.28 579.24 574.87 570.79 567.24 562.9 560.35 558.49 556.69 552.37 550.07 546.43 542.86 541.7 535.74 532.67 528.54 525.79 523.61 520.56 518.8 517.6 513.46 509.95 504.03 496.94 490.76 481.46 469.57 466.07 464.58 463.31 461.31 460.35 460.6 457.65 456.51 456.37 456.11 454.89 453.26 452.39 451.51 450.58 449.61 448.22 447.14 446.67 445.36 443.62 441.76 440.93 440.2 439.06 438.29 437.38 436.1 435.51 434.61 433.98 433.81 433.09 432.83 431.53 430.93 430.94 430.77 430.46 430.41 430.69 430.02 430.2 430.31 429.69 429.87 429.94 9999 9999 9999 9999 9999 9999 9999 9999 430.54 433.25 432.41 432.93 431.98 433.39 433.04 431.14 431.19 9999 9999 429.18 9999 9999 430.4 429.83 429.78 431.28 431.27 431.29 432.33 432.08 431.89 431.71 431.44 431.09 431.86 431.85 431.81 431.75 431.9 432.91 433.15 432.66 432.91 432.99 433.49
713.71 713.02 711.3 709.19 706.65 703.65 702.24 699.68 698.32 696.36 694.38 692.79 690.38 687.6 685.7 683.32 680.76 678.33 675.73 671.27 668.63 665.19 662.25 659.84 656.77 653.85 649.2 644.78 641.19 636.85 633.15 630.35 626.22 620.07 616.36 612.53 608.06 605.16 600.58 595.55 590.99 588.03 585.02 582.84 580.27 578.6 577.61 575.23 572.15 569.81 567.36 564.23 560.68 556.9 555.54 551.69 549.24 548.22 546.86 543.75 537.58 533.83 528.75 528.08 526.18 524.68 522.17 518.61 515.1 510.41 503.97 497.5 489.9 479.86 469.35 467.49 465.98 464.09 462.94 461.53 461.63 460.19 458.09 458.17 456.6 456.65 455.16 454.19 452.79 451.67 451.51 450.71 448.6 447.95 446.2 444.07 443.26 442.74 442.03 439.52 438.33 437.64 436.81 436.33 435.33 434.67 433.67 433.17 431.69 431.2 431.19 430.43 430.45 430.55 430.34 430.62 430.46 431.02 430.79 431.38 431.55 9999 9999 429.84 432.25 431.21 430.69 431.54 9999 9999 9999 9999 9999 9999 430.06 429.9 428.97 431.3 9999 9999 9999 9999 9999 9999 429.17 9999 428.64 431.07 431.4 431.09 432.11 431.53 430.77 432.11 431.77 431.22 432.22 431.84 431.24 432.7 432.3 432.83 432.8 432.35 433.54 432.72 433.1
712.09 710.95 708.69 708 704.94 702.68 700.6 698.17 696.55 695.25 693.78 692.01 689.89 688.5 685.51 683.8 680.74 677.56 674.36 671.13 668.15 665.96 662.85 659.8 655.76 652.55 649.64 644.56 640.64 636.52 633.5 628.65 624.98 620.36 615.64 611.75 608.17 604.45 599.03 595.44 592.05 589.51 586.03 583.49 581.37 577.06 574.44 572.31 571.04 568.16 565.96 563.54 558.86 556.02 553.67 552.97 551.73 549.49 548.67 543.23 540 534.3 531.68 530.11 529.04 525.43 522.54 519.54 515.6 511.11 505.7 499.58 491.02 476.36 470.76 469.77 468.64 466.91 464.94 464.03 462.48 461.47 461.04 460.02 458.74 457.92 456.55 455.82 455.37 453.93 452.3 451.64 450.24 448.18 446.73 445.25 444.4 443.49 442.45 441.18 440.52 439.11 438.1 436.91 436.2 434.87 434.32 433.65 432.4 432.51 431.14 430.95 430.81 430.29 432.35 431.89 431.47 432.24 431.96 431.17 429.01 9999 430.5 430.49 429.9 430.22 430.26 430.53 431.05 431.08 9999 9999 9999 9999 9999 9999 9999 9999 9999 9999 9999 9999 9999 9999 429.62 429.44 431.11 431.07 430.45 431.81 430.93 431.71 431.69 432.02 431.43 431.93 431.83 431.87 431.4 431.63 431.82 432.58 432.23 433.34 433.33 432.9 432.94
711.13 709.63 707.18 705.35 703.45 700.66 698.91 697.66 696.18 694.23 693.07 691.15 688.95 687.38 685.47 683.6 679.37 676.67 674.39 671.09 668.36 665.1 662.52 659.12 656.42 652.45 649.12 644.46 640.42 637.04 632.71 629.14 624.98 620.44 616.46 612.28 608.29 603.33 599.67 595.76 592.62 589.99 588.06 584.47 579.96 576.65 574.19 571.77 569.94 567.04 564.51 561.18 558.91 556.17 555.05 553.96 554.1 551.09 547.14 543.88 539.84 536.23 535.07 532.79 529.51 526.62 524.02 520.85 516.61 512.6 506.65 500.95 485.57 475.85 473 473.32 470.59 468.81 466.99 464.95 464.33 463.57 463.37 461.09 459.94 458.54 458.41 457.43 454.95 455.36 454.05 452.71 450.85 450.49 448.21 447.26 446.22 445.59 443.3 442.62 440.95 440.24 439.08 438.13 436.9 435.79 435.08 433.6 432.69 431.89 431.16 430.93 430.35 430.55 431.79 431.12 431.52 431.95 431.64 430.8 429.51 9999 9999 431.07 430.6 430.78 430.36 431.02 431.05 430.77 430.64 431.12 430.75 430.26 430.67 430.82 430.24 9999 9999 9999 430.56 430.17 430.49 432.13 9999 430.11 430.3 430.76 430.76 431.57 431.25 431.12 431.81 431.82 432.32 431.64 431.91 432.05 431.4 432.02 431.85 432.03 433.04 432.28 433 432.95 433.04
708.87 707.64 706.14 704.32 702.07 699.87 698.11 696.53 694.66 692.89 692.65 690.82 689.21 687.5 685.43 682.3 680.1 676.23 674.18 670.84 668.28 665.76 660.93 658.92 656.23 652.77 648.79 644.73 640.88 635.72 632.76 629.61 624.5 621.07 616.72 612.89 607.32 604.76 601.58 597.58 593.76 590.33 587.03 583.4 579.44 575.79 572.72 570.19 568.64 567.31 563.47 561.38 558.87 555.85 554.69 555.09 552.82 549.01 547.58 545.59 541.7 540.54 539.1 536.6 530.1 526.59 522.51 519.9 516.69 511.25 505.46 494.86 482.87 476.2 473.95 474.52 473.75 471.46 468.92 466.46 465.88 465.01 464.7 463.21 462.48 461.3 459.66 458.5 457.08 456.94 455.6 454.6 453.2 451.67 450.19 449.32 447.1 446.59 445.02 444.04 442.8 441.32 440.27 438.54 437.91 436.5 435.11 434.17 433.26 431.87 431.59 430.99 430.64 430.84 431.13 431.73 431.71 431.49 431.38 429.44 429.31 9999 9999 427.9 430.76 431.28 431.41 430.45 430.72 430.37 430.52 431.05 430.39 430.49 430.41 430.38 430.76 430.1 430.37 431.08 429.93 430.42 430.28 431.01 430.57 429.68 429.38 430.28 430.9 430.65 430.73 430.91 431.52 431.76 431.62 432.14 432.42 432.23 431.96 432.46 432 432.01 432.76 432.9 433.12 432.9 433.22
707.01 705.45 704.93 702.56 700.86 698.48 697.57 695.44 694.23 692.89 690.82 689.97 688.28 687.18 684.25 681.79 679.74 676.41 673.56 670.47 668.1 664.82 661.21 658.47 655.79 653.09 649.01 645.47 640.16 636.51 632.39 629.93 625.59 621.77 618.77 613.16 608.63 605.09 602.38 598.95 595.22 591.08 585.92 583.11 580.02 575.42 571.9 569.51 567.75 566.14 562.33 559.13 557.24 555.21 554.33 554.08 550.56 549.27 547.51 546.33 543.33 541.7 540.57 533.68 528.39 521.21 518.61 514.49 511.46 505.6 497.16 488.75 481.36 478.22 478.13 477.15 473.86 472.07 471.27 470.24 469.26 468.7 465.39 464.14 462.95 462.71 462.04 461.63 459.81 458.7 456.11 455.8 454.47 453.31 452.89 452.55 449.76 447.29 446.94 444.65 444.21 443.02 441.94 440.69 439.1 437.89 435.66 434.55 433.2 432.35 431.84 430.51 430.63 430.4 431.17 431.59 431.3 431.94 430.98 431.14 430.71 9999 9999 9999 9999 430.42 431.77 430.43 430.77 430.84 430.68 430.8 430.91 430.74 430.16 430.94 429.82 430.59 430.82 430.81 430.55 429.62 431.38 430.84 430.23 430.07 430.16 428.7 429.33 431.14 430.63 431.46 430.6 431.66 431.32 432.74 432.54 432.35 432.33 431.89 432.05 432.39 432.62 433.22 433.59 432.87 433.61
705.86 704.85 704 701.52 699.3 697.39 695.66 693.89 692.7 691.84 691.02 689.12 687.59 685.13 683.62 681.79 679.56 676.75 674.09 671.32 667.19 663.99 661.17 658.69 655.14 652.49 648.95 644.83 641.15 637.44 634.06 630.24 627.21 622.86 617.98 613.92 610.41 606.88 603.9 599.97 596.14 590.1 587.38 584.48 580.73 575.66 571.78 567.62 566.27 564.89 561.79 558.81 555.28 555.18 555.48 553.7 551.55 550.67 549.69 546.7 542.99 539.12 537.64 531.99 527.36 524.44 524.63 519.98 508.5 498.14 494.37 489.24 483.2 482.02 481.86 480.38 477.22 474.53 474.05 472.44 471.3 470.19 468.48 467.07 466.71 464.17 463.35 462.24 461.34 459.67 458.29 458.09 457.15 456 454.1 452.47 451.68 449.41 448.55 447.22 445.93 444.72 443.19 441.59 439.37 437.87 436.92 435.73 433.31 432.73 431.53 431.21 431.03 430.87 431.19 431.83 431.52 431.52 431.12 430.83 431.64 428.45 9999 9999 9999 428.37 430.62 431.15 432.7 431.34 429.95 430.52 429.76 430.56 430.56 430.49 430.92 430.72 431.08 431.05 430.28 429.7 430.53 430.54 430.7 430.55 430.09 430.56 9999 428.43 430.25 430.83 430.38 431.54 432.53 432 432.71 432.64 432.59 431.9 432.52 432.79 432.57 433.5 433.08 433.56 433.07
703.83 702.98 702.3 700.02 699.25 697.03 694.54 692.72 691.37 690.4 688.8 687.62 686.13 684.75 682.5 681.09 678.78 676.07 674.13 670.41 667.38 664.44 662.1 658.97 656.06 652.05 648.86 644.85 641.11 637.94 634.97 631.6 626.83 622.68 618.74 615.19 612.23 608.96 604.61 600.55 596.57 592.56 589.18 586.14 581.34 577.66 572.47 569.47 566.86 563.79 560.53 557.07 555.72 557.72 557.62 556.33 555.37 553.34 549.95 546.47 541.65 539.1 537.48 535.29 531.61 529.94 531.09 521.79 511.64 503.55 493.98 489.22 487.15 485.11 483.45 481.78 479.41 478.83 476.91 476.28 475.03 472.15 470.07 469.11 468.2 467.2 465.86 465.06 462.9 461.46 460.92 459.72 459.2 457.99 456.44 455.7 453.95 452.21 450.08 449.5 447.98 446.82 444.05 442.92 440.07 438.51 437.67 435.87 434.86 433.29 431.83 430.6 431.12 430.58 430.96 431.18 431.75 431.24 430.82 430.88 430.98 9999 9999 9999 429.49 9999 9999 428.71 430.6 429.89 429.78 430.32 430.46 430.07 9999 429.7 430.63 430.71 431.06 430.12 429.8 430.13 430.99 429.76 430.34 430.5 430.15 430.23 430.76 429.17 429.83 430.92 430.78 430.95 430.54 431.46 432.18 432.52 432.17 432.67 433.39 432.6 432.99 432.43 433.03 433.55 433.26
703.13 702.56 701.04 699.09 696.66 695.35 693.1 691.03 689.83 689.46 687.48 685.9 684.62 682.89 681.94 680.55 678.04 675.07 672.9 670.37 667.89 664.78 661.73 658.62 655.58 651.84 649.06 645.96 641.99 639.36 635.92 630.55 626.58 623.48 620.37 617.55 613.73 610.76 605.25 601.43 597.37 593.86 589.81 586.38 583.05 579 574.89 571.4 568.27 564.38 560.16 557.42 558.56 560.15 559.35 558.18 555.85 553.49 549.66 545.79 543.1 540.64 538.03 534.94 533.01 532.54 527.93 521.93 513.18 505 498.6 493.02 494.34 490.82 486.64 485.84 482.65 481.72 480.55 478.71 477.37 476.59 474.94 473.54 470.84 469.28 467.55 467.75 466.08 465.31 464.3 461.92 461.71 459.67 458.23 458.03 456.25 455.06 453.2 451.36 450.29 448.57 445.94 444.44 442.09 440.29 438.9 437.02 434.67 433.99 432.38 431.98 430.54 9999 430.32 430.63 431.26 431.1 431.13 430.86 423.31 9999 9999 9999 430.22 430.24 9999 9999 9999 429.95 430.63 429.7 430.23 430.34 9999 430.83 430.72 431.1 431.02 430.43 428.99 429.05 429.63 429.66 430.27 430.43 430.53 430.16 431 430.42 429.72 430.63 430.35 430.42 430.9 430.46 431.43 432.04 431.61 432.03 432.66 433.07 433 433 433.13 432.94 433.87
702.32 701.08 699.56 698.33 697.05 694.45 692.11 690.41 688.44 686.55 685.24 685.1 683.72 682.15 680.96 679.37 677.38 675.37 673.43 670.26 667.87 665.52 663.01 659.02 656.09 653.33 648.93 645.76 643.35 639.31 634.66 632.03 628.52 625.38 621.65 618.59 614.93 610.98 605.68 602.64 598.62 594.57 590.9 587.33 582.62 579.15 576.55 573.09 569.78 565.78 562.38 559.27 561.53 561.51 560.66 558.53 555.62 551.88 549.11 546.14 542.65 541.63 540.49 537.26 533.3 529.94 526.03 519.8 512.46 507.58 506.85 500.61 494.58 492.5 490.4 489.07 487.8 486.37 484.14 481.8 480.5 479.3 478.47 475.65 474.57 472.18 470.96 469.75 469.52 468.33 466.52 466.04 464.14 463.47 461.63 459.52 458.25 457.47 455.98 454.05 451.89 451.8 448.29 445.42 444.21 442.27 440.36 439.21 436.79 436.17 434.49 432.62 431 9999 9999 431.13 431.02 431.1 431.81 432.72 9999 429.81 9999 429.92 431.4 431.17 429.53 9999 9999 427.84 430.66 430.11 430.3 430.81 430.56 430.56 431.06 430.98 430.59 429.41 9999 429.28 429.97 429.54 429.95 428.99 429.22 430.63 429.99 430.17 430.18 429.63 429.2 430.44 430.82 431.09 430.92 430.82 431.89 431.81 432.42 432.76 433.11 432.96 433.43 432.94 433.4
701.47 700.25 699.15 697.35 696.16 693.86 691.1 689.35 686.66 685.63 684.53 682.42 681.55 680.79 680.35 678.42 676.68 675.15 672.5 671.18 668.51 665.89 662.25 659.69 656.67 653.18 649.79 646.12 643.38 638.98 636.22 632.4 629.39 627.5 623.99 620.9 616.47 611.21 608.18 603.67 599.98 595.6 591.84 588.44 584.91 580.2 577.16 573.97 570.73 568.13 565.04 562.7 561.44 561 559.64 558.12 555.02 552.31 548.99 547.18 545.36 544.8 542.57 540.27 533.71 528.87 525.58 519.62 517.32 516.32 509.86 504.85 503.2 500.01 496.93 492.94 491.75 488.9 487.2 486.01 484.38 484.06 482.54 479.02 477.48 475.06 474.26 474.17 472.97 472.15 468.9 467.47 465.97 465.88 464.61 463.05 462.19 460.5 457.43 456.65 456.05 453.86 451.82 450.51 448.46 443.75 441.49 440.05 438.92 437.41 436.76 434.17 432.74 430.62 9999 430.84 430.55 430.59 430.45 430.91 9999 9999 9999 431.33 431.68 430.72 430.67 430.62 9999 9999 429.8 430.56 430.31 431.32 431.21 430.8 430.76 430.55 428.48 9999 9999 9999 9999 9999 9999 429.83 429.56 429.86 429.56 429.65 429.63 429.56 429.56 428.87 430.54 430.58 430.33 430.55 430.84 431.47 432.69 433.28 432.92 433.45 433.63 432.96 433.54
700.61 700.17 698.29 697.25 695.16 693.36 690.43 686.98 685.92 683.98 682.73 681.56 680.3 679.66 678.78 677.28 676.05 674.33 673.03 670.82 668.86 665.62 663.03 660.03 656.93 654.27 650.87 647.37 643.43 639.76 637.17 633.77 630.47 627.93 624.84 621.45 617.96 613.88 609.83 605.94 601.2 597.29 592.29 589.16 585.84 581.54 577.59 574.74 570.96 569.18 567.21 564.21 561.53 560.86 559.44 557.14 554.99 551.99 550.06 548.44 547.49 548.49 546.21 542.21 534.52 531.19 528.36 529.28 526.38 523.19 524.33 517.51 513.59 506.65 504.37 500.16 496.48 494.27 491.47 490.22 488.13 487.63 485.28 484.51 481.35 480.41 477.2 477.01 476.44 475.24 472.72 471.63 470.06 467.67 466.61 466.11 464.06 462.41 461.48 461.24 460.49 457.59 455.45 452.79 449.95 446.74 445.17 444.15 441.07 439.56 437.94 435.46 433.76 432.66 432.09 430.85 430.91 430.57 430.47 429.59 9999 9999 430.65 431.59 431.54 430.33 430.56 431.04 430.44 9999 9999 428.53 429.25 9999 9999 428.62 429.42 9999 9999 9999 9999 9999 9999 9999 430.14 428.73 429.53 429.58 429.81 430.33 429.7 429.41 430.24 429.32 428.34 430.14 430.18 430.43 430.79 430.85 433.04 432.64 433.56 433.76 433.32 433.51 433.92
700.34 698.69 697.69 696.56 694.77 692.67 689.83 686.9 684.44 682.25 680.82 679.4 678.48 678.44 677.92 676.12 675.53 674.48 673 670.65 667.7 665.6 663.09 660.23 657.31 654.22 650.47 647.32 642.79 640.91 637.09 634.04 631.64 628.27 625.86 622.68 619.74 615.41 611.88 607.33 602.23 598.79 595.17 590.2 585.95 582.48 579.17 575.16 572.27 568.72 568.08 565.08 562.15 560.97 560.2 559.23 556.16 554.49 553.6 551.18 549.94 550.36 547.42 541.97 536.86 537.48 533.76 534.71 531.75 532.47 533.51 529.89 522.8 518.43 510.18 504.01 502.37 500.23 499.74 496.95 494.21 490.79 490 487.41 486.83 483.03 481.92 481.49 480.19 477.72 475.47 474.23 472.45 472.59 471.23 468.68 465.73 464.33 464.1 463.4 462.55 462.42 460.41 456.23 451.7 449.24 447.71 445.65 443.79 442.54 440.65 437.69 435.85 434.78 433.61 431.74 431.1 430.12 430.2 429.14 9999 9999 429.89 430.05 430.85 430.13 430.54 430.2 430.31 9999 9999 9999 9999 9999 9999 9999 429.26 430.04 428.74 9999 9999 9999 9999 429.07 429.98 429.99 428.97 429.24 429.65 429.96 430.1 429.76 429.69 429.63 429.59 429.53 430.51 430.06 430.79 431.08 431.92 433.09 433.01 433.88 433.54 433.41 433.99
699.2 698.43 697.32 695.66 694.53 691.44 689.21 685.88 683.72 681.4 679.63 677.89 676.61 676 675.85 675.61 674.56 673.94 672.3 670.2 668.37 666.57 663.53 661.43 658.35 654.03 651.43 647.33 644.71 641.28 637.84 634.34 631.35 629.32 626.74 623.33 620.77 616.21 613.11 607.38 603.59 600.03 596.19 591.55 588.41 585.3 579.8 576.29 573.01 570.26 567.59 565.68 563.81 563.04 561.33 559.59 556.63 556.21 554.75 553.5 553.14 553.3 549.02 544.04 541.32 543.36 544.7 543.03 541.66 538.13 539.07 534.3 529.22 525.44 519.59 515.38 510.55 504.45 503.24 501.19 499.28 496.71 496.3 494.16 488.47 486.35 485.83 485.31 483.35 482.64 480.24 478.87 476.18 473.96 471.94 470.56 468.78 467.79 466.65 466.23 465.34 463.62 462.19 459.92 456.43 453.97 451.65 447.71 446.88 444.78 443.19 441.07 439.74 437.02 436.27 432.99 431.51 430.94 430.13 428.86 9999 9999 429.32 429.82 430.63 430.31 430.11 430.25 429.63 9999 9999 9999 429.85 9999 9999 9999 9999 9999 9999 9999 9999 9999 9999 429.07 429.31 429.39 429.7 429.38 429.09 429.82 429.77 429.8 429.93 429.53 429.9 429.64 9999 429.76 429.52 430.85 430.99 432.03 432.59 434.32 434.8 434.89 434.38
699.22 697.65 696.8 694.85 693.22 690.69 688.4 686.12 682.8 680.47 677.41 675 675.37 675.32 674.79 674.06 674.19 672.5 672.02 669.91 668.86 666.62 663.73 661.76 658.48 655.71 651.56 648.37 646.07 642.26 638.68 634.5 632.81 630.5 627.14 623.74 621.05 618.03 612.97 609.76 605.63 602.27 597.67 593.51 589.85 585.44 581.03 578.05 575.06 571.3 568.55 565.97 565.49 565.41 562.95 560.58 559 557.32 557.1 554.84 554.9 554.98 552.65 548.89 547.72 548.33 550.09 548.03 545.35 545.3 544.37 542.48 536.39 531.3 527.65 523.51 518.22 513.82 509.37 507.83 502.11 500.89 500.69 497.94 496.06 493.14 492 488.94 486.34 485.14 483.1 480.96 479.42 478.08 476.3 473.32 471.8 471.34 469.58 468.8 467.36 467.16 465.54 462.37 460.65 457.24 454.18 451.29 450.21 448.63 445.2 442.56 440.85 439.91 437.67 435.15 433.78 432.53 430.59 430.32 9999 9999 9999 429.3 429.27 429.56 429.44 429.81 429.21 9999 9999 9999 9999 428.72 9999 9999 9999 9999 9999 9999 9999 9999 429.41 429.33 429.58 429.38 429.53 429.9 429.56 429.66 429.4 429.82 430.07 429.75 430.43 429.63 9999 429.85 430.1 430.37 430.07 431.11 432.24 434.62 434.96 435.77 434.64
698.26 697.05 695.21 694.19 692.5 690.87 688.07 685.77 683.36 679.81 676.78 674.94 673.37 673.21 673.39 673.58 673 672.58 671.38 670.47 667.95 666.33 663.79 661.64 658.52 654.99 651.77 649.7 646.07 643.36 638.66 636.27 633.66 630.95 627.39 625.24 622.4 617.67 613.54 610.22 606.94 603.29 599.03 595.32 590.41 586.33 582.96 579.31 576.52 572.3 569.11 568.52 568.86 566.24 564.18 563.06 562.2 560.68 558.82 557.98 557.95 558.07 555.43 553.1 553.69 555.44 555.31 552.85 548.23 547.27 548.09 546.38 545.11 541.78 537.53 534.09 526.39 521.23 513.94 509.92 507.62 507.25 505.27 501.85 499.37 495.2 494.41 492.93 491.38 489.11 487.39 484.58 481.88 481.04 478.7 477.63 475.98 473.66 471.34 471.32 469.7 469.13 468.13 466.17 464.02 461.75 456.87 453.76 451.38 449.92 447.96 445.83 444.53 440.52 438.9 436.7 436.19 434.54 433.02 432.67 430.34 428.95 9999 9999 9999 429.1 429.5 429.48 428.91 9999 9999 9999 9999 9999 9999 9999 9999 9999 9999 9999 9999 9999 9999 429.79 429.26 429.5 429.61 429.58 429.53 429.65 429.47 429.53 429.95 429.61 429.93 430.05 430.04 430.23 430.06 430.26 429.62 429.81 431.97 435.12 435.71 435.48 435.3
697.29 695.74 694.8 693.63 692.12 690.6 688.62 686.42 683.12 680.82 677.56 674.7 672.84 672.94 672.79 672.25 671.81 671.22 670.87 670.09 668.11 666.41 662.81 660.94 658.54 656.1 652.25 650.05 646.68 642.86 640.02 637.11 634.39 631.08 628.87 625.46 621.99 618.5 615.06 611.7 608.58 604.23 600.08 594.45 592 589.22 585.51 581.23 577.26 571.77 569.3 570.45 570.36 568.64 568.1 566.86 564.2 561.32 560.39 560.3 561.26 561.79 560.62 559.12 557.66 557.67 556.43 555.45 553.89 551.85 551.72 550.85 549.33 549.19 543.63 537.44 534.6 528.69 519.97 514.1 511.64 509.75 508.46 505.98 503.12 501 498.13 495.13 494.06 491.6 490.78 487.53 487.43 484.36 481.99 480.36 478.24 477.03 475.13 474.43 474.01 471.62 469.92 468.32 466.57 463.45 461.81 457.99 455.89 452.75 451.02 449.05 446.07 444 441.56 440.87 438.5 437.5 434.31 432.78 430.54 429.32 429.11 9999 9999 9999 429.96 429.78 9999 9999 9999 9999 9999 9999 430.25 429.46 429.51 429.3 9999 9999 9999 429.95 429.17 9999 9999 9999 9999 429.65 429.46 9999 9999 429.94 430.19 430.16 429.67 430.14 429.94 430.75 430.43 9999 9999 430.6 431.03 434.43 435.7 435.65 435.67
697.13 695.47 694.15 693.13 691.46 690.37 688.57 685.88 684.2 682.21 679.75 676.28 674.59 673.09 672.38 671.43 671.15 670.42 669.96 668.93 667.27 665.21 663.09 660.67 658.23 655.53 653.06 649.99 646.67 642.95 640.1 637.49 634.53 631.6 627.58 625.49 622.62 618.93 615.29 613.51 609.33 604.53 600.46 596.65 593.01 590.42 587.38 583.26 578.02 575.14 573.44 573.67 572.89 571.08 570.36 568.44 565.89 565.12 562.78 562.75 564.53 564.86 564.15 562.58 561.91 560.34 559.54 558.18 556.53 554.25 554.34 554.18 552.84 550.98 548.52 543.53 538.59 531.84 524.37 520.07 516.58 515.27 511.67 508.99 506.16 505.41 502.38 499.64 498.55 495.8 493.72 491.71 489.8 487.91 485.94 483.8 482.47 479.05 478.17 476.76 475.98 474.95 472.95 471.73 469.59 467.23 463.93 460.69 459.54 456.88 455.58 453.61 449.99 447.87 444.87 443.54 442.18 439.61 437.77 435.95 432.88 431.52 430.99 430.16 429.5 430.13 430.38 429.85 429.28 9999 9999 9999 9999 9999 429.48 429.73 430.2 430.08 428.78 9999 430 429.64 429.47 429.41 9999 430.35 9999 9999 429.91 9999 9999 430.32 430.25 429.85 430.31 9999 429.18 430.55 430.36 430.35 430.12 9999 430.52 430.19 433.94 435.49 436.11
696.7 695.4 693.29 692.6 691.19 690.3 688.72 687.56 686.27 683.69 680.95 678.11 676.08 673.81 672.84 670.72 670.34 670.38 669.69 668.23 666.4 664.84 663.22 660.65 658.63 655.53 651.74 649.59 646.77 644.26 641.1 638.63 635.53 631.22 628.44 625.16 622.49 619.6 616.63 613.77 609.85 606.02 601.85 598.61 595.81 592.43 589.31 583.36 580.77 577.47 575.87 575.58 575.04 574.51 572.35 568.99 566.82 566.06 565.58 566.24 567.36 568.29 567.21 564.99 562.87 561.73 561.1 560.95 557.65 556.18 556.43 555.45 554.57 553.34 552.32 547.99 543.76 539.13 529.59 525.78 522.17 519.19 516.29 514.17 512.86 507.41 504.82 502.79 502.11 499.8 498.99 497.28 495.84 491.28 488.7 487.24 485.13 483.83 481.72 481.59 478.6 477.03 475.24 473.78 471.83 470.02 468.05 465.7 461.82 459.23 458.61 457.04 454.91 452.65 450.94 446.57 444.25 441.26 440.09 437.84 436.41 435.02 434.92 432.05 430.99 430.59 430.94 430.52 429.75 429.55 9999 9999 9999 9999 9999 429.59 429.45 429.76 430.01 9999 429.11 429.28 429.94 429.56 429.28 9999 429.72 429.91 9999 9999 9999 429.64 429.52 429.91 430.07 430.07 430.17 429.52 430.56 430.49 430.48 429.91 9999 9999 430.71 431.26 433.6
696.02 694.72 692.99 691.91 689.95 690.04 688.29 687.5 686.78 685.07 682.26 679.47 677.3 675.27 673.81 672 671.52 669.98 669.45 668.4 666.96 664.19 662.84 660.61 657.82 654.54 652.48 649.51 647.65 644.13 641.08 638.51 634.68 631.24 628.13 625.83 622.35 619.8 617.28 613.77 611.92 607.88 604.68 599.95 597.11 594.2 589.57 585.15 582.5 580.37 578.81 578.45 577.62 575.89 574.33 571.25 569.08 567.72 566.43 567.95 569.44 569.86 569.09 567.35 564.17 562.94 562.54 560.47 557.8 558.17 559.17 559.57 558.42 555.6 553.51 550.89 547.45 543.93 538.21 532.85 528.12 522.31 520.11 518.2 515.95 513.75 511.46 508.28 505.55 505.15 501.6 500.09 498.86 495.57 493.74 491.1 489.08 487.41 485.96 484 482.9 480.76 479.35 476.67 474.09 473.65 471.44 468.98 467.27 464.6 463.92 460.49 458.21 456.07 454.24 451.51 449.16 445.66 441.72 440.95 438.68 436.96 436.47 434.53 433.86 433.74 431.4 430.96 430.51 430.67 429.96 430.17 430.21 429.91 430.2 9999 9999 9999 9999 9999 9999 429.01 429.06 430.03 429.68 429.17 429.57 430.02 430.27 429.6 9999 9999 9999 430.23 430.43 430.1 430.69 429.84 430.24 430.41 430.27 430.39 430.64 9999 9999 430.5 430.88
696.16 693.75 692.65 690.9 689.48 689 688.02 687.03 686.66 685.06 683.1 680.54 678.6 677.4 675.96 673.37 672.2 670.71 668.99 667.77 666.05 664.27 662.2 660.15 656.57 654.55 651.89 649.78 646.91 644.77 642.01 637.56 634.77 631.68 629.24 627.05 623.82 621.2 617.54 615.69 612.62 609.66 605.61 602.89 598.97 594.92 590.89 587.38 584.48 582.35 581.64 580.98 579.87 577.98 574.87 572.77 571.04 569.36 568.55 570.49 571.92 571.18 570.52 568 565.48 564.5 562.82 560.58 559.54 559.49 560.89 561.05 559.81 558.65 557.92 556.25 551.36 547.53 543.45 536.56 531.79 528.35 526.99 525.71 519.53 517.89 515.07 512.74 510.5 510.54 507.29 504.17 501.95 499.36 497.05 495.31 494.66 494.83 490.52 488.17 485.59 484.5 483.62 481.03 480.44 477.49 474.3 471.81 469.66 468.15 467.37 464.78 464.26 462.52 457.01 455.2 453.42 450.68 447.16 444.91 442.83 440.14 439.28 436.88 436.12 434.2 434.95 432.89 432.01 430.52 430.74 430.29 430.68 430.85 430.45 430.44 429.57 429.91 9999 9999 429.84 9999 9999 9999 429.84 429.76 429.49 9999 430.36 430.04 9999 9999 9999 429.96 430.04 429.68 430.26 429.75 429.89 430.45 430.15 430.08 430.68 430.09 9999 9999 430.69
694.9 693.36 691.15 690.3 688.78 688.31 687.26 687.06 686.35 685.71 683.95 681.19 679.74 678.5 677.18 675.29 673.34 672.01 670.52 667.89 666.65 664.11 662.6 659 657.11 654.76 652.57 649.73 647 645.09 641.76 638.43 635.33 632.82 630 627.52 625.65 621.81 620.06 616.89 614.71 611.49 607.2 604.33 600.07 596.45 594.12 590.99 587.68 584.65 582.03 581.3 580.77 579.69 577.7 576.46 574.56 571.32 570.97 571.09 573.47 573.86 570.95 568.82 567 565.79 563.61 561.38 562.06 560.92 561.69 562.19 560.51 560.14 561.74 559.36 556.05 553.88 549.77 543 538.1 535.25 533.15 530.14 527.17 524.55 521.26 517.53 515.13 514.1 511.48 510.44 507.56 505.51 503.88 500.35 499.62 497.46 494.42 492.58 491.04 490.21 486.21 485.53 483.63 481.28 479.61 477.71 475.72 473.99 470.23 468.8 467.57 466.38 464.15 461.91 461.81 456.47 453.89 448.35 446.01 443.88 442.28 439.8 439.13 437.53 436.29 435 435.21 433.43 432.2 431.29 431.33 430.99 430.83 430.81 430.63 430.73 430.54 429.88 429.87 429.51 429.67 9999 9999 429.42 429.34 9999 9999 429.36 429.71 9999 9999 9999 9999 9999 9999 9999 430.53 9999 430.31 430.49 430.65 430.71 430.85 9999 430.89
694.23 692.23 690.84 690.14 687.98 687.47 686.8 686.23 685.3 685.08 684.09 682.3 681.43 680.07 678.79 676.33 675.69 673.26 671.32 669.34 667.53 665.93 661.9 659.99 657.59 655.48 654.14 651.71 648.99 644.92 642 639.72 636.38 634.05 631.51 628.56 626.29 622.69 620.84 618.17 615.25 612.27 608.78 606.26 603.93 599.82 596.92 593.43 590.76 587.28 585.07 583.37 581.59 580.85 579.4 578.8 578.21 576.23 575.96 575.26 574.11 574.48 572.21 570.12 569.65 568.22 566.9 563.98 564.14 562.67 563.35 563.64 563.96 563.44 566.21 563.92 559.87 559.01 554.25 552.18 548.42 542.65 539.65 535.32 531.98 529.11 525.96 524.36 522.49 520.74 517.09 514.37 512.97 511.17 508.48 508.33 508.28 504.69 498.47 496.85 495.14 493.97 493.37 490.92 488.87 484.99 483.25 481.41 479.52 477.94 476.47 474.66 473.33 470.16 466.77 465.73 464.59 463.31 460.28 455.47 450.32 447.45 444.74 442.78 441.57 441.11 438.34 438.86 435.78 434.49 434.44 432.92 431.52 431.18 431 430.75 430.62 430.82 430.93 430.46 429.42 429.98 429.89 429.16 9999 9999 9999 9999 9999 9999 9999 9999 430.23 9999 9999 9999 9999 9999 430.32 9999 9999 431.26 430.91 9999 9999 9999 431.25
691.67 690.67 689.71 688.8 687.66 686.15 685.67 685.2 684.47 684.26 683.51 683.25 682.5 681.35 679.6 678.23 676.89 674.45 672.3 670.55 667.61 666.22 663.52 661.68 659.24 656.51 654.74 651.83 648.61 645.65 643.63 641.01 638.88 634.82 632.04 629 626.7 624.72 622.2 619.8 616.85 612.68 610.93 608.59 606.13 602.68 599.11 597.73 592.72 590.19 587.61 586.27 584.21 584.04 582.89 581.85 581.18 580.37 578.94 578.55 577.53 575.8 574.23 572.39 571.58 570.14 569.06 568.29 567.85 567.3 566.35 565.07 566.25 567.07 568.19 569.85 565.98 564.22 560.97 556.13 553.18 547.96 546.84 542.27 540.88 537.59 531.42 530.32 527.53 525.3 523.93 521.86 521.77 516.42 514.83 515.38 513.17 508.94 506.32 504.45 503.56 499.46 497.38 495.13 493.79 492.11 490.5 489.08 483.98 482.47 480 477.91 476.69 474.95 472.16 470.44 467.4 463.65 460.22 458.25 455.4 450.74 448.53 446.39 443.14 442.4 441.05 438.98 438.85 438.43 436.83 434.14 432.79 432.96 431.85 431.27 431.09 431.2 430.76 430.7 430.23 429.56 429.83 429.85 9999 9999 429.6 429.82 429.88 429.96 430.3 9999 9999 9999 9999 9999 9999 9999 9999 9999 9999 9999 9999 430.99 430.98 9999 9999
689.91 688.57 687.11 685.97 685.33 685.24 684.62 683.6 683.69 683.19 683.05 682.42 682.47 681.48 680.37 678.9 677.16 675.51 674.4 671.06 669.27 666.17 664.96 662.37 660.52 658.2 655.32 654.02 649.63 646.88 644.43 642.13 640.13 635.94 632.83 630.53 627.23 625.16 623 621.04 619.05 616.64 614.08 610.8 608.58 605.98 602.71 599.67 597.03 594.48 591.72 588.47 586.55 585.38 584.36 584.01 584.75 583.65 582.26 580.57 579.25 577.18 576.76 575.92 574.03 572.48 570.25 570.51 569.95 569.68 568.28 568.86 570.32 571.15 570.13 571.44 570.18 569.43 567.67 563.68 561.77 556.15 551.39 547.29 545.54 542.47 539.62 536.9 533.97 530.41 529.45 526.59 527.18 524.73 524.01 522.28 517.06 514.21 512.7 511.18 509.32 507.11 505.13 502.91 498.84 497.75 495.74 493.65 492 488.49 486.72 482.09 480.14 478.36 476.52 473.77 470.83 467.26 465 460.61 457.42 454.59 451.81 448.98 447.87 446.36 442.9 441.88 439.69 439.41 437.5 437.04 435.44 434.79 433.19 432.29 431.21 431.45 431.32 430.97 430.7 430.44 429.84 429.74 430.03 9999 429.97 429.82 430.35 429.7 429.81 9999 9999 9999 9999 9999 9999 9999 9999 9999 9999 9999 9999 9999 9999 430.8 9999
686.44 685.91 684.93 684.23 683.95 683.28 682.62 681.74 682.46 682.11 682.34 682.26 682.06 681.32 680.3 679.52 677.31 675.69 673.79 671.67 670 667.7 666.23 663.89 660.83 659.17 657.79 654.88 652.49 649.01 646.12 643.98 639.67 636.92 633.94 631.64 628.58 626.42 624.72 622.67 621.06 619.03 617.26 614.56 612.15 609.48 606.58 602.07 599.42 597.57 595.29 593.4 590.32 588.54 586.25 585.86 585.69 584.99 583.95 583.56 581.64 580.36 578.04 577.33 576.72 574.69 572.37 571.89 572.94 571.3 570.95 571.12 572.56 574.36 574.97 575.46 576.24 573.9 572.27 572.36 565.02 561.31 559.42 555.18 552.14 547.32 545.25 541.52 539.3 539.41 537.62 537.2 532 530.71 530.26 529.5 525.9 525.68 523.1 521.27 516.4 513.78 511.59 510.74 508.43 505.59 504.93 499.76 496.18 493.93 491.8 489.99 487.98 485.49 482.61 475.74 473.07 470.69 468.26 464.67 462.15 459.72 454.55 453.05 450.51 448.13 447.08 444.96 444.17 441.95 439.08 438.7 436.69 436.65 434.48 433.9 432.04 431.65 431.06 431.23 430.76 430.98 430.52 430.28 429.27 430.24 429.3 429.79 429.26 429.92 429.85 9999 430.16 9999 9999 430.15 9999 9999 9999 9999 9999 9999 9999 9999 9999 9999 9999
684.89 682.32 681.29 680.45 681.2 681.67 681.39 680.41 680.14 680.27 680.79 680.98 681.38 680.64 680 678.37 677.19 676.03 674.03 672.21 670.49 668.33 665.86 664.53 661.64 660.07 657.66 655.77 652.93 650.1 647.24 643.52 641.25 638 635.82 632.64 630.62 628.64 626.48 625.15 623.6 622.4 619.07 616.81 614.49 611.88 609.15 607.08 603.99 602.2 598.19 595.47 592.96 591.24 589.8 589.15 588.68 586.99 585.87 584.28 583.43 582.79 581.26 580.53 579.01 575.68 573.9 572.84 574.24 574.4 574.2 575.05 576.07 576.61 576.73 577.59 577.62 576.76 577.12 575.48 569.86 567.44 562.74 559.24 557.48 555.2 553.09 550.06 544.41 546.39 543.02 540.02 540.47 538.72 539.73 536.69 533.65 532.34 529.79 528.18 526.41 524.41 522.06 517.15 515.34 514.39 511.86 509.09 506.24 503.99 497.45 495.18 492.89 491.09 485.61 483.21 478.76 475.71 471.12 468.5 465.24 462.5 460.04 456.69 454.82 451.7 450.3 447.27 445.2 443.19 441.84 440.91 439.06 438.39 436.4 434.36 433.27 433.04 432.76 432.25 431.27 431.53 430.98 430.74 430.6 430.09 430.01 429.55 430.27 430.19 430.16 429.96 9999 9999 9999 9999 9999 9999 9999 9999 9999 9999 9999 9999 9999 9999 431.03
681.22 679.63 678.64 678.85 678.83 678.09 678.51 678.83 679.33 679.55 679.8 680.45 680.69 680.02 678.85 678.22 676.56 675.22 673.98 672.01 670.34 668.58 666.54 663.56 661.63 659.91 657.06 655.27 653.36 650.72 647.28 644.63 642.46 640.01 637.47 635.09 633.15 631.46 628.9 627.3 625.3 623.76 621.65 619.07 617.39 614.15 612.23 609.41 607.55 605.35 602.21 600.64 598.95 594.49 592.66 591.11 589.5 588.75 587.9 587.28 586.34 583.84 583.22 582.64 579.59 577.94 576.3 576.63 575.27 576.55 576.93 577.52 578.08 578.28 578.89 579.52 579.11 579.09 578.45 577.31 576.05 571.13 568.77 564.47 562.56 560.17 558.66 556.08 554.11 555.18 551.96 548.26 548.81 546.69 547.25 545.65 545.15 543.41 537.48 536.12 534.51 533.02 530.03 529.15 527.2 525.33 517.83 515.95 512.82 509.28 506.28 503.67 501.42 494.27 490.98 485.57 483.27 480.05 476.65 472.93 470.53 466.14 463.15 460.59 457.45 455.77 452.38 451.09 447.25 445.41 444.04 442.96 442.06 440.52 438.86 438.36 435.45 435.26 434.46 434.36 431.91 432.14 431.51 431.8 430.72 431.18 431.81 430.42 9999 429.49 429.84 429.95 430.12 9999 9999 9999 9999 431.18 430.51 431.14 9999 9999 9999 9999 9999 9999 9999
677.52 676.97 676.08 676.99 677.25 676.09 676.53 676.47 676.59 677.13 678.67 679.2 679.15 678.59 677.62 677.19 675.13 673.84 672.4 671.34 668.99 667.28 664.83 662.34 661.11 658.87 657.2 655.02 652.09 650.54 648.53 646.65 644.3 641.35 639.05 637.28 635.45 633.94 631.95 629.73 628.29 625.98 623.26 620.98 619.62 618.22 615.69 613.93 611.73 607.76 606.04 603.7 601.82 599.42 596.49 594.24 592.12 590.52 589.51 588.97 588.62 587.6 586.71 585.23 582.21 580.44 578.67 578.36 578.24 577.67 579.98 579.8 579.61 579.98 580.76 580.41 581.52 581.29 581.55 579.71 578.65 575.18 572.18 571.18 570.01 570.22 565.69 562.46 560.16 560.65 557.56 558.8 557.65 557 553.24 552.57 552.91 550.96 550.47 549.57 547.04 544.86 540.83 539 535.38 532.66 528.55 527.2 523.62 516.58 513.93 510 507.13 503.55 497.95 493.34 489.25 484.1 480.08 477.27 474.65 472.51 469.2 466.12 461.18 458.3 455.1 452.31 450.11 447.97 446.34 445.48 443.07 442.27 441.49 439.1 438.08 437.36 436.34 434.71 432.53 431.86 432.04 431.99 432.52 432.31 432.64 431.86 430.62 430.33 429.79 9999 434.82 9999 9999 9999 430.54 430.78 430.83 430.89 431.89 9999 9999 9999 9999 9999 9999
676.46 675.84 675.87 675.87 675.99 675.42 675.82 676.34 675.83 676.4 677.07 676.34 676.27 676.17 676.01 675.36 674.32 673.24 671.43 669.68 668.45 666.74 664.43 663.13 661.41 659.25 657.41 654.55 653.12 650.92 648.86 647.28 645.87 644.62 642.07 640.53 637.38 635.46 633.71 632.01 630.21 627.94 626.37 623.95 621.64 619.47 618.51 616.03 613.81 612.29 611.23 608.46 604.93 602.89 599.96 596.39 595.38 594.54 593.67 591.44 590.31 589.67 587.48 586.69 584.8 582.91 582.54 581.59 580.27 581.65 582.11 582.8 583.24 583.11 582.11 582.82 583.63 583.82 583.69 583.46 583 581.35 575.39 575.2 573.63 573.36 573.5 571.43 569.78 565.61 562.48 562.8 561.89 562.21 563.03 562.27 563.61 559.3 558.61 558.84 555.82 555.99 552.67 550.23 548.91 541.91 537.67 535.13 532.07 528.82 524.8 520.47 513.31 508.03 503.27 498.06 495.21 489.2 487.06 483.16 478.65 475.82 474.02 469.85 464.83 460.76 458.2 454.42 451.94 449.78 448.67 447.69 447.03 445.02 443.57 440.76 439.59 439.22 437.4 435.97 434.26 432.79 432.14 432.2 432.4 433.06 432.96 432.28 432.13 431.87 9999 430.26 430.43 9999 430 430.16 430.47 430.44 430.58 431.48 430.67 430.92 430.77 9999 9999 9999 9999
675.75 676 675.74 675.66 676.03 675.51 675.33 675.1 675.6 675.66 675.05 675.09 675.43 674.74 674.4 674.24 673.69 672.45 670.68 669.38 667.82 666.1 664.98 663.19 660.83 658.91 656.82 655.19 653.74 652.15 650.68 649.47 646.57 644.87 643.54 642.42 640.27 638.6 636.99 635.16 631.48 629.49 628.13 626.9 624.38 623.09 621.98 618.23 617.32 614.44 613.35 610.85 609.07 606.26 604.07 600.07 597.87 596.87 595.66 595.3 593.54 591.39 589.65 588.75 587.05 584.99 585.9 584.83 584.83 585.23 583.92 584.91 585.04 585.74 586.51 587.07 587.77 588.09 585.79 585.2 584.69 584.64 583 581.42 579.98 577.25 577.59 575.61 572.99 570.12 568.8 569.53 569.25 567.97 568.83 570.79 569.91 568.81 569.04 568.45 565.33 563.3 560.96 560 558.09 555.75 552.07 549.02 541.22 535.84 531.85 528.62 524.08 518.4 514.47 504.15 497.8 494.24 489.58 487.17 484.84 482.07 478.34 471.39 467.61 463.77 460.43 458.16 455.53 454.24 450.51 449.85 448.78 447 444.66 443.28 441.95 440.56 438.43 437.53 436.13 434.62 433.01 433.02 433.39 434 433.45 433.68 433.1 432.14 9999 430.34 430.24 9999 430.04 429.79 430.21 431.16 430.37 430.9 431.04 431.18 431.78 9999 9999 9999 9999
675.92 675.76 675.06 676.09 675.7 675.52 675.12 675.05 675.95 675.57 675.11 675.02 674.4 674.83 674.24 673.88 673.08 671.4 669.98 669.23 667.92 666.23 665.38 663.51 661.99 660.28 658.74 657.21 654.56 653.21 652.13 650.37 648.41 646.99 645.88 643.64 642.37 640.93 638.96 636.4 634.25 632.3 630.62 628.85 626.76 626.02 624.61 622.91 620.83 618.86 615.14 612.79 610.06 608.05 607.14 603.41 601.22 600.43 598.59 597.15 594.97 593.31 592.64 592.65 591.32 590.32 588.2 587.52 587.8 588.34 588.78 589.2 590.03 588.3 589.05 590.37 590.56 590.38 590.31 590.96 590.54 588.12 586.93 585.65 584.75 583.34 582.38 580.9 577.39 575.95 573.7 573.71 573.84 573.26 575.1 576.15 575.83 577.03 575.18 575.68 574.32 574.35 572.97 567.56 565.74 565.16 561.69 558.75 554.52 549.37 544.2 535.94 531.36 526.35 519.56 512.4 506.49 502.09 495.8 491.56 488.57 484.65 479.77 475.93 471.32 468.36 463.96 460.8 458.13 455.56 454.76 453.04 451.3 448.23 447.11 444 443.17 441.71 440.73 439.74 438.77 436.99 435.3 435.2 434.38 434.66 434.92 434.32 433.38 432.26 430.76 430.38 431 430.57 9999 9999 9999 9999 430.49 431.17 430.65 430.68 431.57 9999 9999 9999 9999
675.9 676.23 676.07 676.61 676.27 675.9 676.11 676.41 676.63 676 676.14 675.83 676.44 675.54 675.1 674.31 673.36 672.64 670.55 669.6 668.25 667.67 666.53 665.52 663.45 662.26 660.79 658.88 657.13 655.89 654.02 650.54 649.65 648.34 646.73 646.38 644.18 642.58 639.99 638.06 636.38 634.78 632.44 632.18 629.92 628.14 626.21 624.28 623.66 621.31 619.55 616 613.88 611.65 608.33 606.01 603.53 603.38 601.69 600.58 598.22 596.04 595.85 594.9 594.3 592.48 593.28 592.86 593.18 591.99 592.03 592.64 592.02 593.2 593.43 594.35 593.96 593.34 593.41 594.24 594.66 594.45 592.78 591.84 587.99 585.93 585.72 584.75 585.27 583.01 581.06 577.87 577.1 577.18 578.06 580.15 581.31 582.74 584.33 582.06 580.99 580.97 580.18 580.03 579.61 578.95 576.64 566.83 564.51 560.84 554.86 548.46 543.29 536.04 526.38 519.85 513.29 507.91 503.02 499 493.08 488.19 483.03 478.93 476.28 472.28 468.21 463.56 462.2 458.12 456.59 455.58 453.83 451.58 449.98 448.21 446.58 443.57 441.94 440.96 440.41 438.91 439.21 438.36 436.42 434.81 435.27 435.41 434.92 433.74 432.64 430.41 430.34 430.59 430.55 430.38 431.07 431.12 431.16 430.4 430.45 9999 9999 9999 9999 9999 9999
677.6 678.03 678.39 677.27 677.28 678.1 678.11 678.67 678.64 679.29 679.93 678.61 677.37 676.97 676.26 675.91 674.04 672.66 671.65 670.69 669.91 668.13 667.6 666.73 665.92 664.83 662.11 661.16 659.65 657.19 655.52 653.7 652.38 651.1 649.06 647.61 646.11 644.68 642.28 640.87 638.58 637.49 635.06 632.82 632.17 631.56 629.7 628.14 626.21 623.84 620.5 617.75 615.13 613.44 610.77 609.77 607.87 605.08 603.64 602.7 601 600.25 599.39 599.76 596.27 595.88 596.37 596.47 596.91 597.05 597.28 597.64 595.4 595.48 596.34 597.78 597.51 597.37 597.42 598.61 598.39 598.33 596.5 596.04 594 592.9 592.28 588.75 588.49 586.32 585.76 585.49 583 583.35 583.24 583.49 585.55 585.77 588.49 588.44 590.42 590.38 587.3 586.51 587.41 584.95 583.26 579.34 579.32 576.16 564.69 558.66 550.07 543.51 537.55 530.47 523.2 513.7 508.18 501.58 497.47 492.91 487.92 484.57 480.9 474.78 469.51 466.48 464.44 461.85 459.72 457.97 455.5 453.65 451.17 450.1 448.17 446.73 444.83 444.3 440.85 440.12 439.66 439.49 438.63 436.93 437.2 437.03 437.19 436.49 435.33 432.55 431.02 430.28 430.57 430.37 430.88 431.03 431.44 431.75 431.37 432.1 9999 9999 9999 9999 9999
679.48 680.71 680.96 680.94 681.45 681.46 681.33 680.87 681.23 682.28 682.21 681.83 680.96 680.04 677.6 676.29 675.08 673.91 672.78 671.67 671.35 670.53 669.27 668.39 667.54 666.56 665.82 664.02 661.68 660.1 657.34 655.48 654.04 653.17 651.77 650.93 648.98 646.07 644.16 642.45 640.91 639.13 637.2 636.08 635.6 632.94 632.01 629.92 628.09 625.21 623.79 620.51 616.58 614.86 612.67 611.57 609.9 608.19 606.85 606.87 603.83 603.32 602.93 602.31 601.32 600.95 601.2 601.5 600.44 600.69 600.79 600.69 599.95 600.01 600.54 600.29 600.64 600.43 600.32 601.06 601.81 601.72 602.09 598.74 597.37 596.25 595.07 595.54 594.78 594.39 590.18 588.91 587.44 587.95 586.04 588.36 588.09 590.89 592.11 593.35 593.92 596.08 598 598.53 602.33 595.21 594.21 592.03 587.96 583.31 579.34 570.56 562.05 550.52 544 536.85 528.94 522.45 515.66 511.15 502.7 497.21 492.44 488.16 483.32 478.22 474.41 471.46 466.31 464.05 462.22 460.45 458.29 456.4 454.51 451.95 449.59 448.07 446.23 444.68 442.52 441.85 440.52 440.32 439.45 437.65 437.52 439.06 439.17 439.97 437.87 436.19 433.38 430.73 430.71 431.05 430.86 431.47 431.39 431.94 432.13 432.25 432.82 432.12 9999 9999 9999
683.27 684.24 682.6 683.51 683.78 684.04 684.31 684.66 684.7 684.95 683.78 682.9 682.26 681.39 680.88 679.3 677.44 675.48 673.58 673.84 672.32 672.32 671.36 671.59 669.92 668.39 667.52 665.52 664.2 662.37 660.86 659.25 657.53 654.8 654.18 652.77 650.13 648.49 647.23 645.07 643.31 640.52 639.16 637.96 637.76 636.74 634.73 633.15 630.18 628.17 625.46 623.1 620.16 617.49 615.48 612.9 611.48 610.26 608.93 608.51 607.92 607.83 607.45 606.05 605.81 604.24 605.07 604.91 605.49 605.65 605.15 603.88 603.75 603.54 603.93 604.38 605.22 604.9 603.73 604.49 604.1 604.94 604.07 604.05 602.84 602.22 600.09 600.38 599.7 598.31 596.91 595.49 594.43 591.22 591 590.56 591.18 592.85 596.27 597.92 599.2 599.88 601.17 605.34 609.4 611.23 611.01 608.78 596.85 591.74 588.1 580.35 571.16 562.52 553.46 545.49 534.28 526.56 521.99 517.2 510.94 506.43 501.88 492.68 485.85 481.05 477.45 474.03 471.39 468.27 465.99 461.57 460.46 458 456.22 454.54 452.14 449.77 446.91 445.39 443.72 443.29 440.76 440.66 439.64 438.75 438.72 439.78 440.45 440.8 441 440.68 438.74 431.01 431.12 431.84 431.32 431.22 431.99 431.78 432.74 432.42 432.75 433.51 434.96 9999 9999
685.46 686.23 686.88 687.24 687.86 687.07 686.37 687.47 686.4 687.47 687.01 686.45 684.92 682.58 681.57 679.98 679.24 676.99 675.89 674.92 674.33 673.47 673.6 672.69 672.43 671.46 669.51 668.43 666.82 664.66 663.37 661.67 659.7 658.19 657.04 655.76 652.66 650.76 648.67 647.59 645.84 644.42 642.85 642.14 640.11 638.59 636.45 634.16 632.84 630.52 627.9 624.24 621.82 618.9 616.99 615.17 613.37 612.93 612.93 611.78 611.16 611.08 611.1 610.82 610.38 610.08 608.48 607.62 608.38 608.78 609.21 608.75 608.46 608.7 607.01 607.58 607.71 607.9 607.25 608.15 608.77 606.71 607.14 606.59 606.31 606.36 605.75 605.35 606.31 602.29 601.38 599.91 599.27 598.47 596.99 596.63 596.61 594.82 595.63 598.19 601.28 602.61 605.48 610.28 613.96 616.62 619.51 617.46 614.48 605.86 599.78 593.47 579.92 570.59 561.26 550.65 540.78 533.34 528.15 522.18 516.97 512.78 503.79 495.93 488.73 485.04 480.67 476.9 473.85 470.38 468.17 465.2 463.32 460.79 457.55 456.45 453.2 450.05 448.28 445.91 444.54 443.13 441.81 440.92 440.17 439.66 440.7 442.14 443.1 442.44 442.48 442.5 442.74 439.31 431.82 430.74 430.65 431.38 432.96 435.97 440.24 444.88 445.61 447.7 440.1 9999 9999
687.99 687.86 688.75 689.2 689.46 689.2 689.15 689.48 689.13 689.15 688.35 687.37 686.16 685.29 683.34 682.7 680.06 678.69 676.92 676.87 675.97 675.91 674.84 674.11 673.66 671.94 671.26 670.21 669.63 667.91 666.23 663.67 662.49 660.96 660.12 657.57 655.82 654.12 651.87 649.74 648.32 646.89 645.21 644.6 642.84 640.85 638.99 636.49 634.24 632.01 629.56 626.86 624.28 623.1 619.42 617.5 616.04 615.68 615.34 615.22 615.4 615.49 614.43 614.44 614.1 613.71 613.17 612.45 613.08 611.91 612.59 612.63 612.27 612.45 611.9 612.71 613.55 611.13 610.7 611.44 611.14 611.79 611.98 611.88 611.83 609.83 609.71 609.64 610.15 610.26 610.53 607.64 603.11 602.43 601.43 600.81 600.77 598.46 597.61 597.1 599.34 602.57 604.92 609.07 613.81 620.82 627.04 628.2 623.79 615.58 608.29 600.45 590.06 579.19 564.18 552.5 544.56 538.66 533.3 528.23 524.39 518.66 509.26 499.78 491.48 487.87 484.19 481.88 479.57 475.83 471.82 468.7 465.74 463.07 459.89 456.28 454.43 450.9 449 446.54 444.89 443.45 442.32 441.12 440.85 441.01 440.68 442.99 445.11 446.09 446.24 448 447.22 446.2 439.8 436.62 438.13 441.79 447.01 449.12 449.21 449.05 448.86 446.13 438.83 9999 9999
688.84 689.82 691.53 691.39 691.01 690.65 690.71 690.12 690.11 690 689.87 689.03 687.02 686.2 684.58 683.56 681.82 680.62 679.21 677.32 677.31 676.79 675.79 674.84 674.47 673.09 673.63 671.55 670.84 670.42 668.25 666.74 665.87 663.88 662.51 660.2 657.75 654.93 654.07 652.28 650.94 649.88 647.95 646.32 644.37 642.48 641.34 639.38 637.08 634.7 632.17 628.79 627.18 625.62 624.98 623.85 622.08 619 619.32 618.63 617.55 618.33 618.41 618.62 618.62 617.32 616.8 616.19 615.73 616.55 616.99 616.87 617.59 615.49 616.65 616.27 616.62 616.73 616.12 616.65 614.27 614.46 615.31 615.28 615.37 615.96 615.45 616.21 614.84 614.9 613.93 613.38 611.15 609.9 608.97 604.24 603.68 603.56 601.06 599.46 597.78 598.53 601.62 605.96 610.43 615.11 623.89 630.29 632.54 622.04 612.16 604.44 593.54 579.26 567.99 559.74 552.73 545.36 537.22 531.31 524.25 518.14 510.11 501.23 496.5 491.54 487.3 484.29 482.93 479.8 475.99 471.55 468.64 464.86 460.71 456.9 455.57 452.79 452.09 447.73 445.91 443.69 442.92 441.96 442.08 442.09 442.25 443.55 447.63 448.58 448.36 449.02 448.63 448.74 449.47 446.48 448.04 449.85 450.19 449.25 448.98 448.08 446.76 445.2 440.71 435.07 9999
690.27 690.73 691.5 692.2 691.92 691.52 691.64 691.64 690.82 690.91 690.28 689 687.95 687.31 686.3 684.35 683.52 682 680.79 679.5 678.89 677.28 676.19 675.37 674.52 674.67 674.19 674.04 673.34 672.37 670.2 668.82 667.44 666.91 664.23 662.11 660.56 658.45 655.69 654.09 653.37 652.01 650.92 649.17 647.4 644.83 642.56 640.69 638.97 637.25 634.98 633.34 631.37 628.77 627.99 627.18 625.84 624.97 623.67 622.25 622.93 621.33 620.98 621.59 621.84 622.26 621.25 621.51 620.11 620.09 620.76 621.23 621.58 621.67 621.72 622.54 620.32 620.7 619.89 619.79 620.39 620.33 620.38 618.81 619.11 619.74 620.24 620.25 621.32 621.32 623.03 619.71 617.17 615.42 614.55 612.48 610.17 609.56 604.73 603.16 599.95 598.77 599.59 602.57 607.41 612.31 619.03 623.58 624.29 621.58 614.31 606.29 591.67 581.39 572.39 565.44 557.55 549.63 543.64 531.56 522.03 516.89 508.85 502.7 497.85 495.62 491.58 490.37 485.23 483.04 480.2 475.34 470.92 466.35 462.23 460.32 456.25 453.53 451.61 449.1 446.55 444.73 444.12 442.64 442.6 442.64 443.37 444.41 447.49 449.11 449.17 448.75 448.8 449.2 449.36 450.03 450.71 449.41 450.24 449.49 448.62 448.57 447.35 445.41 442.3 435.2 9999
690.88 691.61 691.8 692.12 692.39 691.83 691.63 690.98 691.24 691.49 690.63 689.29 688.82 688.14 686.37 685.6 684.88 684.07 681.88 681.01 679.36 677.57 676.21 675.7 675.72 676.03 675.38 675.18 674.61 673.98 672.55 671.51 670.43 667.64 665.81 663.9 662 659.9 658.52 657.11 656.29 653.81 652.59 651.28 649.1 646.63 645.22 642.99 641.57 638.44 636.73 636.3 634.48 634.11 633.08 631.84 629.13 627.68 627.72 626.72 625.77 625.06 625.78 625.92 624.9 624.61 624.47 624.97 624.78 625.21 625.73 624.3 624.97 624.97 626.09 626.29 626.37 626.42 626.26 624.09 624.35 624.62 624.23 624.99 625.44 625.93 626.49 625.6 625.55 626.63 627.41 626.41 625.9 624.44 619.2 616.65 614.95 612.92 610.68 609.48 606.3 602.64 599.81 601.67 606.52 609.26 611.31 614.27 616.11 617.52 613.24 602.1 592.55 585.67 579.9 572.7 562.82 553.35 542.25 530.34 521.22 516.25 511.69 507.01 502.32 499.63 498.7 494.86 489.72 486.42 482.73 477.48 471.2 468.39 464.37 462.08 457.56 455.3 452.66 449.41 447.26 446.01 443.67 443.92 444.77 444.07 443.98 444.48 445.47 447.12 446.79 447.27 448.22 448.54 449.43 450.2 450.15 450.05 449.14 449.12 448.61 447.61 447.04 446.15 444.01 436.63 9999
691 691.61 691.89 692.4 691.62 691.74 691.33 690.98 691.01 690.68 690.14 689.06 688.23 687 686.71 685.84 685.02 684.49 683.62 682.21 680.27 678.69 677.32 677.18 676.65 676.76 676.71 676.79 676.48 674.83 673.31 673.24 671.55 670.43 668.16 665.6 663.38 661.93 660.82 659.44 658.36 656.6 655.3 654.33 651.12 648.27 647 644.76 643.18 642.39 641.21 640.05 637.91 637.45 635.44 634.06 633.36 633.03 632.27 629.67 629.24 628.34 629.03 629.12 629.43 629.23 629.85 627.92 628.38 628.4 629.24 630.58 629.9 630.87 631.66 629.71 629.97 629.65 630.37 630.69 630.87 630.71 628.62 629.08 629.61 629.94 630.71 631.02 632.05 634.05 632.23 631.25 628.74 628.94 628.34 626.51 621.1 616.63 614.71 613.47 610.67 607.47 604.6 604.72 606.09 608.25 608.43 609.12 610.38 610.39 606.36 600.48 594.04 588.12 581.51 572.83 559.94 550.14 539.04 530.56 523.7 519.32 514.49 510.08 507.28 505.33 503.54 499.04 493.51 488.92 483.05 478.97 475.54 471.81 466.41 462.19 459.21 456.84 453.98 451.42 449.08 447.21 445.43 444.73 444.75 444.72 445.15 445.3 445.28 446.12 446.67 447.52 447.82 448.46 449 450.64 450.6 449.98 449.81 448.72 448.52 447.52 446.63 444.88 442.81 432.28 9999
691.12 691.04 691.23 691.43 690.51 690.51 689.69 690.41 690.21 689.65 689.43 688.2 687.5 686.71 686.01 685.85 685 684.37 684.15 682.18 681.67 680.12 679.35 679.22 678.15 678.57 678.98 678.53 677.01 676.5 676.1 674.91 673.79 671 668.79 666.92 665.36 663.75 662.55 661.28 658.78 657.79 656.4 655.5 652.97 651.22 649.03 647.42 645.58 644.66 643.28 642.92 641.07 640.03 639.31 637.51 636.2 634.88 635.2 634.4 633.63 633.41 633.55 632.27 632.08 631.69 632.46 633.06 633.9 633.98 633.09 633.02 633.59 634.25 635.71 636.07 635.42 635.59 633.86 635.17 634.77 634.75 634.4 634.81 634.91 633.51 634.52 634.47 636.49 638.16 638.67 638.45 638.84 634.23 633.35 629.99 626.36 624.17 621.28 619.43 614.63 610.5 607.8 606.65 606.2 606.44 605.74 605.52 606.74 606.04 604.13 600.08 595.43 589.64 581.65 569.29 558.58 548.12 538.58 531.95 527.63 522.94 520.56 514.4 511.25 508.23 505.9 503.03 497.81 489.75 485.51 480.9 476.73 474.21 469.97 464.81 461.12 457.94 455.19 452.03 450.17 448.45 447.36 446.32 445.69 445.32 446.04 445.91 447.06 445.88 447.01 447.33 448.28 448.26 449.5 450.72 448.88 450.01 449.68 448.98 447.64 447.72 445.81 442.97 436.04 431.69 9999
689.34 690.29 690.35 690.19 689.56 689.36 689.1 688.7 688.68 687.7 686.94 686.53 686.21 685.64 685.78 685.03 684.72 684.56 683.78 682.83 682.42 681.09 680.2 679.59 679.59 679.2 679.34 679.5 678.29 677.97 677.3 675.24 674.5 672.49 670.21 667.94 666.16 664.75 662.65 660.92 660.39 658.43 658.37 656.21 654.5 652.56 651.28 650.44 648.76 647.66 646.74 644.94 643.74 642.72 641.75 641.3 640.58 639.79 637.82 637.43 636.14 636.35 636.03 635.88 636.71 637.27 635.64 636.86 637.11 637.6 637.87 638.49 638.95 638.07 638.94 639.28 639.69 639.43 639.42 640.56 640.8 639.52 639.45 639.26 638.95 640.26 640.5 641.05 640.43 641.77 642.18 642.42 643.7 640.4 638.45 636.56 630.77 629.17 627.01 624.1 618.96 614.91 612.4 608.92 607.1 606.52 604.45 604.13 602.83 601.3 599.61 597.96 593.35 588.93 577.36 566.66 555.68 546.69 540.04 535.5 530.37 527.49 525.9 521.98 518.44 513.46 508.23 504.51 498.59 492.97 488.33 484.09 480.17 475.6 471.92 465.82 461.56 458.64 455.74 453.72 451.22 449.49 447.68 446.96 446.69 446.83 446.58 447.05 445.95 446.9 447 447.99 447.67 448.95 449.86 451.28 449.92 450.59 450.25 448.94 447.61 445.97 443.02 437.41 432.76 9999 9999
688.62 689.35 688.8 688.26 688.37 687.41 686.42 685.98 686.86 686.15 685.23 684.27 684.77 683.77 683.63 684.1 684.32 683.75 683.31 682.81 682.98 681.94 681.33 680.51 680.2 680.3 679.99 679.37 679.62 678.9 678.38 676.75 674.32 672.76 670.37 668.49 667.62 665.15 663.7 661.96 661.13 660.13 659.2 657.35 656.98 656.33 653.37 651.84 651 650.66 648.36 647.85 646.84 645.86 644.31 643.93 643.39 642.43 641.73 640.83 640.37 639.27 638.42 638.71 638.92 640 640.78 641.31 641.38 640.63 641.43 642.36 643.48 644.52 645.32 645.83 643.43 644.13 644.24 645.02 645.67 645.49 646.66 645.8 643.69 644.36 644.34 645.03 645.56 646.79 647.75 648.27 647.21 645.03 641.95 639.94 637.91 636.94 634.13 625.06 620.91 617.89 614.13 611.61 608.61 606.13 603.2 602.1 600.52 599.24 596.93 593.63 589.19 581.87 574.61 564.8 555.26 546.46 541.39 537.25 535.25 534.79 530.94 528.47 522.98 517.41 511.7 506.53 501.19 495.87 489.07 484.84 481.56 477.85 471.97 468 463.85 460.11 456.72 454.16 451.69 449.97 449.55 448.04 447.94 447.31 447.94 447.47 447.52 447.96 447.47 447.39 447.87 448.67 450.4 450.38 451.16 450.4 449.78 448.51 446.82 442.36 437.86 433.42 432.9 9999 9999
686.69 687.59 687.32 687.06 686.6 685.71 684.15 684.29 683.99 683.42 682.71 683.04 682.74 682.6 682.87 682.74 682.87 683.06 683.28 683.26 682.5 682.67 681.91 681.5 680.79 680.52 680.18 679.71 679.56 679.35 678.25 677.24 675.7 673.46 671.96 669.23 667.45 665.89 664.28 663.51 661.87 660.96 660.01 658.93 658.57 657.6 657.31 655.58 654.39 651.79 651 649.64 648.88 648.22 647.76 646.97 646.63 644.73 644.45 643.99 643.43 643.23 642.81 643.23 641.53 643.07 643.59 643.9 645.11 646.03 647.42 647.92 647.32 648.18 649.03 649.4 650.08 650.66 650.78 651.37 649.43 649.83 650.87 649.77 650.33 650.3 650.86 648.76 649.14 650.07 650.67 651.71 651.69 650.74 647.61 642.82 642.17 641.74 637.86 630.38 625.05 621.99 616.7 613.44 610.22 606.15 603.05 601.1 598.21 595.63 594.49 591.04 585.23 577.84 569.11 560.85 553.34 546.74 542.53 538.18 538.16 537.8 535.63 531.46 526.62 519.71 513.52 508.43 503.6 497.85 493.25 488.29 480.75 477.64 473.7 469.86 465.33 461.64 458.79 454.67 452.05 451.32 449.63 449.53 448.81 448.66 448.09 448.04 447.95 448.01 448.15 448.15 448.89 449.42 450.99 452.02 450.89 451.79 451.4 446.69 439.27 435.17 434.39 433.32 431.63 9999 9999
685.93 686.02 685.68 684.81 682.95 681.8 681.06 680.88 680.73 680.79 680.58 680.19 679.93 680.39 681.29 681.61 681.91 682.39 682.86 682.58 681.82 681.62 681.53 680.92 680.63 680.22 680.02 680.07 680.21 680.15 679.21 678.03 676.34 674.92 673.11 669.87 669.35 667.25 665.18 663.82 662.8 662.09 661.46 661.27 660.4 660.01 658.68 658.11 656.86 655.34 654.52 653.02 650.63 650.41 650.33 649.74 648.77 648.18 647.64 647.09 645.72 645.87 645.93 646.59 646.15 647.04 647.36 648.37 647.93 649.52 650.07 651.59 652.46 653.44 654.61 653.52 654.53 654.31 654.55 654.87 655.46 656.1 656.67 654.31 654.87 654.25 654.13 654.92 654.9 654.52 653.95 653.98 654.09 653.44 649.64 647.78 645.71 642.11 638.13 632.02 627.54 624.55 619.64 615.69 610.26 606.75 603.42 600.27 596.88 594.14 590.59 584.73 580.15 574.63 567.09 559.08 552.42 545.25 541.93 540.06 539.22 539.74 537.24 533.22 527.86 522.44 515.99 510.69 504.94 499.81 494.18 488.27 481.59 478.51 474.35 470.6 466.34 462.47 458.24 455.7 453.86 451.61 451.01 450.69 449.66 449.93 449.13 448.96 448.93 449.16 448.67 448.93 449.24 450.14 449.38 450.81 450.94 449.92 447.93 442.71 435.47 434.6 433.37 432.95 433.12 432.29 9999
683.69 683.75 683.68 681.58 680.36 678.93 677.73 677.04 677.57 677.8 678.32 678.35 678.68 678.42 678.47 679.12 679.61 680.01 680.91 681.32 680.45 680.83 680.39 680.34 680.48 680.07 679.76 680.27 680.01 680.11 679.99 678.84 677.01 675.47 672.34 671 669.57 668.3 666.79 665.76 664.3 663.39 662.38 662.5 661.85 661.64 660.92 659.7 658.56 657.67 656.59 654.89 654.71 654.17 653.38 652.84 651.09 650.87 650.12 649.86 650.17 649.4 649.67 648.68 649.8 650.43 650.19 652.28 652.85 654.17 655.59 654.9 656.52 656.96 658.08 658.98 659.18 660.19 658.65 659.23 659.24 660.17 660.33 660.58 660.87 660.17 658.42 658.48 657.77 657.94 658.22 657.85 658.2 655.14 652.42 650.22 646.95 643.76 639.08 634.54 630.72 625.8 619.36 615.32 611.7 607.52 603.55 599.93 596.6 592.04 587.46 583.53 577.45 570.67 564.21 557.86 548.8 543.67 540.51 539.09 539.64 541 538.62 533.64 528.13 523.34 518.42 512.46 505.85 501.38 494.19 489.15 483.15 479.3 475.39 472.36 468.26 461.77 458.72 455.84 453.7 452.4 451.97 451.74 451.62 451.26 450.52 449.42 449.14 449.36 449.18 449.05 450.06 450.44 450.24 450.77 451.1 449.73 446.48 441.74 435.39 433.98 433.41 433.13 432.47 432.26 432.72
681.33 681.12 680.09 678 675.65 675.2 673.77 674.03 674.51 674.61 675.47 675.34 674.74 676.91 677.36 677.64 678.54 678.12 678.87 679.15 680.39 680.03 679.95 680.21 680.39 679.8 680.73 680.25 680.5 680.78 680.02 679.34 677.19 675.59 673.58 672.33 670.48 668.8 668.39 666.19 665.22 664.99 664.66 664.45 663.52 663.12 662.08 661.99 660.88 660.64 659.84 658.35 656.98 656.8 655.38 655.48 654.99 654.61 654.59 652.44 652.06 653.32 653.08 653.27 653.54 654.54 653.66 655.22 656.29 657.41 659.41 659.88 660.81 662.54 662.27 662.32 663.33 664.14 664.85 665.06 665.23 665.8 663.85 664.55 664.3 665.07 663.91 663.54 662.8 661.03 660.61 660.41 660.36 659.94 656.97 654.83 651.38 645.16 640.42 636.47 631.35 625.13 620.64 615.96 611.72 608.07 602.72 599.74 593.87 589.69 585.79 580.72 577.79 571.12 563.82 553.92 547.73 541.74 538.77 536.82 536.99 537.53 536.07 532.58 527.92 523.26 518.05 513.14 506.86 500.28 495.04 489.4 484.27 479.32 475.86 471.68 467.4 462.39 459.59 457.66 455.28 453.29 453.46 452.56 452.44 451.9 451.58 451.26 451.25 449.45 449.61 449.76 450.29 450.32 450.5 451.34 450.77 449.45 446.41 441.5 435.84 434.66 434.22 433.23 432.92 432.78 432.55
676.49 677.79 677.35 674.71 671.87 670.46 669.5 669.46 670.3 672.36 672.8 672.61 673.05 673.23 674.33 674.97 676.61 677.17 676.92 678.71 678.96 679.88 680.12 680.17 680.23 680.31 680.43 680.64 681.21 680.52 680.16 679.49 678.01 676.22 674.22 673.18 671.5 670.6 669.09 667.23 666.87 666.17 666.52 666.16 665.54 665.39 664.47 663.26 662.71 662.69 662.27 661.52 661.46 661.04 659 658.13 658.33 657.54 657.59 657.04 656.93 656.91 655.59 655.9 657.01 657.57 658.5 659.71 660.97 662.18 661.54 663.47 664.87 666.34 667.59 667.74 668.94 667.74 668.52 668.29 669.3 669.51 669.47 669.68 669.39 667.86 667.1 666.44 665.54 664.59 664.22 663.2 662.62 660.48 657.97 654.62 650.94 646.64 643.08 638.22 630.91 625.14 619.54 616.52 611.28 606.28 601.38 595.76 592.21 588.07 583.49 578.63 573.92 568.7 560.07 554.32 549.11 542.26 537.34 533.45 531.9 531.31 533.11 530.97 526.02 520.96 516.91 511.37 505.5 500.84 495.13 490.35 485.74 481.09 475.39 472.05 468.13 463.48 461.17 458.32 455.92 454.66 454.17 454.07 453 453.13 452.51 451.94 451.41 450.92 450.6 450.44 450.44 450.73 450.17 450.99 450.08 449.37 447.36 443.03 437.28 435.61 434.77 433.6 433.95 433.35 9999
674.18 673.05 672.26 668.99 669.09 667.44 667.11 667.18 667.49 668.78 670.67 671.47 671.8 672.14 672.57 672.77 674.48 675.39 675.91 677.55 678.27 679.13 679.75 680.65 680.52 681.53 681.02 681.29 681.1 681.66 680.49 679.84 678.53 677.45 675.85 674.08 672.58 670.99 669.87 669.57 669.1 668.6 667.61 667.34 666.91 667 666.21 665.84 664.89 665.02 663.17 663.5 662.72 663.78 663.17 662.98 662.54 661.79 660.19 659.65 659.41 660.23 659.8 660.34 661.52 660.85 661.22 662.49 663.52 665.08 666.09 668.83 670.5 669.88 670.72 671.8 672.74 673.1 673.74 674 672.94 672.78 672.52 672.69 672.12 672.67 671.84 671.29 668.5 666.71 666.03 665.15 663.03 661 657.69 653.53 650.53 647.84 643 635.9 629.3 624.95 620.26 615.25 610.43 604.61 597.7 592.56 587.43 582.58 579.18 574.83 570.43 564.2 560.03 555.1 548.55 540.88 536.56 531.08 528.19 527.23 526.05 524.72 521.5 518.69 512.72 507.82 503.82 499.57 494.57 489.52 484.73 479.51 475.37 472.57 468.41 464.43 462.05 458.68 456.72 456.25 455.25 454.57 454.3 454.14 453.45 453.17 451.45 451.48 451.3 450.94 450.29 450.03 449.7 450.08 449.46 448.95 447.16 443.8 438.45 436.19 435.17 434.8 434.57 433.26 9999
671.13 669.63 667.64 665.54 664.52 664.53 664.55 666.05 666.8 668.29 668.97 670.38 670.63 670.31 670.98 672.43 673.26 674.8 675.62 677.33 677.91 679.5 680.78 680.94 681.71 681.06 681.73 682.22 681.63 681.88 681.35 680.74 679.49 677.64 676.72 675.31 673.56 672.13 671.48 670.38 670.06 670.01 670.17 669.79 669.86 668.9 667.94 667.22 666.37 666.71 666.05 666.31 666.94 665.51 666.51 665.98 665.9 665.34 664.21 663.33 663.36 662.33 663.27 664.2 664.8 665.36 665.55 666.94 666.49 667.32 669.53 671.5 672.98 674.74 675.25 677.01 675.84 676.55 677.21 677.25 677.99 678 678 676.2 675.32 674.85 674.41 673.77 672.69 670.05 667.46 665.48 662.81 660.33 657.41 652.49 649.65 645.73 639.71 634.88 628.69 623.48 619.15 613.8 606.65 599.68 595.59 590.57 584.71 578.36 573.79 566.34 563.25 557.73 557.08 552.27 546.05 537.89 531.39 527.18 523.69 523.91 522.77 520.38 517.09 510.72 508.28 503.65 499.2 497.1 492.94 488.09 483.03 479.21 475.52 471.06 468.24 464.35 462.25 459.77 457.83 457.16 456.9 456.06 454.94 454.76 453.52 453.09 452.92 452.32 452.15 451.43 450.43 450 449.88 449.14 448.71 447.26 446.25 443.39 437.55 437.18 436.31 434.64 434.92 433.54 9999
666.88 664.94 664.14 664.47 663.92 664.19 664.51 665.45 667.07 668.46 669.83 669.76 669.91 670.51 671.02 671.83 673.07 674.47 675.58 676.98 677.78 679.62 681.41 682.24 682.46 683.16 682.78 682.66 682.84 682.84 682.21 681.47 680.31 678.86 676.99 675.39 674.18 673.47 672.8 672.38 671.9 671.59 671.49 671.37 671.8 671.01 670.94 669.95 669.65 668.67 668.75 668.36 668.68 669.06 669.84 670.35 668.33 668.83 667.46 667.03 666.9 667.79 668.01 667.92 668.26 668.29 668.33 670.23 670.82 672.59 674.2 674.37 675.79 677.66 679.28 680.28 680.91 681.64 682.34 681.04 681.19 681.11 681.34 681.29 680.68 679.79 678.34 675.91 674.18 671.66 668.04 665.72 663.3 659.25 656.27 651.8 648.36 643.26 639.25 633.17 626.77 622.15 616.99 609.44 603.95 598.04 591.95 585.94 580.03 576.26 568.16 563.58 559.24 554.14 549.86 545.41 540.4 533.37 529.77 524.92 521.34 519.63 518.06 515.25 512.56 508.45 504.67 500.69 496.95 492.29 489.23 485.42 481.65 478.18 475.37 471.1 467.85 465.35 462.79 460.25 458.57 458.58 457.79 456.98 456.07 455.34 455.26 453.76 453.74 452.58 452.15 451.26 450.2 449.18 448.84 448.09 447.5 445.8 440.07 438.91 438.67 437.59 436.99 436.44 434.67 433.77 433.92
664.35 663.49 663.43 663.46 663.79 664.17 664.83 666.03 667.83 668.96 669.16 669.7 670.06 670.09 671 671.22 672.05 673.6 675.56 677.12 679.27 680.57 681.19 682.55 683.45 684.03 683.86 683.71 683.31 683.23 682.21 681.7 680.85 679.51 677.34 676.17 675.02 673.89 673.19 673.11 673.17 673.17 673.56 674.1 673.31 672.54 672.52 671.86 671.55 672.17 672.45 672.06 670.75 671.15 671.24 672.12 672.7 673.37 673.52 670.44 670.18 670.77 671.17 671.92 672.53 673.01 672.62 672.55 674.01 676.1 677.37 679.05 680.51 682.13 683.38 683.63 684.14 684.87 684.73 685.17 685.44 686.21 683.71 683.74 682.84 681.9 680.42 677.45 674.84 671.69 668.82 666.03 662.82 658.14 654.26 650.19 645.79 641.39 636.19 630.59 624.8 620.03 611.28 605.25 600.34 594.85 589.1 583.19 577.02 569.02 564.14 559.1 556.19 551.17 546.17 542.62 535.26 530.42 525.9 522.49 519.67 516.1 514.28 511.46 508.33 504.15 500.2 497.42 493.92 490.61 487.27 483.76 479.88 476.65 472.96 470.68 468.24 465.6 463.1 461.57 460.39 459.54 458.3 457.38 456.32 455.98 456.37 455.35 454.37 453.18 451.85 450.25 448.91 446.86 444.96 443.01 442.32 440.94 439.11 438.1 438.63 437.21 436.13 436.45 435.2 433.94 9999
663.44 663.52 663.34 663.51 663.86 664.91 666.05 667.05 667.8 669.19 669.26 669.86 669.64 669.91 670.43 671.61 671.87 673.61 675.06 677.97 678.96 680.52 682.04 683.2 683.86 683.87 684.02 684.53 683.87 683.71 683.05 682.57 680.49 679.38 677.22 675.74 675.16 674.84 674.23 675.03 675.21 674.29 674.3 674.6 675.31 675.12 674.97 674.18 674.55 674.63 674.72 674.56 674.46 674.63 674.86 675.02 675.08 676.13 676.66 677.12 673.82 675.52 676.11 675.19 676.16 675.97 676.65 677.3 678.85 679.98 680.12 681.66 683.38 684.69 686.12 687.6 688.51 689.53 688.08 688.46 688.44 688.57 687.63 686.79 685.25 683.29 681.94 678.3 675.09 672.15 668.78 665.22 661.14 657.69 651.95 648.02 642.73 637.43 631.52 625.22 622.27 614.03 607.38 601.95 595.69 590.21 584.67 579.38 572.71 567.5 561.84 556.62 551.3 547.11 542.02 537.14 532.21 527.93 523.74 519.72 516.04 512.03 508.42 507.39 503.93 499.8 496.68 493.46 488.62 485.41 483.16 481.17 478.01 475.58 472.76 469.95 468.02 465.38 464.32 462.57 460.95 460.42 459.18 458.23 457.24 456.46 456.36 455.53 454.68 452.79 450.18 447.56 446.7 445.81 443.78 441.77 441.6 442.16 442.64 443.22 442.6 441.5 439.44 435.54 435.23 433.99 9999
662.6 662.8 662.99 663.7 665.29 666.48 667.23 667.66 668.22 668.73 669.89 669.97 670.27 670.53 670.7 671.2 671.78 674 675.1 676.99 678.68 680.49 681.82 683.08 683.4 684.45 684.09 683.37 684.05 683.51 682.47 680.91 679.9 678.15 677.09 676.13 675.33 674.68 674.99 676.03 675.85 676.33 676.48 675.96 675.87 676.48 677.19 677.49 676.79 677.49 677.38 676.49 676.82 677.11 677.05 678.08 678.61 679.19 678.9 679.21 677.58 678.43 679.16 679.1 680.62 681.03 679.55 680.7 682.01 682.66 684.26 685.74 687.14 687.77 688.8 690.67 691.24 691.94 692.35 692.34 691.98 691.14 690.29 689.46 687.49 685.44 681.72 679.02 676.36 672.45 668.55 664.86 660.7 653.99 649.24 644.09 639.36 634.37 628.04 622.06 614.33 608.06 602.85 597.2 592.82 588.07 582.68 575.95 570.28 564.6 559.35 554.51 549.1 544.33 538.21 534 528.79 524.74 520.64 517.98 512.34 508.47 505.14 502.02 498.68 495.82 493.8 490.06 487.25 484.31 481.03 479.24 477.18 474.73 471.89 470.02 468.02 466.1 465.16 463.77 462.94 460.93 460.17 459.29 458.66 457.45 457.12 455.59 453.5 452.4 449.98 447.23 445.89 444.52 444.21 444.1 445.27 445.5 446.02 445.85 446.07 444.63 440.71 435.27 434.86 433.7 9999
662.59 662.89 663.09 664.14 665.34 666.52 666.89 667.89 668.67 668.88 670.17 670.1 669.84 670.44 671.02 671.3 672.24 672.81 674.37 674.87 677.03 678.8 680.2 682.48 683.26 683.89 683.08 682.83 682.58 681.99 680.38 679.95 678.2 677.3 676.04 675.05 674.99 675.32 675.87 676.87 677.1 676.89 677.68 678.21 678.43 678.2 678.57 678.65 679.42 679.15 679.8 679.68 679.59 679.5 679.07 679.6 680.82 681.8 682.31 682.72 682.67 680.97 681.92 682.65 682.59 683.7 684.64 684.56 685.99 685.42 687.11 688.96 689.28 690.89 692.28 693.35 694.49 693.98 694.48 694.45 694.28 693.57 692.17 690.98 688.03 685.11 682.59 679.06 676.23 671.9 667.89 663.37 657.4 652.24 647.05 642.18 636.44 630.53 623.55 616.42 611.6 605.31 600.08 594.72 589.85 582.92 578.26 573.06 568.32 562.43 557.12 552.45 544.88 540.72 536.76 531.9 527.12 523.61 519.03 513.7 510.36 506.12 503.11 500.63 497.37 494.35 490.56 487.94 485.33 482.7 481.2 479.07 477.09 474.75 472.92 471.15 469.48 467.18 465.87 464.66 463.55 462.2 461.62 460.56 459.1 457.67 456.67 454.84 453 451.44 449.68 447.73 446.53 445.69 445.86 446.68 447.7 448.71 448.45 447.12 447.01 445.23 441.75 435.16 434.01 433.71 9999
663.22 663.67 664.25 664.95 665.84 666.1 667.4 668.61 669.49 669.78 669.96 669.8 669.95 670.68 671.04 671.14 671.51 671.68 672.06 674.3 675.53 677.24 679.37 680.67 680.98 681.6 681.44 681.77 681.15 679.17 678.39 677.01 675.42 675.22 675.16 675.03 674.87 675.22 676.36 677.22 678.1 678 678.12 678.9 679.12 679.7 680.14 680.46 680.39 680.75 681.47 681.13 682.04 682.07 681.84 682.61 683.88 683.27 683.69 684.73 684.16 685.04 685.77 686.2 687.31 686.53 687.51 688.02 688.85 689.38 691.41 692.18 691.48 693.07 693.98 695.17 696.24 696.74 697.91 697.38 695.95 694.57 693.41 691.17 688.4 685.28 682.87 679.37 675.22 672.13 667.2 661.08 655.31 649.84 643.94 639.55 633.45 625.23 618.46 612.34 606.82 601.18 597.01 593.12 586.93 581.71 576.79 570.82 565.58 560.31 555.8 549.34 544.63 538.65 533.63 529.78 525.35 522.01 517.18 512.89 509.7 506.42 503.24 500.82 497.52 493.63 491.34 488.59 486.32 484.26 481.99 480.34 476.73 475.01 472.85 471.66 469.65 468.69 467.09 465.17 463.98 463.25 461.52 459.94 458.7 457.92 456.36 454.78 453.18 450.66 450.63 449.38 448.84 447.25 448.22 448.15 448.48 448.98 448.97 448.3 448.43 445.4 441.4 436.01 434.09 433.76 9999
662.72 663.24 664.21 664.98 666.12 666.68 667.52 668.46 669.64 669.77 670.18 670.22 670.69 670.79 671.45 671.44 671.62 672.03 672.64 672.6 673.74 675.82 677.49 678.19 679.18 679 679.96 678.5 677.56 676.29 676.05 675.06 674.77 674.15 674.46 674.41 674.56 675.06 675.65 676.55 677.89 678.91 679.2 680.14 680.45 680.31 680.69 681.38 682.82 683.04 683.6 684.32 684.5 683.39 683.86 684.47 684.97 685.5 687.46 687.88 686.61 688.34 688.32 689.41 689.84 690.22 691.43 691.94 690.7 692.26 693.01 693.61 694.93 695.18 696.55 697.3 698.52 698.97 698.88 698.33 697.53 695.97 694.34 690.96 688.34 684.73 681.1 678.79 674.2 669.07 664.78 659.2 654.01 648.33 642.76 636.11 627.96 621.82 616.96 610.83 605.43 600.33 596.09 590.41 586.33 581.15 576.81 570.8 565.39 560.37 553.94 548.67 544.09 538.93 534.48 529.62 525.69 520.82 517.12 513.64 510.73 507.07 504 501.26 497.54 494.54 491.99 489.44 487.4 485.05 482.53 479.87 477.79 476.63 474.82 471.94 470.94 468.19 466.47 466.02 464.64 463.32 462.19 460.44 458.81 457.85 456.56 455.44 453.22 452.27 452.51 450.97 449.81 450.44 451.01 450.27 450.76 451.13 449.78 448.9 448.31 446.79 442.63 435.82 433.6 433.37 9999
662.85 664.4 664.06 664.8 666.04 666.82 668.03 669.27 669.21 669.51 669.55 669.75 670.36 670.91 671.07 671.52 672.23 672.48 672.54 673.06 673.5 674.28 674.68 675.28 675.78 676.44 676.32 675.92 675.44 675.02 674.71 674.36 673.38 9999 9999 9999 674.78 674.76 675.67 676.54 678.12 679.38 679.88 680.86 680.77 681.66 682.3 682.85 683.63 684.07 685.24 685.7 685.75 685.86 686.55 687.5 686.79 687.78 688.58 689.25 690.51 691.59 691.69 692.09 692.61 693.06 693.71 694.42 694.68 695.74 696.31 695.71 695.97 696.63 697.83 698.54 700.15 700.33 699.68 699.55 697.82 694.65 692.88 690.45 687.28 683.72 681.52 676.69 671.91 667.85 663.11 658.11 652.28 646.79 641.15 632.94 627.58 621.27 615.89 609.7 605.54 600.3 594.9 591.42 587.11 582.76 576.25 571.73 566.35 559.31 554.64 549.13 544.66 539.68 535.05 531.21 525.18 521.17 517.84 514.7 511.14 507.78 504.92 501.03 497.72 494.88 492.44 490.87 488.21 485.03 483.85 481.12 479.14 477.5 475.01 474.45 470.79 469.35 468.39 466.65 465.23 464.1 463.11 460.95 460.2 458.39 456.72 455.78 454 453.63 452.72 452.28 453.27 452.96 451.95 451.77 451.93 451.35 450.44 449.62 448.63 447.52 442.62 435.77 433.65 433.16 9999
662.72 663.55 664.52 665.42 666.62 668.06 668.26 669.41 669.7 669.85 670.26 670.4 670.63 671.29 671.04 671.45 672.52 672.88 672.85 673.15 674.12 674.09 674.41 674.84 675.13 673.15 674.79 674.73 674.95 674.29 673.87 9999 9999 9999 9999 9999 673.29 673.76 675.54 676.61 678.6 679.57 680.8 681.6 682.32 682.7 683.93 684.12 684.85 685.22 686.18 686.84 687.32 687.96 688.45 688.83 689.56 689.97 690.91 691.18 692.4 693.65 694.25 695.18 696.49 697 697.88 697.29 696.94 697.33 698.34 698.35 698.41 698.42 698.34 698.71 699.43 700.48 699.81 699.37 697.09 694.55 692.17 689.52 686.21 683.1 680.08 674.89 670.73 666.44 661.61 656.8 651.22 645.01 638.35 633.16 627.4 621.79 615.67 610.23 604.76 600.43 596.84 592.62 588.36 584.74 578.26 571.93 564.84 559.94 555.27 550.77 545.44 541.1 534.44 530.31 526.02 522.96 519.18 515.41 512.16 507.32 504.7 502.22 499.5 496.23 493.69 491.14 487.71 486.1 484.33 482.16 479.84 477.99 476.25 473.53 471.75 470.74 469.17 467.78 465.83 465.12 462.63 461.04 460.37 459.18 458.15 456.22 454.27 454.71 453.67 454.15 454.55 454.26 453.67 453.17 452.43 452.21 451.03 449.83 448.73 446.39 441.86 434.8 434.34 433.3 433.68
662.34 663 664.43 665.38 666.77 667.49 668.38 669.01 669.75 670.34 670.51 670.29 671.06 671.32 671.71 672.17 671.91 672.95 673.4 674.03 674.36 674.31 674.42 674.74 674.82 9999 9999 673.19 9999 9999 9999 9999 9999 9999 9999 9999 674.65 675.95 676.15 676.86 678.07 680.14 681.81 682.29 683.45 684.55 684.36 684.91 685.74 686.61 687.63 688.13 689.03 689.38 689.79 690.34 690.63 691.6 692.8 693.64 695.1 696.38 696.42 697.07 698.46 700.16 700.31 700.09 700.21 700.01 699.81 699.61 699.24 700.09 699.88 700.19 700.42 700.74 700.36 698.81 696.8 694.61 691.85 688.06 684.95 682.76 677.55 673.88 669.48 664.91 659.67 654.15 649.92 642.03 637.16 632.46 627.9 621.92 616.36 610.6 603.62 601.03 596.71 593.77 589.63 587.08 578.35 572.01 565.81 560.28 555.54 550.58 546.17 539.81 536.24 531.43 527.62 523.9 519.98 516.48 512.79 509.08 506 503.44 499.88 497.28 494.16 491.18 489.72 487.21 484.98 482.74 480.76 478.83 477.28 474.92 473.16 471.37 469.66 468.51 466.51 464.79 463.13 461.87 460.85 459.28 457.82 456.04 456.62 455.66 455.52 456.32 455.49 455.61 454.3 453.49 452.78 452.36 450.84 449.7 449.19 446.03 439.81 435.51 434.21 433.93 433.99
662.51 663.07 665.04 665.73 667.13 667.79 668.76 668.89 669.69 670.27 670.93 670.61 670.7 671.69 671.61 672.02 672.91 673.25 673.81 674.02 674.01 674.42 674.3 673.49 674.04 9999 9999 9999 9999 9999 9999 9999 9999 9999 9999 674.98 674.85 675.25 676.48 677.92 679.31 680.97 681.88 682.5 683.52 684.53 685.35 685.77 686.96 688.19 688.67 689.6 690.06 691.15 691.24 692.04 693.14 694.31 694.19 695.3 696.32 697.34 698.83 699.97 701.62 701.73 702.36 702.2 701.86 701.32 701.07 700.69 700.61 700.34 700.82 701 699.99 699.45 699.56 697.98 696.21 693.61 690.41 688.03 684.74 680 676.43 672.54 668.31 663.24 659.48 652.04 646.52 641.92 636.97 632.44 628.18 623.34 614.48 610.51 605.47 600.49 596.67 593.78 590.97 586.76 580.35 573.99 567.69 562.13 556.29 551.48 545.08 541.2 537.81 533.52 529.39 525.32 520.9 516.44 513.52 509.27 506.67 503.83 501.23 498.99 494.77 492.54 489.37 487.77 485.87 483.45 481.78 479.89 477.89 476.59 474.59 473.39 470.78 469.47 466.89 465.15 463.57 462.29 461.47 459.62 458.08 458.09 457.91 457.31 456.41 456.97 456.62 456.21 454.6 454.17 453.15 452.4 451.57 449.93 447.88 444.64 440.77 435.85 434.66 433.95 434.48
662.38 663.87 665.01 665.83 667.47 667.83 669.24 669.7 669.42 670.43 670.65 670.69 671.34 671.41 672.47 672.84 673.4 674.11 674.54 674.38 674.58 674.77 9999 9999 9999 9999 9999 9999 9999 9999 9999 9999 9999 674.26 674.54 675.54 676.13 677.17 677.88 678.65 679.63 681.01 682.76 683.53 684.35 685.1 686.09 686.62 687.42 688.92 690.15 690.56 691.47 692.26 692.31 693.72 694.53 694.96 695.99 697.71 698.42 699.35 699.85 700.99 703.01 703.24 703.62 703.84 702.56 702.08 701.82 701.79 701.08 701.6 701.01 700.8 700.79 699.87 698.58 696.85 694.54 692.37 689.48 684.82 682.3 679.15 675.67 671.42 666.72 662.38 656.42 651.01 646.14 641.67 637.26 633.1 629.49 622.48 618.47 611.98 606.92 601.91 598.27 594.37 591.15 588.58 581.79 575.2 568.99 563 557.83 551.25 547.31 543.69 538.48 534.73 529.62 526.07 522.11 518.33 514.73 511.44 508.49 504.94 502.32 498.35 495.48 493.46 490.79 488.18 486.42 483.45 482.8 480.99 479.75 478.76 476.07 473.82 471.31 469.78 467.93 466.51 465.4 463.68 461.97 459.54 459.88 459.55 459.27 458.73 458.83 457.56 456.97 455.95 455.74 454.99 454.52 453.66 451.05 449.93 447.91 445.3 440.62 436.32 435.15 433.88 434.15
663.63 664.84 665.6 666.33 667.85 667.72 669.18 670.39 670.29 670.95 671.87 671.61 672.55 672.83 673.5 674.42 674.72 675.61 675.15 675.35 676.31 675.65 674.96 674.41 9999 674.55 674.59 674.86 674.6 675.23 675.6 675.14 675.61 675.54 675.75 675.95 676.58 678.11 678.79 679.81 680.15 681.72 683.1 683.62 684.68 685.68 686.11 686.61 687.96 689.18 690.39 691.15 692.97 693.57 693.96 695.88 695.42 696.89 697.42 698.48 699.47 700.55 701.85 703.69 703.79 704.28 705.12 703.98 704.4 703.31 702.21 701.83 702.22 701.83 701.32 699.94 699.44 697.92 696.14 695.18 692.97 691.01 686.99 683.98 680.86 677.66 673.72 670.2 666.28 660.53 655.59 651.22 646.42 641.81 637.38 633.64 627.81 624.34 619.65 614.21 609.79 604.94 600.07 594.95 592.42 590.06 584.85 579.32 572.44 564.27 557.11 552.09 548.28 543.98 539.82 536.05 532.54 527.24 523.28 519.74 516.52 513.13 510.52 505.94 502.19 499.32 497.01 494.26 490.89 489.15 487.27 484.99 483.56 481.38 480.7 478.17 476.64 474.44 472.84 470.63 469.24 467.74 466.24 464.57 461.97 462.24 460.65 460.9 460.61 460.53 459.61 459.1 458.3 457.45 456.35 455.38 455.48 454.77 450.86 449.78 448.37 445.72 442.49 436.92 434.46 434.8 434.28
663.98 665.19 666.23 666.94 668.68 668.69 669.75 670.03 671.58 672.1 671.84 672.54 673.51 674.14 673.71 674.44 675.39 675.77 676.41 677 677.51 678.08 676.93 676.31 677.58 677.32 677.47 676.92 676.28 675.48 675.95 676.12 676 676.88 677.33 678.38 678.93 678.91 680.23 680.4 680.7 681.33 682.76 684.26 685.92 685.72 686.15 688.01 688.42 689.09 690.45 691.62 692.56 694.15 695.94 696.68 696.83 698.22 699.33 700.35 701.21 702.13 702.92 703.95 704.42 705.76 706.22 705.44 704.38 703.19 702.31 702.36 702.2 701.87 700.67 699.82 698.37 696.79 694.19 692.72 690.55 687.36 685.61 682.59 679.49 676.63 672.39 669.09 663.84 659.42 655.18 650.5 646.36 642.04 638.52 632.7 629.02 624.84 620.23 615.18 610.62 607 601.64 598.09 595.19 590.75 587.11 581.9 574.63 564.79 558.42 553.73 549.8 546.5 542.08 536.54 533.05 529.81 525.5 521.97 517.98 515.1 511.21 507.82 504.44 501.15 497.82 495.07 492.38 489.6 487.86 486.3 484.61 483.64 481.79 479.71 477.31 475.63 473.88 472.47 470.77 469.23 466.92 464.36 463.97 463.48 461.09 462.44 461.75 462.03 461.34 459.72 459.72 458.28 457.23 456.6 456.11 454.06 451.65 450.14 447.68 446.26 444.11 436.77 434.7 434.81 434.38
664.77 666.39 666.97 667.58 668.32 669.33 670.38 671.69 671.81 672.55 672.96 673.76 674.22 674.66 675.37 675.38 675.89 676.57 676.89 677.5 679.09 678.49 679.08 679.7 679.8 679.31 679.24 679.42 677.85 677.58 677.88 677.82 677.6 678.01 678.27 679.2 679.45 679.97 681.14 681.22 681.59 682.61 683.13 684.1 685.69 686.16 687.37 688.26 688.81 688.93 690.38 691.38 693.28 695.38 696.53 697.02 698.61 699.44 700.83 702.05 703.18 704.25 704.38 705.43 706.48 706.21 707.39 706.55 705.42 705.12 703.47 703.54 702.86 701.56 699.85 698.36 696.06 692.98 692.9 690.38 687.58 685.73 682.76 680.35 677.31 675.2 671.46 666.91 663.45 659.66 654.96 651.36 646.85 643.28 637.51 632.74 629.94 625.93 621.36 617.02 611.14 607.27 603.27 599.85 596.68 592.89 588.76 581.85 573.91 567.93 561.62 556.21 551.4 547.56 542.75 539.58 534.69 531.17 527.38 524.23 520.9 516.53 512.9 509.68 505.87 502.22 499.07 496.77 493.01 491.86 490.48 487.66 486.7 484.91 482.49 480.57 478.87 476.8 474.87 473.66 471 469.83 467.52 466.02 465.41 464.48 462.89 463.93 463.61 463.04 461.63 461.05 460.03 458.78 457.97 457.07 456.16 455.07 452.86 450.65 448.86 446.83 443.45 437.16 436.31 435.92 435.08
666.02 667.62 667.92 668.3 669.3 670.21 671.2 671.75 672.82 673.01 674 674.18 674.65 675.24 675.3 675.96 676.8 677.39 677.8 678.45 678.61 678.94 679.91 680.67 680.58 680.72 680.71 680.41 679.76 679.08 678.49 678.76 679.12 679.19 679.58 680.06 680.74 680.77 681.71 681.75 682.55 683.6 684.59 685.21 686.5 687.65 687.78 687.74 688.78 689.35 690.04 692.52 693.88 694.82 696.18 698.09 699.54 700.39 702.4 702.88 704.55 704.71 705.5 705.96 707.51 707.42 707.82 707.34 706.82 706.62 705.23 704.65 703.1 702.39 700.03 697.16 692.75 689.04 687.53 685.65 684.54 683.05 681.87 679.29 676.86 674 669.86 667.01 662.66 659.27 654.9 650.64 645.96 642.37 638.13 634.18 629.64 626.75 622.34 616.02 612.67 608.8 604.75 600.37 597.15 593.91 588.84 583.27 577.89 571.29 564.4 557.92 553.74 547.91 544.75 540.61 537 533.96 529.69 525.98 521.08 517.56 515.06 511.63 508.63 504.7 500.6 497.18 494.63 492.66 491.48 489.73 487.84 486.42 482.83 481.42 479.78 478.58 475.75 474.47 472.16 470.65 468.07 467.86 466.19 465.69 464.8 465.82 464.8 463.8 463.12 461.82 460.86 459.87 458.35 457.32 456.86 455.76 453.87 450.86 448.81 446.03 444.28 439.19 436.81 436.22 435.9
669.86 669.22 669.17 669.46 669.88 671.61 672.21 672.97 673.18 674.88 675.34 675.12 675.12 676.45 676.35 676.54 676.77 677.71 678.67 678.87 679.39 679.71 680.16 680.35 680.31 680.79 680.77 681.28 681 680.88 680.55 679.68 680.05 679.95 680.26 680.81 681.39 681.67 682.93 683.01 683.35 684.36 684.74 686.84 686.42 687.72 688.71 688.33 688.39 689.43 690.45 691.87 692.65 694.32 696.45 698.52 700.33 701.33 703.49 704.09 705.13 705.28 706.22 707.33 708 709.19 708.84 708.78 708.14 706.75 706.56 704.89 704.19 703.36 702.19 698.24 693.96 689.88 688.1 686.27 684.92 683.68 681.92 679.02 676.13 672.92 670.38 666 663.08 659.22 655.33 649.69 646.75 643.03 638.55 635.13 630.91 627.5 622.1 616.94 612.87 609.41 605.76 601.65 598.19 594.11 589.59 584.85 579.58 572.86 566.51 560.56 554.99 550.88 546.42 542.1 538.72 535.01 530.72 525.86 523.32 520.19 516.06 514.01 509.86 505.55 501.7 498.82 496.66 493.92 491.95 490.85 488.04 486.5 485.19 483.05 481.05 478.8 477.31 474.62 472.31 470.83 470.31 470 467.81 467.01 466.9 465.98 465.85 465.03 464.44 463.15 461.67 459.79 458.75 458.07 457.46 456.83 455.55 450.39 448.34 446.12 444.34 442 438.64 437.34 436.4
673.09 672.78 671.5 671.32 671.45 672.34 673.36 674.16 674.37 675.51 676.07 675.78 676.2 676.23 676.84 678 678.66 678.55 678.54 679.14 679.23 679.63 681.08 681.27 681.27 681.62 681.91 681.37 681.66 681.42 680.7 681.86 681.34 680.73 681.32 682.34 681.52 682.95 683.63 684 684.8 685.61 686.21 687.28 687.42 688.35 689.1 689.24 688.78 689.06 690.52 691.24 692.52 693.96 696.57 698.37 700.66 701.59 703.24 704.43 705.81 705.81 707.27 707.71 708.82 709.58 709.72 709.44 708.58 708.47 706.81 706.21 704.55 703.49 702.35 700.18 696.31 693.58 690.46 689.46 686.47 684.83 682.58 678.86 676.79 672.82 670.22 667.17 663.78 659.88 654.28 651.13 647.9 644.43 640.47 636.3 632.06 627.26 622.79 618.57 614.4 610.69 605.98 602.23 597.69 594.68 590.91 586.38 580.71 575.33 568.54 561.2 557.34 553.3 548.94 546.15 541.44 534.85 531.44 528.03 524.84 521.44 518.49 515.29 510.94 506.1 502.69 500.29 498.06 495.95 494.27 491.78 489.28 487.32 485.39 483.85 481.69 480.41 478.46 475.09 472.85 473 472.27 471.07 469.42 468.77 468.74 467.45 466.96 466.29 466 465.12 462.52 461.01 460.44 458.64 457.87 457.54 455.86 450.91 449.58 446.78 444.69 443.52 440.33 438.33 437.01
674.29 674.63 674.75 673.71 674.13 674.55 675.09 675.14 675.95 676.44 677.02 677.44 677.58 678.02 678.7 678.6 678.69 679.39 680.07 679.99 680.17 681.18 680.94 681.61 681.71 682.15 682.02 682.84 682.97 682.56 681.99 681.74 681.88 681.46 682.78 683.19 683.84 683.83 684.41 684.98 685.39 686.46 687.7 688.31 688.8 688.46 688.66 689.55 689.38 689.73 690.87 691.19 692.19 693.78 696.1 698.72 700.24 702.37 703.17 704.66 705.75 706.31 707.55 708.05 708.53 709.88 709.57 709.93 708.94 708.8 707.24 706.14 705.37 704.04 703.03 699.67 697.66 695.22 693.08 690.37 688.42 686.16 682.74 679.83 677.66 674.06 671.57 668.15 664.83 659.97 655.68 651.33 648.07 644.61 641.66 637.21 631.57 628.05 623.62 620.16 615.83 612.31 607.37 602.7 598.85 594.93 591.68 587.2 582.07 574.15 570.17 564.91 560.06 555.66 550.86 547.12 541.6 537.39 533.65 530.21 526.11 523.08 520.12 515.22 511.98 507.98 505.08 502.26 499.33 496.94 494.52 492.59 490.08 488.65 487.36 485.19 483.07 481.11 477.87 476.17 474.86 474.28 473.88 472.24 471.09 470.14 470.03 469.01 468.22 468.51 467.11 466.67 463.58 461.89 460.7 459.35 459.18 457.19 455.07 451.1 448.81 447.07 445.62 444.11 442.44 438.84 437.79
676.46 676.57 674.86 675.64 675.11 675.7 676.92 677.37 677.86 678.31 677.64 678.26 678.66 678.49 679.1 679.9 680.23 680.57 680.52 681.19 681.35 682.07 681.64 682.67 682.75 683.4 683.25 682.87 683.54 682.95 683.2 683.07 682.99 683.07 683.53 683.47 684.55 685.16 685.57 686.11 687.09 687.79 688.84 688.96 689.57 689.33 689.46 690.01 690.16 690.65 691.11 691.93 692.61 694.38 696.97 698.78 700.79 701.98 703.56 704.47 705.66 706.28 707.34 707.96 708.73 709.54 710.56 710.52 709.9 709.44 708.28 706.51 705.46 704.59 702.38 700.6 698.62 695.93 693.6 691.4 689.36 686.14 683.97 681.23 678.89 675.6 672.24 668.85 664.61 661.13 656.05 652.1 648.38 645.06 642.39 637.71 633.11 628.9 624.88 621.31 616.98 611.25 608.37 603.69 599.48 595.84 591.89 588.7 582.42 575.98 572.26 566.87 562.91 558.72 554.14 548.19 543.13 539.33 535.15 531.74 528.4 524.56 519.82 516.76 512.64 509.68 505.93 503.46 501.64 497.39 495.91 493.34 491.52 489.49 487.78 486.69 483.9 482.12 479.07 477.3 476.48 476.44 474.94 474.28 472.62 471.97 471.14 470.12 469.63 468.66 467.73 467.78 466.43 463.02 461.4 460 459.17 458.11 457.52 453.35 450.44 447.94 446.59 445.45 444.38 442.92 441.14
677.08 677.58 677.6 677.48 677.45 678.07 677.82 678.91 679.11 679.34 680.02 681.13 680.9 680.08 680.7 680.98 681.43 681.89 682.92 682.77 683.3 683.07 682.46 683.51 683.26 683.86 684.92 684.16 684.3 684.06 684.2 684.56 684.58 684.77 684.99 685.46 685.2 685.77 686.89 687.09 688.06 688.19 688.27 689.01 690.08 690.35 690.37 691.05 690.55 692.5 693.08 692.89 694.47 695.92 697.25 698.36 700.31 701.29 702.72 704.76 705.03 705.51 706.33 706.95 708.63 709.46 709.94 710.25 709.69 709.01 708.13 706.24 705.5 703.85 702.14 700.55 698.57 696.86 695.11 692.09 689.46 687.01 685.16 682.25 679.84 676.34 673.39 669.05 666.1 661.9 657.26 653.48 648.95 643.75 641.65 638.59 634.77 629.64 626.09 621.72 616.38 612.38 610.17 605.45 600.62 597.24 593.62 588.99 583.19 579.94 575.2 570.28 564.35 559.58 553.87 550.53 545.34 541.1 538.1 532.82 529.69 524.94 521.49 517.6 514.59 511.28 508.24 504.34 500.61 498.64 497.5 495.13 493.53 491.44 488.95 487.3 485.61 482.94 480.62 479.12 479.03 477.46 476.18 475.42 473.93 473.77 472.6 472.09 470.74 469.04 468.75 467.77 466.11 464.14 462.53 460.97 459.61 458.15 457.07 454.12 451.87 449.59 448.38 447.78 445.62 444.73 442.92
678.95 678.88 678.56 679.19 678.97 679.82 680.18 680.77 681.14 681.13 681.85 681.73 682.55 682.53 682.54 683.2 682.74 682.98 683.62 683.14 683.93 684.49 683.95 684.02 684 684.68 684.74 684.73 685.05 685.72 685.25 685.42 685.17 685.29 685.83 686.42 686.19 686.96 687.93 687.85 688.58 688.06 688.56 688.72 689.47 690.21 690.69 691.37 692.44 692.84 693.26 694.35 694.62 696.18 696.68 698.71 699.79 701.7 702.57 703.56 703.98 704.24 705.62 706.42 707.92 708.56 709.21 709.31 708.61 708.69 707.75 706.61 705.05 703.49 700.97 700.12 698.13 697.06 694.22 691.85 689.56 687.34 685.23 682.08 680.95 676.38 672.96 670.03 666.73 663.37 659.53 655.21 649.15 645.32 642.16 639.39 635.6 631.81 627.89 621.68 616.85 612.76 610.8 606.88 602.79 598.65 594.59 590.58 587.6 583.22 577.74 572.1 567.78 561.62 557.28 551.49 546.74 543.01 539.2 535.27 530.28 526.5 522.64 519.03 516.35 512.88 507.9 505.6 503.31 501.05 498.93 496.7 495.22 492.43 490.65 489.79 486.98 484.05 482.02 481.16 480.63 479.58 478.29 477.24 476.72 474.4 473.45 472.67 472.05 470.64 469.35 468.74 466.54 465.26 463.01 461.71 460.84 459.53 458.04 455.99 452.88 451.06 449.34 449.01 448.05 446.88 446.48
