538.65 535.27 533.23 529.56 526.28 522.15 518.2 513.34 509.62 506.46 503.55 502.29 501.8 500.32 499.09 498.98 497.34 496.38 494.22 493.97 493.31 492.44 492.49 491.67 491.7 489.87 491.17 490.75 490.8 492.3 494.56 496.85 497.85 496.15 497.78 498.18 499.46 498.47 497 497.15 494.56 493.17 492.46 493.43 493.14 491.62 491.18 489.03 486.85 486.58 487.33 486.43 483.16 481.96 481.21 480.21 478.36 478.47 477.23 474.6 473.02 472.44 471.35 468.47 467.72 467.58 468.44 468.55 466.73 465.8 465.41 460.37 458.94 457.35 455.39 454.72 453.05 452.07 450.57 448.17 447.5 447.67 446.95 446.8 446.06 445.79 442.94 442.15 440.95 440.33 440.47 438.59 439.17 438.02 435.05 433 431.73 431.35 431.49 430.34 430.2 430.04 430.54 430.54 428.63 9999 9999 9999 9999 9999 9999 9999 9999 9999 430.71 9999 9999 9999 429.26 430.1 430.75 430.58 430.3 431.13 431.31 430.88 430.76 431.44 430.76 430.84 428.88 9999 429.94 430.81 430.44 430.45 430.41 431.13 431.13 430.93 430.73 430.12 9999 9999 9999 9999 9999 9999 430.49 430.53 430.36 431.89 431.82 9999 9999 9999 9999 9999 9999 9999 9999 9999 9999 9999 9999 9999 9999
538.62 535.53 530.71 527.55 524.37 521.32 516.93 513.53 511.87 508.88 506.99 505.56 504.7 502.62 501 500.36 499.95 498.89 497.4 497.03 495.1 495.13 494.24 493.18 493.91 494.02 493.82 494.57 493.32 493.68 497.71 498.95 500.94 503.81 503.8 504.23 502.43 501.44 501.53 500.92 499.6 499.11 499.02 500.73 497.54 496.71 496.11 496.82 494.5 493.55 492.67 489.37 487.03 485 484.21 485.18 485.27 484.14 482.86 478.57 477.57 476.56 476.28 475.67 474.68 474.11 473.33 472.34 471.2 469.54 469.16 466.49 463.61 462.14 458.9 457.6 456.34 454.59 454.23 453.28 452.58 453 450.71 449.21 447.9 448.13 446.84 445.47 445.19 444.24 442.38 441.65 441.26 440.37 438.72 437.39 436.14 433.22 432.39 431.17 430.6 431.28 430.35 430.77 430.33 9999 9999 9999 9999 9999 9999 9999 430.29 430.32 430.79 429.43 9999 9999 9999 429.27 430.5 430.67 429.86 430.81 430.79 431.14 430.41 430.93 431.03 429.99 428.66 9999 429.72 430.31 430.79 430.87 430.97 431.29 430.93 430.92 430.65 430.5 9999 9999 9999 9999 9999 9999 9999 430.47 430.56 430.43 431.65 433.43 431.71 9999 9999 9999 9999 429.04 9999 9999 9999 9999 9999 428.89 430.02
539.22 534.79 531.06 527 523.78 521.36 518.39 515.82 512.05 510.43 508.89 507.59 506.05 505.18 504.13 503 501.57 500.1 499.16 498.9 498.17 497.85 497.4 497.69 496.15 496.96 496.58 496.62 497.41 498.17 501.22 502.17 503.75 506.64 506.26 506.89 506.37 506.64 506.25 504.47 503.79 503.07 504.19 504.4 504.58 503.12 502.97 500.94 499.4 498.43 496.35 494.47 491.85 491.41 488.89 488.34 490.66 489.75 488.19 486.42 485.94 485.97 481.44 479.66 478.25 478.98 479.83 479.21 477.67 476.11 473.21 468.63 467.43 465.64 464.44 463.04 460.79 458.48 456.38 456.26 455.61 456.05 455.22 454.2 453 450.57 448.86 447.66 447.84 447.05 446.28 445.42 444.32 441.81 441.63 440.95 438.82 436.96 436.32 433.75 431.14 432.64 432.76 431.79 430.64 9999 9999 9999 428.96 9999 430.93 430.29 430.39 430.66 430.3 430.17 9999 9999 9999 428.59 429.14 429.26 429.81 430.11 430.58 430.92 430.53 431.24 430.79 431 429.24 9999 429.73 430.6 430.4 431.18 431.19 430.79 430.96 430.89 430.62 430.63 430.46 9999 9999 9999 9999 9999 430.27 430.84 430.23 430.85 430.44 430.49 431.2 432.26 433.48 432.02 430.82 430.69 9999 9999 9999 431.77 432.81 434.42 433.64
538.53 534.84 530.97 528.09 524.82 522.65 519.58 515.62 513.77 513.1 511.55 509.57 508.5 506.84 506.09 505.39 504.77 502.71 502.69 501.14 500.53 500.23 500.93 500.08 501.01 500.41 501.37 499.72 500.59 501.43 503.69 507.23 509.77 511.7 511.27 510.01 509.95 509.72 510.31 510.2 509.17 509.59 506.91 507.39 508.25 506.93 505.99 505.85 504.94 502.74 500.31 497.69 496.85 496.01 495.92 496.68 497.16 497.59 494.28 493.26 492.81 492.1 490.7 489.41 489.57 484.9 484.51 484.11 482.63 480.29 477.47 473.91 471.76 469.31 468.23 466.91 465.27 463.25 462.77 460.93 461.06 459.38 458.29 457.01 456.05 455.12 454.61 452.5 450.7 449.75 449.18 447.79 447.04 446.28 445.8 444.48 442.08 440.86 439.14 436.48 436.13 436.11 434.19 433.78 431.62 430.91 430.81 430.52 431.42 431.13 431.05 9999 430.47 430.73 430.55 430.55 430.65 9999 9999 9999 427.93 428.88 430.49 430.54 431.19 430.73 430.42 430.72 430.4 430.65 9999 428.37 430.66 430.48 430.57 430.48 430.7 430.61 430.96 430.54 431.19 430.96 431.08 430.59 430.62 9999 9999 9999 430.96 430.91 430.19 430.9 429.67 430.26 430.81 430.87 430.91 430.86 432.49 434.8 434.73 434.67 434.41 434.07 434.33 434.07 433.58
537.48 534.69 530.98 528.91 526.76 523.79 520.49 518.21 515.97 514.24 513.63 512.11 511.2 509.37 509.37 507.19 506.81 506.05 505.25 505.05 504.88 503.99 503.63 502.76 503.64 504.49 504.19 505.38 504.89 504.91 505.37 510.48 514.09 514.47 513.95 514.89 515.02 516.32 514.37 514.26 513.74 514.35 514.63 513.25 513.82 513.26 511.1 509.51 508.38 508.14 506.51 504.92 504.83 500.74 500.47 501.85 502.68 503.93 505.58 506.48 507.79 503.82 501.97 500.24 497.57 494.13 492.01 491.02 489.56 483.96 481.57 479.3 476.69 474.4 472.99 470.99 467.53 466.77 465.67 464.61 464.25 464.39 462.15 460.64 459.36 458.67 457.14 455.74 455.73 454.18 452.93 452.23 449.72 448.36 448.11 448.31 447.43 446.46 444.6 440.62 439.55 438.88 437.65 435.79 435.21 433.81 433.54 431.11 431.79 432.4 432.51 431.85 431.62 431.08 430.62 430.5 430.34 430.75 430.53 9999 9999 9999 429.19 430.32 431.91 431.51 430.78 430.58 431.2 431.08 9999 9999 430.35 430.64 430.85 430.8 430.84 430.98 430.99 430.61 9999 430.57 430.66 431.21 431.41 430.65 430.99 430.38 9999 9999 431.3 430.49 430.38 431.03 430.45 431.45 433.78 435.05 435.42 434.97 434.64 434 434.2 434.34 433.54 432.71 432.89
537.9 536.36 532.65 529.89 527.19 525.15 522.44 520.33 518.78 516.35 515.55 514.28 512.83 511.6 511.67 510.59 509.5 508.94 507.46 507.32 507.84 507.58 508.06 508.5 508.65 509.76 507.98 508.19 508.92 509.57 513.18 516.64 518.71 517.82 517.78 518.66 519.47 519.45 520.82 520.57 521.75 518.94 518.3 518.09 518.25 517.27 516.83 516.8 516.83 512.81 512.41 512.09 511.77 509.94 509.81 510.64 507.72 509.46 510.71 512.47 513.88 512.24 511.04 507.14 501.55 499.08 497.38 495.54 492.35 489.43 488.1 487.74 482.99 479.54 476.56 474.8 472.88 472.54 471.24 469.4 467.58 466.78 464.7 465.2 464.19 462.81 460.65 458.56 458.27 456.24 455.42 454.54 453.85 453.4 452.34 450.37 450.88 450.37 450.15 447.96 445.94 445.03 440.83 438.97 438.26 437.24 435.57 435.32 434.97 433.66 433.64 433.55 432.98 431.91 431.97 431.01 430.74 430.7 430.06 430.11 9999 9999 9999 428.99 428.96 430.35 430.54 430.94 430.72 431.1 9999 429.32 430.44 430.38 431.1 430.89 431.3 431.11 431.16 431.66 9999 9999 9999 430.79 430.94 430.98 431.06 430.85 430.52 430.3 9999 430.28 430.59 431.37 433.61 433.97 436.03 434.65 434.7 434.63 434.95 434.13 434.54 434.04 433.65 433.16 431.63
539.94 537.81 534.9 531.59 529.91 528.07 524.77 522.57 521.25 518.18 517.46 516.89 516.53 514.4 513.77 512.77 512.17 511.08 510.98 511.25 512.09 510.14 511.16 511.11 512.16 512.84 514.76 514.25 514.29 514.4 519.02 521.01 522.82 523.16 522.85 524.48 524.88 523.31 524.22 524.6 524.72 525.09 524.64 524.38 522.61 523.11 522.54 521.87 521.43 522.29 522.86 523.06 518.42 517.34 516.01 516.52 517.96 517.55 520.52 520.05 517.51 517.67 516.8 515.21 510.71 506.68 504.5 499.23 496.71 493.31 491.77 491.05 488.24 484.37 482.73 478.39 477.84 476.76 474.81 474.02 472.7 470.45 470.39 468.34 467.5 465.7 463.64 463.25 462.48 461.29 458.17 457.69 457.31 456.39 455.41 455.09 454.77 455.11 454.11 453.52 451.23 448.97 444.99 444.28 444.15 440 439.49 437.96 437.21 436.8 436.76 435.79 435.59 434.41 433.29 432.69 432.33 432.69 431.89 432.2 431.09 430.59 9999 9999 9999 428.72 430.44 429.95 431.17 431.61 9999 428.98 431.69 430.51 431.02 430.59 431.18 431.2 431.17 431.23 430.88 430.89 9999 430.94 430.86 431.05 430.84 430.52 430.6 430.97 430.84 430.53 431.14 433.45 434.98 434.74 434.54 434.08 434.41 9999 432.78 433.53 433.76 434.04 432.83 432.27 432.52
542.13 538.52 536.19 534 532.02 529.73 527.06 525.51 523.4 520.75 519.93 518.84 518.93 517.62 517.45 516.65 515.88 514.53 513.81 514.85 514.18 515.52 515.23 516.73 515.83 516.41 517.48 518.52 519.38 521.7 527.99 527.39 526.36 526.46 527.23 527.73 528.76 528.94 529.82 529.73 529.48 529.21 528.97 529 530.14 530.24 531.53 528.41 528.36 528.78 529.75 529.88 531.54 530.32 528.07 523.61 522.49 523.22 525.66 524.96 524.91 525.42 524.23 520.16 516.83 511.69 509.22 505.71 502.74 500.53 497.92 493.85 491.6 488.44 486.25 485.33 482.77 481.16 478.44 476.68 475.43 474 474.04 474.8 472.81 471.01 466.7 466.51 465.56 463.97 464.08 462.08 461.85 458.94 458.69 457.45 458.16 458.75 458.18 456.42 453.93 451.48 449.62 447.7 446.51 444.2 443.14 440.7 439.91 438.89 438.77 438.34 437.93 437.18 436.99 436.44 434.72 434.46 433.21 433.66 433.14 432.41 430.97 9999 9999 9999 9999 430.74 430.51 431.03 9999 429.17 430.92 430.56 431.14 431.28 431.75 430.85 431.4 431.55 431.35 431.41 430.96 431.39 431.03 430.8 430.96 430.84 430.77 430.85 430.73 432.07 432.03 433.03 434.33 433.93 9999 9999 9999 9999 430.68 430.02 430.37 431.49 432.63 432.32 431.2
543.51 541.02 539.85 536.9 534.22 531.51 529.01 526.86 525.1 524.05 523.97 523.71 521.39 520.28 520.3 519.68 519.05 518.53 518.87 519.82 518.05 519.5 519.82 521.13 521.95 522.9 524.76 525.01 524.87 530.2 531.14 531.35 530.34 532.24 531.14 531.12 532.42 531.74 533.43 533.63 534.52 535.33 535.43 534.77 534.67 536.65 537.86 537.05 537.02 539.14 539.24 536.43 537.55 537.82 537.42 536.66 534.06 535.68 531.07 530.2 529.97 529.94 528.2 526.75 523.12 520.66 514.56 510.38 507.03 505.16 503.15 499.97 498.49 494.46 490.75 488.98 487.94 486.73 483.75 483.36 481.85 479.3 479.17 478.5 476.47 474.8 472.63 471.32 472.01 468.77 467.46 466.54 465.56 464.38 465.03 463.56 463.78 460.76 460.26 458.45 456.38 455.06 454.68 453.61 449.45 447.33 445.03 444.36 441.33 442.15 442.74 442.17 440.43 438.97 439.07 437.67 436.97 438.17 436.53 434.81 435.31 433.84 432.46 432.19 430.98 9999 9999 9999 9999 430.61 9999 428.52 429.37 430.64 431.45 431.1 431.16 431.07 431.36 431.12 430.79 431.27 431.4 431.03 431.31 431.9 431.24 431.56 431.64 431.32 431.01 431.12 431.12 431.42 431.04 9999 9999 9999 9999 9999 9999 9999 9999 430.85 431.93 432.32 431.61
545.02 543.71 541.39 539.21 536.57 534.05 531.4 529.63 527.81 527.09 526.24 525.24 524.43 524.16 523.61 522.56 522.2 521.68 521.92 522.95 523.85 525.31 525.83 525.09 526.21 526.96 529.53 530.78 531.69 533.74 534.94 533.14 533.43 535.58 535.73 536.35 536.99 536.81 536.7 538.35 538.16 539.78 540.51 542.63 543.64 544.65 543.51 544.2 544.85 547.35 545.97 547.79 548.13 548.04 544.5 542.86 539.88 541.31 540.79 539.33 538.19 537.58 534.12 531.11 528.42 526.04 522.4 518 517.07 511.27 507.56 506.01 502.61 499.78 498.33 497.05 496.07 490.25 489.47 488.25 487.16 485.6 485.45 484.71 483.97 478.84 477.21 475.58 475.84 474.49 474.24 472.6 469.02 467.69 467.93 467.19 467.08 465.87 463.13 461.5 458.9 457.59 456.61 456.55 454.08 450.48 450.31 447.42 445.34 445.61 445.42 444.31 443.9 443.06 441.56 438.96 438.89 439.37 437.81 437.53 436.5 436.37 435.86 433.77 432.63 431.98 429.9 9999 9999 428.26 9999 428.51 430.03 430.37 431.07 431.36 431.28 431.61 431.21 431.27 429.69 431.02 431.98 431.27 431.42 431.8 431.36 431.84 431.23 431.47 431.65 431.68 432.1 430.36 9999 9999 9999 9999 9999 9999 9999 9999 9999 9999 431.9 431.32 431.47
548.36 546.77 544.47 540.95 538.55 535.43 533.33 532.49 531.33 530.73 530.67 527.94 527.07 526.5 526.96 527.27 527.31 527.59 527.21 527.31 528.79 529.33 530.29 531.79 533.53 533.78 534.58 535.84 538.57 538.19 539.05 540.97 541.35 540.24 539.17 539.74 539.58 540.11 542.48 542.65 544.57 545.5 545.1 546.24 548.14 549.45 549.37 551.3 552.34 551.12 552.06 553.21 553.14 551.99 551.09 549.44 548.68 547.03 546.69 545.64 543.7 542.78 542.04 540.26 537.5 532.8 529.15 525.12 523.74 520 517.13 515.48 509.18 506.07 503.79 502.63 500.81 499.62 497.01 496.21 493.63 491.23 490.11 489.28 487.67 485.51 485.52 484.45 480.88 479.76 478.22 477.54 476.44 474.49 473.63 472.19 471.35 468.47 467.15 465.24 463.25 461.2 460.44 458.37 456.7 454.41 453.55 453.57 451.43 450.35 449.05 445.6 445.38 444.39 443.52 442.41 442.53 441.68 439.94 439.39 437.74 437.94 437 436.15 435.62 433.25 430.91 430.34 9999 9999 9999 429.24 429.06 430.45 430.92 431.13 431.29 431.38 431.57 431.67 431.17 431.46 431.61 431.69 431.79 431.83 432.5 433.36 432.76 432.69 432.39 432.4 432.26 9999 9999 9999 9999 9999 9999 9999 9999 9999 9999 9999 431.36 430.96 430.03
550.55 550.12 547.94 544.61 540.97 538.42 535.88 535.52 534.29 533.7 532.75 532.27 531.16 531.12 529.98 529.92 530.49 531.24 530.95 532.16 533.13 535.05 535.77 535.93 538.43 540.4 542.05 544.22 546.82 546.63 545.3 546.01 544.72 545.25 544.26 545.39 545.72 543.73 545.98 546.37 548.1 549.1 550.45 551.96 553.37 552.68 554.39 555.57 556.45 556.68 557.91 558.43 558.86 556.29 556.14 554.62 554.85 555.58 554.8 554.62 549.97 548.83 548.39 547.29 545 543.8 543.18 541.29 531.85 527.79 523.88 522.27 519.28 516.54 514.36 512.15 506.78 504.92 503.54 502.81 500.66 499.59 498.35 494.66 492.8 491.88 490.61 489.75 489.75 488.23 488.49 483.87 480.73 479.11 478.44 478.43 476.55 474.48 472.94 468.55 465.39 463.27 461.65 460.67 460.4 458.87 456.34 455.49 455.33 453.54 451.11 449.81 449.1 448.23 446.08 445.36 444.69 443.62 442.6 442.11 440.87 439.06 438.57 437.96 435.99 434.43 433.49 432.43 431.31 9999 9999 9999 429.37 429.93 430.61 431.05 431.58 431.31 430.98 431.11 431.51 431.85 431.73 431.64 432.1 433.49 434.37 434.44 435.58 435.48 435.44 435.28 433.43 9999 9999 9999 9999 9999 9999 9999 9999 9999 9999 9999 9999 430.61 431.13
554.43 553.24 550.24 546.39 543.17 541.57 539.49 539.26 538.26 538.47 535.72 534.32 534 534.37 533.69 534.07 535.49 534.93 535.87 537.18 538.57 539.71 540.79 543.42 546.62 544.87 547.74 549.18 552.71 555.2 556.51 557.82 554.57 549.55 549.02 549.39 549.72 550.28 551.83 551.8 551.35 552.31 553.79 555.3 556.23 558.46 559.27 560.47 560.26 561.22 562.44 562.08 562.86 563.6 563.62 563.61 560.26 561.77 562.61 562.89 561.1 561.7 561.26 557.54 552.39 550.36 549.91 546.9 543.57 539.69 536.04 529.72 526.55 523.57 520.94 519.58 517.27 515.25 513.09 509.15 506.82 505.25 505.41 503.26 501.6 500.97 496.5 495.35 494.03 494.54 494.08 493.5 490.76 488.69 483.32 482.28 479.56 478.29 476.88 473.68 470.63 467.6 463.99 462.82 463.4 462.34 461.85 461.22 459.72 456.65 454.55 453.23 452.2 450.79 450.18 449.18 449.52 446.64 444.72 444.12 442.45 441.6 440.69 439.45 437.82 435.47 435.11 433.5 432.78 431.32 9999 9999 429.08 429.27 430.37 430.58 431.4 431.71 431.28 431.52 432.14 434.51 434.58 432.77 432.56 431.84 432.49 433.5 433.15 432.87 432.58 433.15 433.89 434.43 9999 432.17 9999 9999 433.5 9999 9999 9999 9999 9999 9999 431.45 431.52
557.24 555.47 553.53 550.06 547.83 544.14 542.84 542.02 541.6 540.16 540.04 539.75 538.34 537.25 537.11 537.97 540.95 541.25 542.51 543.71 545.52 544.46 546.72 550.19 552.68 555.04 557.01 559.97 558.31 562.37 565.6 564 561.67 558.99 556.99 554.93 553.9 554.48 554.55 555.75 556.8 557.85 559.49 561.33 560.83 562.07 563.08 565.09 565.99 567.5 568 567.17 568.02 568.35 568.13 569.25 569.53 571.25 573.97 570.74 570.4 571.99 570.25 568.52 564.41 561.12 559.96 555 550.94 548.88 546.06 543.35 538.9 535.03 529.36 528.53 525.88 522.68 520.82 519.03 517.07 515.43 511.19 509.47 507.98 507.07 507.32 506.28 505.5 505.94 500.79 500.48 497.92 495.98 492.46 490.28 487.2 482.91 480.78 477.34 472.66 470.37 469.04 468.11 467.32 464.71 464.11 463.32 462.26 459.58 458.81 457.42 456.3 453.45 452.44 451.96 451.65 449.58 448.37 445.87 443.64 443.14 441.74 440.58 439.19 438.11 436.78 435.44 433.81 431.81 9999 9999 9999 429.28 429.11 430.45 431.03 431.23 431.38 433.89 434.91 434.8 434.89 434.41 433.9 432.82 432.16 432.18 432 431.71 431.83 431.76 431.19 431.25 431.24 431.08 431.06 431.31 431.51 430.79 9999 9999 9999 9999 9999 9999 431.09
560.31 558.07 556.12 553.14 551 548.83 547.36 547.38 544.29 543.72 542.67 541.94 542.16 542.16 543.04 543.91 544.26 544.86 546.47 548.62 550.41 552.31 556.51 559.01 559.23 561.33 562.63 566.21 568.5 571.72 573.88 569.44 566.57 562.57 562.13 560.48 559.03 558.98 560.84 558.78 560.21 561.84 562.65 564.93 566.36 568.53 568.79 568.87 570.13 571.37 572.91 573.68 574.93 576.37 578 575.55 576.92 578.99 582.25 583.31 584.22 583.23 577.66 576.16 571.6 569.46 568.95 569.15 567.79 563.84 556.6 553.42 549.9 546.43 544.7 540.27 536.1 533.82 528.04 526.2 523.82 522.79 521.87 521.13 519.14 514.12 515.73 515.79 514.97 514.73 513.78 511.42 507.76 503.1 499.82 496.63 492.46 489.77 487.1 482.85 477.17 474.28 473.25 471.13 470.96 469.87 468.5 467.62 465.5 463.23 461.36 460.25 458.53 456.8 455.75 454.54 453.15 451.29 450.23 447.8 445.92 444.84 443.28 442.31 441.11 439.59 437.99 437.18 435.32 434 432.57 9999 9999 428.24 429.64 430.79 430.34 431.6 433.83 434.87 434.39 435.12 434.3 434.49 434.2 433.54 433.95 434.69 433.68 432.45 431.54 431.62 430.18 431.07 431.31 431.74 431.03 431.47 431.18 430.24 9999 9999 9999 9999 9999 9999 431.26
564.84 563.16 561.39 558.4 554.86 552.38 550.65 550.49 550.15 548.83 547.28 545.11 545.67 546.33 547.1 548.21 549.51 551.83 553.26 553.06 556.45 558.54 563.14 565.59 568.11 569.25 572.97 572.12 575.79 575.88 576.77 575.93 572.9 572.23 568.48 563.44 563.12 563.33 564.27 564.71 565.84 566.51 566.81 568.9 570.72 572.07 573.38 575.56 576.74 577.67 577.16 578.38 579.46 580.27 582.56 585.79 588.26 588.66 589.41 589.68 589.64 588.24 587.47 584.84 584.03 578.03 577.56 580.94 580.35 578.44 573.91 571.62 568.62 558.99 554.54 549.97 545.71 542.14 541.68 540.73 537.7 531.71 531.01 530.21 529.36 528.84 528.47 530.01 525.75 524.04 519.92 516.12 513.17 510.57 508.49 503.67 498.23 494.78 491.52 487.24 484.2 481.93 480.34 478.79 474.05 473.89 472.81 470.11 468.77 466.66 465.58 462.66 459.69 459.07 457.66 457.45 456.38 454.73 452.58 449.84 448.07 446.45 445.35 444.66 442.71 441.42 438.74 437.1 435.97 434.58 433.13 9999 9999 427.81 429.21 430.5 430.85 431.01 431.44 432.31 432.05 433.22 434.03 434.37 434.33 433.84 434.08 434.24 430.21 430.14 430.9 429.17 9999 9999 9999 428.48 429.58 430.84 431.06 431.02 9999 9999 9999 9999 9999 430.53 431.29
568.24 567.08 565.07 563.35 560.9 558.28 556.92 555.45 553.83 552.21 551.6 551.36 552.3 552.51 553.58 552.5 553.84 556.64 559.63 561.88 564.33 566.94 569.7 571.87 574.54 576.34 579.21 580.96 582.51 581.71 581.54 580.36 577.64 575.06 572.06 569.7 568.94 570.52 568.23 569.36 570.48 571.13 573.21 574.6 576.29 578.71 577.61 581.07 581.66 583.68 584.8 585.99 588.05 587.13 588.79 590.59 593.93 595.12 597.36 598.22 598.95 592.84 591.89 591.67 592.58 593.22 594.33 595.02 596.37 591.43 588.12 585.84 581.66 574.76 570.65 566.66 555.28 552.99 550.76 550.1 546.22 545.36 544.59 544.3 539.26 538.29 538.19 537.64 536.87 536.49 531 526.24 518.7 516.61 514.36 509.38 506.11 503.26 500.25 493.78 490.45 488.37 485.64 484.26 480.66 479.73 478.4 474.44 471.72 469.32 467.51 465.26 463.54 462.72 460.33 458.68 457.08 456.18 454.14 453.11 451.01 450.33 448.08 445.55 443.94 441.13 440.07 438.48 436.58 435.81 434.08 432.21 9999 9999 429.35 430.14 430.54 431.26 431.82 431.36 431.7 432.69 433.6 432.95 432.9 433.26 431.08 9999 9999 428.39 9999 9999 9999 9999 9999 9999 9999 429.36 429.98 431.14 9999 9999 9999 9999 9999 430.92 430.95
573.98 572.5 569.39 567.24 565.02 563.4 561.61 561.67 560.07 558.56 555.61 555.71 556.7 556.51 557.96 558.77 560.33 563.53 563.61 566.03 568.61 571.43 576.33 579.06 581.28 583.82 582.73 583.72 584.11 584.78 585.29 585.01 583.62 579.36 578.31 575.46 573.87 574.29 575.09 575.16 577.09 575.59 577.5 578.76 581.1 583.03 584.71 588.09 588.49 587.78 590.52 592.68 594.37 596.4 599.23 601.72 602.65 600.61 601.47 604.11 603.37 601.86 601.44 604.92 600.28 602.02 603.89 603.91 604.13 604.24 602.19 600.62 591.52 587.86 581.46 577.3 572.25 567.85 565.29 563.04 555.64 554.49 554.59 554.77 554.99 554.36 553.76 547.5 545.05 542.24 537.85 533.85 530.32 527.68 523.98 514.91 511.61 509.28 507.22 504.63 501.31 499.05 492.19 488.59 486.5 484.05 483.1 480.31 477.73 474.62 470.21 467.88 466.78 464.85 463.2 461.43 460.8 459.8 457.3 455.19 453.82 452.45 450.68 448.64 445.72 442.47 440.66 439.77 437.98 436.83 436.04 434.33 431.66 9999 428.76 429.6 430.84 430.39 430.64 430.58 430.71 431.57 432.01 430.93 428.77 9999 9999 9999 428.49 9999 9999 9999 428.74 429.12 429.68 429.51 429.35 9999 9999 431 431.39 430.91 431.17 432.04 431.47 431.33 430.88
577.58 576.62 575.64 573.67 571.37 569.81 566.39 564.94 563.85 562.81 562.1 562.72 562.95 561.43 562.54 563.98 565.02 569.87 570.61 573.53 576.55 577.85 580.06 582.99 585.25 585.7 587.39 587.67 587.55 587.32 588.48 588.98 587.65 585.35 583.36 581.62 580.39 578.45 578.73 580.21 581.15 581.22 582.77 585.1 584.74 587.94 589.07 591.67 593.62 596.61 599.17 600.49 600.17 602.7 605.41 608.13 608.95 611.07 609.68 611.85 609.31 607.71 608.18 610.65 613.17 615.64 619.14 615.6 615.14 616.02 613.69 610.67 608.56 603.09 599.71 588.81 583.15 579.31 575.96 572.8 569.73 569.28 568.86 563.96 565.16 563.94 561.86 559.93 559.52 556.24 546.8 543.59 540.61 535.79 529.59 525.25 521.77 519.72 512.91 511.2 508.96 506.62 504.82 501.07 496.17 492.35 487.75 483.81 480.84 478.36 475.8 473.22 471.82 467.55 466.32 464.22 463.45 462.01 460.36 459.04 458.2 455.53 451.81 449.02 447.47 445.71 442.6 441.42 438.72 437.45 435.85 434.61 432.81 431.47 9999 427.54 431.03 429.87 430.14 430.94 429.61 428.72 429.12 9999 9999 9999 9999 429.29 429.92 429.8 430.67 430.75 430.49 430.64 429.8 429.75 429.76 429.21 9999 429.29 430.25 431.7 431.3 431.16 430.66 428.56 9999
583.85 580.6 579.52 577.81 575.76 573.66 572.27 570.71 571.04 567.44 567 567.65 568.2 568.36 570.05 570.95 571.96 572.41 575.79 577.74 581.41 583.99 587.12 588.39 587.76 589.11 589.28 589.8 589.96 591.35 592.93 593.73 592.03 590.82 588.43 587.45 586.51 585.66 585.67 587.51 585.46 585.55 587.65 588.78 592.85 594.58 595.81 598.55 598.94 600.78 603.35 606.35 609.76 611.13 614.27 613.35 613.78 614.68 615.16 616.35 616.96 617.27 621 617.95 621.78 624.65 628.84 630.28 631.34 632.5 632.27 622.47 619.31 616.41 610.22 606.47 600.5 594.68 587.19 582.41 580.4 579.09 579.46 578.85 581.46 582.48 573.01 571.42 569.12 564.79 560.23 555.02 550.94 545.64 536.24 533.4 530.96 528.21 524.06 521.23 517.19 511.58 509.22 507.05 502.88 498.67 495.02 490.15 487.26 482.38 479.46 476.81 474.49 471.88 469.7 468.26 465.67 463.3 462.37 462.25 460.11 457.86 454.86 451.74 448.6 447.23 444.27 441.93 439.93 438.19 436.03 435.08 433.5 432.34 9999 9999 430.18 429.52 429.41 430.05 428.33 9999 9999 9999 9999 9999 429.44 429.3 429.26 430.32 430.75 430.07 430.99 431.31 431.91 430.85 429.29 431.41 428.8 9999 429.52 429.18 432.83 432.42 431.74 9999 9999
586.94 586.4 584.85 583.7 579.63 577.43 575.94 574.75 575.34 574.29 574.93 574.78 572.97 572.77 574.43 576.06 577.45 578.57 582.23 585.22 585.09 587.97 589.77 591.76 592.8 592.57 593.12 593.65 592.74 593.89 596.33 596.72 598.08 597.78 595.97 592.56 590.94 590.54 590.44 591.48 593.24 593.26 594.3 594.65 597.32 599.91 600.95 603.98 606.74 609.27 612.49 612.36 615.67 617.66 619.79 621.27 623.41 622.86 620.51 621.19 622.6 622.93 628.09 630.02 633.22 637.03 635.78 638.92 640.25 639.95 642.24 640.5 637.44 632.46 622.32 618.52 612.42 606 600.61 598.91 596.28 589.96 590.44 589.66 589.67 590.15 588.19 583.73 580.43 573.34 568.37 560.87 556.65 552.57 550.28 546.9 543.07 535.17 531.3 526.7 522.32 518.34 515.68 513.47 508.22 504.15 499.52 495.79 492.01 490.47 488.13 485.01 479.44 475.66 473.89 472.13 469.99 468.61 466.65 464.87 460.67 459.44 456.26 454.35 452.11 449.87 447.58 443.7 441.35 439.19 437.06 436.02 435.19 433.96 431.28 9999 9999 9999 9999 9999 9999 9999 428.81 429.26 429.36 429.23 430.91 432.19 430.51 430.16 430.72 430.13 430.14 430.85 432.28 432.09 433 429.83 429.33 9999 429.42 430.06 429.28 432.97 432.98 430.4 9999
590.53 590.1 589.02 587.86 585.05 584.02 581.69 581.97 579.23 579.01 580.38 579.62 580.08 580.18 581.52 580.18 581.92 584.17 586.7 589.47 592.46 593.42 594.95 594.53 595.1 594.87 595.63 597.18 596.9 597.95 598.91 599.47 600.94 601.33 600.13 599.24 599.5 599.18 598.52 596.13 597.6 598.65 599.55 600.97 603.6 606.48 605.82 609.07 612.72 615.41 617.93 621.49 622.95 626.13 625.57 627.37 628.55 628.1 627.75 628.59 630.24 633.64 633.25 637.1 641.71 644.96 649.39 652.54 653.98 650.82 650.11 648.61 646.45 644.09 639.6 634.47 630.3 617.26 611.64 608.5 606.93 606.78 605.03 603.05 600.98 596.24 593.4 590.19 585.38 580.38 575.51 569.32 564.04 560.93 559.28 555.29 551.07 547.08 540.16 536.08 528.48 526.22 522.75 519.16 515.97 510.99 507.42 501.34 499.45 496.94 494.01 491.16 486.14 482.55 479.75 474.94 472.26 470.74 469.62 466.73 464.48 462.14 459.03 455.57 455.3 451.62 448.06 445.72 443.03 440.99 438.84 436.7 435.53 433.61 432.64 431.18 429.53 9999 9999 9999 9999 429.25 429.85 429.02 429.38 431.57 429.95 430.1 429.74 429.57 430.14 429.95 429.68 430.14 430.36 430.41 430.51 432.09 431.46 9999 428.54 430.06 429.44 429.21 431.92 432.65 9999
595.58 595.11 593.8 591.19 589.42 587.01 585.06 585.47 586.13 586.5 586.21 583.88 585.15 585.29 586.52 587.84 589.43 590.58 593.14 593.92 595.74 596.65 597.45 598.73 598.85 599.4 599.1 599.91 600.28 600.82 602.49 604.52 605.54 606.64 604.61 603.65 604.12 602.89 603.1 604.44 605.43 606.69 605.43 606.75 609.04 611.08 613.84 617.54 620.51 622.58 624.22 626.22 628.78 631.45 633.03 634.16 635.43 633.05 633.72 635.1 635.7 640.35 645.54 649.05 653.43 653.39 656.25 658 659.4 659.72 659.22 657.75 658.11 654.35 651.16 646.14 641 635.95 631.2 627.51 618.43 616.5 612.64 610.57 607.72 605.12 602.49 598.74 590.98 586.72 580.95 575.81 575.01 573.43 568.1 561.23 555.57 552.34 548.19 544.06 539.03 534.41 532 524.61 520.59 517.51 514.56 514.08 511.77 508.7 503 495.08 490.93 487.45 484.79 481.19 478.14 473.83 471.29 469.37 466.08 463.71 461.17 459.34 457.22 454.8 450.99 446.57 445.35 442.59 440.27 438.82 435.9 434.91 433.53 431.86 430.45 429.72 429.02 9999 429.59 429.25 429.15 429.66 429.22 429.43 429.79 430.26 429.85 429.97 430.09 430.45 430.13 430.04 430.42 430.13 430.85 431.11 430.23 431.34 9999 429.75 430.18 430.49 429.83 432.07 430.71
598.68 597.84 597.9 595.79 593.9 593 589.27 590.13 590.42 590.59 590.97 590.41 591.79 592.35 591.68 592.43 593.57 594.84 597.73 599.24 601.46 602.49 601.5 601.05 602.14 603.37 604.11 605.05 605.48 605.85 605.13 606.97 608.09 609.35 609.84 610.08 609.77 608.15 607.72 609.42 610.77 611.14 612.58 613.78 614.94 616.37 618.46 622.15 624.98 626.95 630.4 632.56 635.38 635.89 637.64 638.96 639.45 640.15 640.52 640.39 640.43 644.02 648.6 653.37 657.13 660.9 664.09 664.68 663.82 664.85 665.02 664.58 663.71 662.8 662.63 660.23 651.8 648.48 642.23 640.41 637.65 630.49 627.84 619.41 617.15 613.29 609.82 607.06 606.36 597.9 590.07 581.74 579.64 579.66 575.12 568.15 562.12 559.06 556.57 550.05 545.29 540.08 535.71 530.98 528.69 527.01 523.46 523.46 519.88 514.99 509.83 503.79 498.42 494.45 489.25 485.88 481.02 478.29 475.85 472.16 469.72 466.25 463.45 461.02 458.72 456.38 453.88 450.95 447.36 444.69 440.11 438.6 436.5 435.45 434.46 433.52 432.31 430.58 429.78 429.91 429.48 430.16 430.41 430.17 429.97 430.07 430.44 430.13 430.71 430.37 430.32 430.3 430.21 429.83 430.82 430.28 430.59 430.28 430.81 430.7 9999 9999 429.18 430.01 430.74 430.37 430.66
603.2 602.27 600.76 598.96 597.38 595.78 594.99 595.62 596.54 596.84 594.47 595.68 596.23 596.56 598.73 599.87 601.04 600.39 601.89 603.19 604.54 605.35 605.67 606.55 606.89 605.88 606.85 607.46 607.48 607.99 608.6 611.43 612.12 611.29 612.12 613.62 614.13 614.51 615.48 616.19 617.68 615.78 616.52 617.92 619.55 622.18 624.51 627.65 628.67 631.89 634.31 636.59 639.99 641.75 642.7 643.41 642.91 643.79 644 645.21 648.01 652 655.49 659.54 661.88 665.26 667.31 668.57 669.44 670.26 670.79 668.04 666.87 666.7 666.26 665.34 663.14 658.91 655.52 648.33 646.38 641.52 638.58 635.12 633.16 628.23 623.47 614.65 610.37 603.23 595.56 591.25 587.1 585.36 578.68 573.9 568.23 563.19 559.81 556.07 551.42 545.31 539.02 536.43 536.23 536.87 538.26 536.29 531.38 521.28 515.68 510.38 503.34 499.07 494.64 489.44 485.82 481.51 478 473.85 472.63 469.52 466.44 463.74 461.96 457.81 453.74 452.41 448.49 444.8 442.86 439.77 437.46 436.31 435.24 434.5 432.9 431.47 431.06 429.75 429.6 429.95 430.2 430.21 430.21 430.17 430.37 430.35 430.63 431.33 430.44 430.52 430.21 430.55 430.75 430.23 430.44 430.27 430.33 430.22 430.47 9999 429.52 429.52 430.06 430.76 431.23
606.16 605.94 604.64 603.33 601.73 598.94 598.67 599.47 600.22 600.67 601.05 601.68 602.35 601.65 602.8 604.69 605.62 606.87 608.44 608.68 609.86 608.13 609.25 610.27 610.77 610.38 611.43 611.98 610.15 610.04 611.48 613.53 614.27 615.14 615.69 617.28 617.5 617.87 618.85 619.69 620.91 621.94 623.05 623.76 624.37 625.98 628.5 631.78 634.94 637.54 640.13 640.82 642.66 644.51 645.94 646.23 647.6 648.49 649.38 648.56 652.43 656.6 659.42 662.87 666.6 669.83 670.7 670.5 672.48 673.37 674.5 675.48 674.76 673.12 670.87 668.76 666.95 664.02 661.89 659.14 656.8 655.21 649.67 644.96 639.88 637.16 628.29 621.36 615 610.88 602.83 598.13 593.61 590.99 588.59 586.8 582.79 571.06 563.57 558.17 552.84 550.15 547.24 546.86 547.38 546.49 546.3 541.51 538.48 533.07 526.72 520.03 512.82 504.18 499 492.52 489.06 487.06 484.7 481.56 475.96 470.63 468.32 465.18 463.08 460.23 457.57 454.61 449.21 446.51 443.73 440.95 439.25 438.61 437.65 435.07 434.26 432.98 432.16 431.18 430.34 430.34 430.44 430.15 430.39 430.31 430.57 430.36 430.75 430.52 430.5 430.29 430.3 430.7 430.37 430.84 430.79 430.85 430.18 430.22 430.02 9999 428.79 428.95 429.85 431.51 431.88
610.43 607.76 607.08 605.39 604.6 603.61 604.58 605.67 604.68 605.18 606.04 606.92 608.71 611.65 613.38 616.22 613.1 612.68 612.77 613.88 613.99 613.88 615.06 615.54 614.09 614.16 614.88 614.24 614.6 614.62 615.65 615.98 615.72 617.18 617.62 619.67 621.32 622.01 622.75 622.95 624.33 624.98 626.12 628.46 630.17 632.82 634.38 635.2 638.15 641.09 643.24 645.64 647.31 648.75 649.91 649.74 651.02 652.82 654.59 656.7 659.92 662.37 664.98 668.2 670.05 672.47 673.84 675.81 677.63 677.87 677.2 678.1 678.36 677.01 676.28 675.91 673.8 671.3 666.21 663.86 661.89 662.36 659.98 656.56 651.45 640.78 634.01 627.15 620.76 616.41 612.31 608.86 602.66 598.27 595.99 594.64 589.3 579.08 570.81 562.89 559.34 556.23 557.57 557.73 557.15 556.95 553.93 550.58 543.58 538.82 532.54 525.51 517.73 509.75 503.51 497.93 492.1 490.55 486.93 484.76 480.29 475.75 471.77 466.97 464.11 462.07 460.75 457.3 452.22 447.91 445.57 442.15 440.28 439.15 437.36 435.76 435.27 434.46 433.75 432.27 430.99 430.34 430.22 430.6 430.8 430.8 430.46 430.84 430.51 430.68 430.42 430.97 430.6 430.82 430.89 430.62 430.51 429.79 430.3 430.72 430.67 9999 9999 428.91 429.1 430.26 428.95
611.18 611.07 610.17 609.86 607.78 607.8 608.58 610.16 611.32 613.05 615.18 619.23 618.05 621.1 621.98 622.04 622.32 621.31 620.73 617.75 618.47 618.45 618.35 619.32 619.53 619.71 620.35 617.72 618.17 618.36 618.26 619.03 618.56 618.36 620.24 621.18 622.93 624.22 626.02 627.14 629.33 630.68 632.2 632.09 634.58 636.54 638.27 640.61 643.85 646.21 646.67 647.9 650.05 651.29 653.45 655.58 657.34 658.54 658.91 661.4 663.98 666.68 671.72 673.52 675.26 676.3 676.77 678.36 679.51 680.49 680.68 681.11 680.81 679.23 678.08 677.87 675.29 673.2 671.87 672.28 672.99 670.1 668.29 662.71 657.24 652.45 644.79 634.28 627.29 620.89 619.25 614.97 609.99 605.11 606.83 604.3 593.45 581.67 573.6 567.15 564.64 563.66 566.13 566.97 562.48 561.66 557.96 554.45 547.49 542.75 536.34 523.91 517.32 511.77 505.53 501.47 498.21 497.36 494.36 487.54 484.16 478.45 474.61 470.67 468.29 464.81 461.43 458.21 454.7 450.68 446.41 444.65 441.97 440.66 438.24 437.48 436.42 434.83 434.24 432.77 431.78 431.06 430.67 430.73 430.94 9999 9999 9999 430.73 430.79 430.09 430.68 430.71 430.22 430.54 430.32 431.05 9999 9999 429.4 430.76 430.33 9999 429.02 429.29 9999 9999
613.48 613.2 612.45 612.03 612.38 613.19 614.96 614.07 616.19 619.11 622.33 625.41 627.3 629.42 629.66 628 627.8 627.09 625.75 625.55 625.71 625.15 624.62 623.03 623.04 623.24 623.19 622.88 624.16 623.79 622.78 622.01 621.86 620.31 621.82 623.89 625.79 628 628.76 630.88 632.68 634.44 635.91 637.12 639.62 642.4 642.15 644.71 646.8 649.48 650.61 652.05 654.25 655.24 656.45 658.69 660.02 662.16 663.63 666.64 669.23 672.44 675.04 677.29 678.63 679.12 680.25 680.98 682.46 682.96 682.91 683.07 683.01 682.19 681.52 679.37 676.73 676.07 676.16 675.85 674.95 673.54 669.82 666.12 661.13 656.87 647.07 635.81 632.29 628.63 627.37 624.39 617 612.78 610.58 607.8 595.7 588.48 581.42 573.46 569.12 568.68 568.97 567.71 566.64 564.69 562 557.54 550.09 544.24 535.07 527.09 519.9 513.69 509.52 505.58 503.12 502.48 498.37 492.49 487.9 483.73 478.17 473.93 468.84 465.93 462.74 459.18 455.51 451.81 447.67 445.58 443.07 441.45 440.27 438.76 436.61 435.27 434.61 433.72 432.69 431.24 431 431.23 431.89 9999 9999 9999 430.38 430.44 430.6 429.41 430.9 431.13 430.81 430.31 9999 9999 9999 9999 430.22 430.61 431.07 9999 9999 9999 9999
617.19 617.37 616.99 614.78 616.49 618.2 620.77 622.24 623.98 624.91 626.21 629.48 631.63 633.08 634.51 635.21 634.37 634.05 630.93 630.39 630.29 629.08 628.91 628.3 628.18 628.36 626.51 626.83 627.38 627.93 627.39 627.65 627.23 627.03 624.67 625.9 628.22 630.67 633.2 636.74 638.19 638.27 639.18 640.68 643.24 645.54 648.16 649.21 651.47 651.75 653.68 655.7 657.12 659.61 661 662.48 663.27 663.91 666.26 668.92 673.16 676.12 678.39 680.54 680.32 681.62 682.32 682.91 684.5 684.92 685.48 685.79 685.16 683.88 682.92 681.73 680.73 679.61 678.38 677.18 675.99 673.24 671.24 667.28 663.73 656.61 645.82 638.2 636.02 634.2 631.34 628.72 628.24 624.89 619.8 609.42 601.6 594.79 588.58 583.82 579.05 576.81 571.81 569.55 567.74 566.16 563.48 561.02 555.13 544.79 537.39 528.73 521.51 516.39 513.02 512.44 513.01 508.86 501.7 497.16 490.91 485.9 482.08 474.52 470.75 467.18 462.42 460.56 456.48 453.74 449.4 446.53 445.28 442.92 440.72 438.75 437.01 436.15 435.5 434.73 434.43 433.56 432.58 432.02 433.9 432.31 430.75 431.54 431.29 430.94 431.74 9999 430.24 9999 431.21 430.59 430.24 430.36 430.37 9999 429.42 430.78 431.39 9999 9999 9999 9999
619.81 620.4 620.11 620.63 621.59 624.4 624.45 626.31 628.33 630.82 634.05 635.81 636.84 639.01 638.85 638.83 638.51 637.99 636.79 636.05 635.94 633.34 632.25 631.47 632.14 631.99 631.64 631.94 632.11 631.38 631.73 631.79 631.15 630.61 630.97 631.85 633.12 633.94 637.25 639.35 641.54 643.17 645.02 647.33 647.19 649.96 651.32 652.82 655.03 656.64 658.64 660.7 661.07 662.54 662.52 664.56 666.94 669.5 671.9 675.22 675.79 678.4 680.74 682.41 683.64 684.4 685.8 686.32 685.89 686.57 686.65 687.08 686.43 685.78 684.52 683.03 681.88 679.94 678.67 677.02 674.12 671.37 668.41 666.66 661.94 654.03 645.43 641.59 640.76 639.99 634.49 632.59 631.06 627.45 622.63 620.22 616.81 610.85 598.62 593.02 588.52 581.42 577.47 573.4 571.21 568.43 565.68 563.06 554.65 544.83 537.74 530.46 525.86 520.71 518.38 519.12 517.51 513.06 506.11 500.39 494.5 488.58 481.49 476.83 471.54 468.33 465.04 461.27 456.6 452.82 449.62 447.5 445.37 443.45 441.46 439.43 437.5 436.85 436.03 436.2 435.72 435.72 435.63 433.64 434.02 432.51 431.81 431.02 430.86 431.18 431.09 431.26 430.39 430.36 430.51 430.57 430.58 430.33 430.84 9999 9999 430.72 430.46 431.31 9999 9999 9999
624.37 623.03 623.33 623.49 624.92 628.16 630.63 633.43 635.99 635.98 638.79 640.12 642.29 643.15 643.91 644.43 645.5 643.09 641.39 640.59 640.14 639.08 638.89 638.19 637.33 635.53 635.2 635 635.59 636.01 636.81 637.16 635 634.88 634.66 636.1 637.07 639.94 642.5 644.31 645.05 646.37 648.51 650.66 652.89 654.69 656.81 657.99 658.12 659.97 661.53 663.85 665.57 666.29 668.14 668.68 672.19 674.56 677.26 679.85 680.81 681.9 683.88 684.57 685.26 686.4 687.08 687.25 687.95 688.83 688.17 687.69 687.19 686.32 685.31 684.12 682.02 679.53 678.85 675.15 672.27 670.25 667.81 664.69 658.93 649.94 646.04 644.5 643.29 641.2 637.58 634.69 632.81 630.28 627.19 625.4 622.46 618.37 613.6 606.17 597.45 586.63 582.61 576.94 572.88 571.05 569.8 563.76 555.6 546.74 538.59 533.15 529.32 526.59 526.3 524.28 519.33 513.9 508.52 502.34 497.38 489.17 483.56 478.99 474.15 471.25 466.9 462.59 457.85 453.65 450.8 448.31 445.75 443.12 441.44 439.52 438.15 437.92 437.25 436.19 436.3 436.29 434.37 434.39 433.61 431.84 430.84 431.22 431.07 430.67 430.37 430.97 430.64 431.11 430.69 430.91 430.61 430.57 430.85 430.51 431.08 9999 430.39 430.71 429.88 9999 9999
627.99 629.15 629.03 630.2 630.87 631.81 635.47 638.75 642.35 643.96 645.46 647.73 646.96 648.12 649.01 648.99 649.03 648.71 647.92 647.07 643.91 643.29 642.74 642.32 641.22 640.77 640.33 640.15 639.05 639.38 640.04 640.62 640.62 640.12 641.09 639.98 641.7 644.24 646.46 647.87 649.75 651.46 654.11 654.31 656.03 658.46 659.28 661.56 662.82 665.23 667.25 667.19 668.69 670.05 672.49 675.03 678.07 680.11 681.25 681.86 683.62 683.92 685.61 687.34 688.2 688.7 688.09 689.2 689.63 689.53 688.88 688.49 687.89 686.15 684.63 682.96 681.78 677.96 675.15 672.41 670.23 666.25 665.4 662.08 653.6 647.79 645.8 643.85 642.84 641.53 639.2 635.14 632.71 631.71 629.33 626.17 623.71 619.64 614.12 609.45 603.16 597.32 595.02 590.22 579.1 573.43 569.59 564.67 558.26 551.19 542.48 537.1 531.9 531.65 528.37 525.01 521.73 516.88 511.34 504.94 496.82 491.34 485.48 481.12 477.03 472.82 468.55 461.74 458.38 454.52 451.25 448.12 446.53 443.82 441.72 439.22 438.64 437.76 437.8 437.23 437.28 437 435.44 435.54 435.52 433.04 431.71 431.4 431.43 430.83 430.91 431.26 431 431.47 431.12 430.81 430.4 431.04 430.29 430.67 430.68 431.11 430.64 430.81 430.53 9999 9999
630.84 631.88 631.82 633.64 636.58 639.77 644.34 647.47 647.06 649.17 650.85 652.97 654.5 655.13 655.32 654.55 652.27 652.1 652.12 651.22 649.96 649.55 648.9 646.11 645.43 644.52 643.91 643.5 644.03 644.33 644.45 643.91 643.52 643.81 644.45 645.19 647.21 649.41 651.13 651.55 653.31 655.12 657.04 659.02 660.75 663.31 662.42 664.66 666.36 668.55 670.27 672.07 673.47 674.98 675.13 679.16 680.14 681.57 683.6 685.22 687.32 688.2 689.2 689.36 689.81 690.46 690.33 690.85 690.73 690 689.95 688.79 687.47 685.51 684.29 682.13 679.19 677.01 673.63 670.63 666.96 663.64 658.73 653.13 648.93 647.64 644.85 643.01 642.09 640.3 638.81 636.53 633.94 632.29 630.88 627.48 624.13 619.76 617.21 612.72 607.48 603.75 598.59 593.8 585.25 579.47 573.92 569.11 561.48 553.45 545.87 538.27 534.94 533.15 530.24 526.8 522.26 517.38 509.98 504.92 499.55 494.27 489.26 483.32 478.14 471.87 468.91 463.76 459.97 455.54 453.03 449.43 445.94 443.86 442.2 440.05 439.37 439.09 438.24 437.64 437.39 437.49 436.5 436.27 436.13 435.21 432.44 431.66 430.87 430.91 431.19 430.92 431.09 431.01 431.27 431.28 431.12 431.46 430.52 430.73 430.48 431.03 430.48 431.21 430.57 9999 9999
634.73 635.69 638.45 638.39 641.34 645.91 650.16 652.21 653.51 655.37 656.95 657 658.45 658.75 658.75 658.21 658.06 657.39 657.85 654.72 654.42 653.69 653.05 652.56 650.87 650.84 647.58 647.05 646.86 647.09 647.56 648.19 649 648.89 647.87 649.46 650.95 652.68 654.51 656.49 659.06 659.88 660.42 662.49 664.01 666.17 667.85 670.89 672.01 673.93 673.32 675.18 676.14 678.87 681.36 683.31 684.77 685.03 686.73 688.5 689.52 691 690.85 691.27 692.36 691.57 691.81 692.12 691.3 690.57 689.5 688.24 686.32 685.12 683.15 680.65 678.19 675 672.12 667.82 664.94 660.42 654.32 652.14 648.23 645.57 643.7 641.76 640.89 639.85 637.16 635.51 633.76 631.3 629.25 626.39 623.42 620.94 617.5 613 609.73 605.03 600.46 593.6 587.84 582.35 577.69 573.29 567.56 559.16 548.03 541.37 536.15 534.75 530.95 527.65 523.59 517.5 511.23 506.88 501.48 495.66 489.23 485.23 477.44 473.03 469.25 464.86 460.07 456.6 453.52 449.07 446.26 444.05 442 440.84 439.24 439.1 438.07 436.08 435.54 436.15 436.17 437.55 436.53 435.49 435.32 433.61 432.61 431.15 431.11 431.52 430.68 430.78 431.32 431.79 431.38 430.82 431.02 431.32 430.91 430.61 430.83 430.62 430.57 430.46 9999
638.13 639 642.79 645.97 651.38 655.42 655.98 656.82 657.21 659.22 660.86 662.9 663.42 663.96 661.73 662.29 661.75 661.77 660.32 659.97 659.62 659.89 657.1 656.55 655.65 654.33 653.6 652.29 651.43 651.59 650.28 650.71 652.21 652.41 653.5 654.63 656.44 656.49 657.78 660.29 661.91 663.76 665.27 667.23 669.75 669.93 672.33 673.82 675.66 677.23 678.12 679.75 680.83 682.11 683.25 684.93 687.04 688.81 690.06 691.47 693.01 692.57 693.11 692.86 692.87 692.69 692.71 692.1 691.47 691.15 689.29 687.72 685.12 683.65 680.37 678.05 676.53 673.26 669.55 666.14 662.65 656.73 652.48 649.68 647.63 645.01 642.58 640.68 638.29 636.99 636.25 635.14 632.89 630.75 627.93 625.58 623.5 621.07 616.78 614.72 610.29 605.28 598.46 594.29 590.13 585.72 580.3 574.07 568.07 557.74 551.17 544.27 539.73 535.41 531.85 528.32 522.85 518.66 514.67 510.22 503.89 498.75 491.98 484.39 479.37 474.37 469.94 465.61 460.79 457.58 453 450.1 447.13 444.52 442.29 441.38 440.07 437.85 436.35 9999 9999 9999 434.38 437.02 436.86 436.69 435.57 435.49 434.46 432.29 431.26 431.65 431.26 431.12 431 431.17 430.78 430.89 431.08 431.07 430.73 430.99 430.38 431.07 430.02 429.79 9999
642.85 645.2 646.01 650.67 654.99 658.58 660.13 661.15 662.03 663.81 664.77 666.23 666.8 667.63 667.9 668.2 668.46 665.09 664.31 664.15 663.65 663.77 663.09 661.72 660.93 658.35 657.09 656.08 655.22 654.6 654.74 655.08 655.94 655.76 657.02 658.51 659.71 661.53 663.4 665.22 666.47 666.61 668.74 670.98 672.86 675.24 676.54 678.57 678.79 679.73 681.38 682.87 683.69 685.26 687.04 689.03 689.32 690.47 691.98 694.17 694.34 694.39 694.76 694.41 693.74 693.66 692.41 692.27 691.15 690.04 687.64 686.64 684.42 680.99 678.49 676.16 673.86 670.74 668.01 664.93 659.09 655.03 651.94 647.73 645.08 641.88 640.01 638.94 637.42 635.61 634.48 632.73 630.49 628.98 626.4 625.04 622.62 619.79 616.74 614.22 610.34 603.33 599.18 594.55 590.18 583.37 576.92 572.3 564.9 560.21 553.76 547.28 541.01 536.53 533.29 528.95 525.41 521.31 516.14 510.89 505.64 500.13 492.35 486.19 480.09 474.76 469.78 465.77 461.48 457.21 453.93 450.59 447.5 445.34 443.16 441.96 439.25 437.58 9999 9999 9999 9999 9999 436.17 438.61 438.84 437.25 436.14 435.59 434.42 432.39 431.47 431.26 431.44 430.87 431.02 431.23 431.2 431.08 431.19 431.69 430.99 430.86 430.61 430.77 9999 9999
648.34 650.02 652.87 656.68 659.54 660.93 662.61 664.4 666.74 669.43 672.33 673.11 673.34 672.03 672.35 672.83 672.1 671 670.53 670.15 669.4 667.27 666.4 664.97 664.54 663.43 663.03 662.13 659.16 657.98 657.27 657.74 658.15 659.36 661.04 662.65 662.28 665.02 666.31 667.79 669.17 671.36 674.26 675.36 676.27 678.02 678.97 680.9 681.95 683.86 685.15 686.66 686.71 687.8 688.87 690.26 692.01 693.73 694.95 695.07 695.5 695.85 695.41 695.27 694.51 694.07 692.32 691.91 690.62 688.93 686.96 684.54 681.8 679.57 676.7 674.59 671.82 669.46 666.73 662.69 658.31 654.18 650.55 646.72 644.07 640.82 637.39 636.14 634.11 632.68 632.01 630.68 629.18 626.86 624.87 623.02 620.36 618.45 615.76 612.61 607.08 601.54 594.89 590.74 585.37 580.36 576.55 570.94 566.7 562.07 556.23 549.25 543.31 537.35 532.92 529.34 527.13 524.06 519.28 514.43 507.3 499.9 493.52 486.75 481.07 475.24 471.19 467.2 461.77 457.77 454.81 451.54 448.57 446.05 444.24 442.21 440.41 9999 9999 9999 9999 9999 9999 9999 9999 438.45 439.64 438.44 436.94 436.17 433.42 431.95 430.84 431.56 430.76 430.81 431.14 431.2 430.59 431.18 431.19 431.14 430.9 430.97 430.69 9999 9999
657.18 655.74 657.07 660.11 662.88 665.73 669.52 672.44 673.09 675.73 677.1 677.94 679.01 679.8 678.12 677.97 676.04 674.22 673.13 672.74 672.63 671.99 671.1 670.88 668.13 667.28 665.53 665.13 664.16 662.73 662.13 661.92 660.67 662.78 664.16 665.75 666.95 668.39 671.09 670.88 672.6 674.62 677.73 678.58 679.65 680.58 681.76 682.93 685.33 687.22 688.64 689.28 689.85 691.2 692.2 692.22 694.35 695.32 696.01 696.85 696.67 697.31 696.36 695.2 694.38 693.25 691.71 690.21 688.61 687.35 684.99 682.93 680.79 678.25 675.29 672.9 670.2 667.79 665.09 661.74 657.65 653.79 650.02 646.03 641.36 638.75 636.17 633.45 632.41 630.79 629.36 627.52 626.06 625.1 622.93 621.34 618.65 615.75 610.77 607.57 604.07 599.47 595.84 591.22 583.85 578.51 574.4 571.03 567.17 562.66 557.58 551.06 542.97 538.39 534.24 530.02 528.06 524.85 519.53 513.99 507.71 500.03 493.54 487.83 480.81 475.59 470.73 466.52 462.1 459.32 454.96 452.72 450.05 446.25 443.58 442.34 440.96 437.61 9999 9999 9999 9999 9999 9999 9999 435.93 440.29 439.29 438.43 437 435.74 434.29 432.86 432.55 431.21 431.07 431.08 431.18 431.15 430.45 430.66 431.09 431.01 430.73 430.99 430.64 9999
660.82 663.06 664.79 667.1 667.56 671.38 676.76 679.25 682.37 683.9 685.52 686.34 683.51 683.03 683.37 682.86 682.15 681.17 679.48 676.28 675.98 675.55 675.03 674.21 673.75 672.94 671.53 668.12 667.53 666.58 664.98 664.3 664.6 666.28 667.52 667.35 669.36 671.07 673.07 674.83 676.77 679.77 681.04 681.04 681.78 682.77 683.82 685.82 688.39 689.6 690.09 690.83 691.82 692.6 694.05 695.34 696.73 697.36 697.6 698.43 698.04 697.21 696.37 695.27 693.43 691.34 690.13 688.61 687.65 685.14 683.88 681.29 679.64 677.51 675.32 672.74 668.86 666.45 663.16 661.17 656.54 653.73 649.79 644.7 640.84 637.19 634.14 631.25 629.56 628.5 626.89 626.19 624.39 622.02 620.66 618.18 616.74 613.04 610.21 607.97 603.06 596.91 593.77 588.84 582.28 578.19 574.19 571.08 567.3 563.31 557.7 551.56 544.93 538.5 533.17 529.7 526.73 523.95 518.49 513.32 506.59 498.49 492.44 486.49 480.7 475.07 471.04 466.27 462.44 459.21 455.66 452.11 448.92 446.05 444.27 442.94 440.6 438.71 9999 9999 9999 9999 9999 9999 9999 9999 9999 9999 435.64 438.02 436.04 435.73 434.03 432.32 431.83 431.14 431.27 431.22 431.36 431.78 430.93 430.86 430.79 431.08 430.45 430.52 9999
666.25 669.62 672.13 674.79 675.79 679.54 683.08 684.57 686.78 688.85 689.35 689.38 690.5 689.61 689.38 686.71 685.26 684.25 683.02 681.57 680.73 680.67 680 677.75 676.74 676.05 674.04 672.67 671.38 670.81 668.18 667.39 667.38 668.11 669.67 670.83 672.81 674.02 675.65 677.26 679.78 681.73 683.1 683.7 685.12 686.55 686.26 688.42 690.11 691.66 692.22 693.62 694.69 694.96 695.26 697.02 698.13 698.62 698.94 699.24 698.93 697.91 696.23 694.8 693.08 690.34 687.69 686.09 684.81 683.8 682.4 680.68 678.67 676.66 674.32 670.89 668.14 665.22 662.33 660.51 656.29 653 648.51 644.73 641.13 636.63 633.36 629.85 627.43 626.19 624.32 622.79 621.94 620.99 619.35 617.12 614.38 611.3 607.58 605.33 600.28 595.88 592.5 586.13 581.3 577.45 573.89 570.77 567.49 563.3 556.52 551.59 545.8 538.69 534.01 530.42 526.42 521.45 516.72 512.35 505.77 500.06 492.14 487.18 480.67 475.21 471 465.61 461.79 458.41 455.81 451.6 449.63 446.29 444.45 442.47 441.62 439.61 9999 9999 9999 9999 9999 9999 9999 9999 9999 9999 435.63 436.24 437.56 437.02 434.75 433.28 432.07 431.81 431.25 431.21 430.9 431.49 431.14 431.24 431.05 430.87 431.45 430.89 9999
676.45 679.36 682.34 680.99 683.07 684.88 685.99 687.95 692.03 694.13 692.79 692.98 693.66 694.07 692.46 691.82 690.9 689.28 685.63 684.58 684.07 683.19 682.82 682.51 681.8 680.03 676.99 675.95 673.93 673.05 671.6 670.64 671.21 670.96 671.62 672.8 674.22 676.93 678.15 680.52 681.98 683.68 685.34 686.29 687.62 688.21 689.79 691.42 692.98 693.48 694.71 695.38 696.11 697.39 698.22 698.85 700.11 700.37 699.86 700.6 699.58 697.84 696.89 695.34 692.22 689.09 685.98 684.07 682.82 681.57 680.94 678.99 678.22 675.71 672.34 669.7 667.17 663.5 661.27 659.24 656.2 652.53 648.52 645.02 640.02 636.29 632.23 628.22 625.28 623.47 622.16 621 619.94 619.49 618.02 615.62 612.31 607.9 603.79 601.31 598.88 595.14 590.07 584.53 580.6 577.24 572.41 568.94 564.73 559.25 554.35 549.85 544.12 538.92 533.37 529.13 524.41 519.23 515.76 510.94 505.08 499.43 493.25 485.82 480.18 475.75 470.15 465.52 461.28 457.3 454.17 451.15 449.35 445.73 444.39 442.99 442.01 439.74 436.01 9999 9999 9999 9999 9999 9999 9999 9999 9999 9999 9999 437.03 437.48 436.09 435.43 434.67 433.91 432.14 431.56 431.01 431.46 431.48 431.12 430.81 431.59 430.8 431.03 429.27
680.61 683.73 687.89 690.52 693.19 693.8 691.88 692.97 696.28 698.09 699.49 699.85 699.58 698.02 695.11 695 693.54 691.11 689.77 689.07 688.41 686.42 686.25 685.56 684.23 683.35 681.75 680.32 678.03 675.48 673.9 672.73 672.59 673.44 674.25 676.2 677.76 678.56 680.37 682.25 684.04 685.59 687.29 688.68 689.92 690.58 691.71 692.82 695.06 696.72 697.33 698.52 698.49 698.68 699.4 700.57 700.99 701.04 702 701.77 699.44 698.26 696.28 694.81 691.43 687.77 683.55 682.18 681.84 681.01 679.55 678.08 676.23 673.86 671.2 668.57 666.68 663.49 660.79 658.57 654.34 651.44 647.73 644.4 640.17 635.4 631.62 625.67 623.46 621.52 619.39 619.95 617.81 616.47 611.01 607.62 604.28 602.09 600.05 598.91 597.04 592.53 588.36 582.51 579.55 574.84 571.82 568.22 562.56 557.38 551.55 546.1 541.12 537.29 533.02 525.57 521.67 517.63 512.78 507.09 502.25 495.92 491.17 485.36 479.55 473.67 469.1 464.6 458.65 455.33 453.38 450.83 448.81 446.57 444.41 442.94 442.11 442.27 438.89 9999 9999 9999 9999 9999 9999 9999 9999 9999 9999 9999 9999 435.54 437.25 436.31 435.31 435.17 434.07 433.15 432.69 431.11 431.61 431.47 430.81 430.79 430.86 430.46 430.3
688.95 689.24 695.66 697.65 697.83 699.79 701.57 702.98 702.82 701.92 703.25 703 702 700.93 699.99 699.46 697.71 694.85 693.03 692.26 691.18 691.04 690.48 689.57 688.19 686.55 684.41 683.32 681.64 678.89 677.75 677.62 676.27 676 677.01 677.55 679.85 682.11 683.99 685.34 686.14 687.54 689 690.88 692.35 693.54 694.71 695.95 696.57 698.09 698.98 700.15 700.88 700.8 701.24 701.04 701.9 702.71 702.68 702.15 700.38 699.32 696.93 694.97 691.15 686.78 683.7 681.47 679.92 678.55 677.16 676.13 674.82 672.79 670.23 667.74 664.18 662.44 659.09 657.12 653.12 650.38 647.72 644.1 639.36 633.19 629.56 626.5 621.99 619.2 617.26 615.04 612.03 609.51 607.34 605.08 603.15 600.82 598.8 594.45 591 589.01 585.39 580.49 578.79 572.79 568.98 564.69 559.26 554.38 549.71 544.48 540.23 533.2 528.58 524.02 519.74 517.13 510.82 505.23 498.55 492.62 486.96 481.59 477.74 471.76 467.63 462.24 457.55 455.12 452.48 450.35 448.81 447.17 444.64 443.11 443.19 441.82 441.37 9999 9999 9999 9999 9999 9999 9999 9999 9999 9999 9999 9999 9999 9999 436.94 436.25 435.78 435.24 435.32 433.99 433.55 432.47 432.21 431.58 431.31 430.55 430.86 430.58
698.1 701.13 704.03 705.43 707.24 706.15 706.5 706.16 706.43 706.39 706.42 706.34 704.46 703.31 702.53 700.81 699.92 698.6 697.48 695.84 693.69 693.72 693.29 692.72 691.85 689.81 688.84 687.37 682.65 681.48 681.03 680.07 680.22 679.76 680.14 681.59 682.19 683.98 686.23 687.32 688.84 689.6 692.32 692.76 694.5 695.37 696.25 697.77 699.3 701.08 701.6 701.56 701.98 701.91 702.52 703.16 703.38 703.2 703.26 702.09 701.7 700.07 697.34 693.77 690.85 687.58 683.88 681.68 679.72 677.58 676 674.08 672.69 670.28 668.84 666.63 663.89 660.68 658.08 655.77 652.75 650.11 646.86 643.25 638.07 633.52 629.66 624.78 621.38 618.23 616.34 613.02 610.93 608.87 607.13 604.97 602.79 600.02 596.85 593.63 589.95 587.32 583.33 579.29 575.74 570.85 567.37 563.64 558.62 553.54 547.62 543.63 536.8 532.3 527.55 522.7 517.77 512.04 507.32 499.47 495.29 490.12 484.49 479.78 474.82 470.72 465.99 461.85 457.56 455.77 453.86 451.22 449.19 447.32 445.05 444.15 444.21 442.91 443.07 441.62 9999 9999 9999 9999 9999 9999 9999 9999 9999 9999 9999 9999 9999 436.63 436.99 436.75 435.99 435.7 435.08 435.21 433.83 434.05 432.98 432.91 432.59 431.26 430.5
702.59 704.92 706.97 707.96 708.7 708.16 709.07 708.82 708.54 708.47 708.55 707.89 707.55 707.05 706.06 705.22 702.93 701.45 699.74 699.21 697.47 697.6 696.76 694.99 693.96 692.26 690.65 688.92 687.29 686.11 685.39 683.05 683.01 682.6 683.19 684.42 686.1 687.55 688.99 689.32 691.09 692.56 694.43 695.9 697.37 698.44 699.36 699.24 700.69 701.61 703.2 703.86 704.16 704.03 703.42 703.78 704.16 704.56 704.42 703.47 702.01 700.08 696.62 694.35 690.89 688.83 685.6 682.79 679.35 676.86 674.81 672.76 671.34 669.28 667.34 664.29 661.66 659.33 657.07 655.13 651.77 649.68 645.92 641.12 637.64 633.8 629.08 624.79 620.84 617.11 613.13 610.74 609.67 608.33 607.16 606.02 603.88 601.32 597.9 595.66 590.44 587.77 583.96 579.47 574.91 569.83 566.29 562.36 557.63 552.69 547.41 541.15 536.81 532.17 526.66 522.27 516.09 511.21 503.52 498.43 492.62 487.46 482.4 478.99 473.15 469.22 465.23 461.13 458.64 456.55 454.18 452.09 449.21 446.79 445.92 445.64 444.59 444.02 443.51 441.47 9999 9999 9999 9999 9999 9999 9999 9999 9999 9999 9999 9999 437.67 436.8 436.73 436.7 435.93 436.21 436.41 435.56 434.89 434.55 434.68 435.13 434.25 432.5 430.36
705.01 706.27 707.39 708.26 709.13 709.8 710.13 710.97 711.16 711.59 711 710.15 709.09 708.33 708.25 707.19 706.37 705.33 704.17 701.12 700.53 699.55 699.04 698.32 697.11 696.38 694.17 691.69 689.99 689.01 688.02 687.45 687.54 686.93 685.74 687.02 688.14 689.57 690.94 693.17 694.66 695.37 695.96 698.05 698.93 700.28 701.48 701.96 703.32 704.61 704.55 705.45 705.14 704.49 705.02 704.77 704.47 704.85 704.87 703.81 702.43 699.93 697.08 695.22 692.43 689.24 686.39 683.38 679.33 676.98 674.98 672.37 670.41 668.95 666.27 663.48 660.53 658.78 655.46 653.37 650.34 647.71 644.32 639.61 636.62 633.62 628.86 623.87 620.42 614.86 611.88 609.19 607.04 606.42 605.66 604.79 603.46 600.83 598.89 595.89 593.26 590.22 584.91 577.9 574.35 570.34 565.5 562.1 558.08 552.39 545.27 540.39 535.22 530.61 524.58 518.73 512.38 505.44 500.58 495.16 490.28 484.9 480.41 476.54 471.73 467.72 464.4 461.23 458.72 457.69 454.25 451.61 450.14 447.72 446.47 445.45 445.11 444.35 442.67 443.04 442.51 9999 9999 9999 9999 9999 9999 9999 9999 9999 9999 434.93 436.7 436.51 436.81 436.37 436.21 436.13 435.6 435.72 435.41 434.59 434.97 435.26 434.47 430.89 9999
705.06 706.04 707.16 708.44 709.8 711.11 711.94 712.23 712.87 712.19 712.82 712.43 711.99 711.36 709.57 709.09 708.17 707.42 705.75 705.07 704.13 702.92 701.5 700.78 699.26 698.36 696.86 695.49 694.12 693.54 691.1 690.65 690.06 689.92 690.34 690.59 692.17 692.85 693.37 695.33 696.59 697.55 699.15 700.79 702.13 701.61 703.04 704.17 704.72 705.78 706.53 707.39 706.92 705.95 705.36 704.14 704.54 704.4 704.59 703.89 701.82 699.96 698.16 695.7 692.6 690.16 686.83 682.58 680.39 677.67 674.52 672.49 670.05 667.68 664.96 662.95 660.26 658.06 655.01 652.44 648.87 644.84 641.1 638.28 635.81 634.21 630.25 623.44 617.73 613.02 609.78 607.81 605.72 604.61 604.5 600.81 599.89 598.48 595.76 595 592.13 588.96 581.25 576.57 571.75 568.69 565.35 561.84 556.94 549.41 543.83 539.3 534.02 527.49 523.44 517.23 508.53 503.22 497.36 492.46 487.29 483.69 478.27 474.31 471.22 467.51 463.52 460.65 458.5 455.4 453.51 452.31 449.67 448.29 447.1 446.8 444.83 444.47 443.8 443.52 442.72 439.16 439.43 440.89 439.73 439.51 438.91 437.82 9999 9999 9999 436.39 435.89 436.49 435.94 436.09 435.02 435.09 434.8 434.27 434.56 434.51 434.78 434.54 430.12 429.88 9999
702.67 704.48 706.93 708.37 710.17 711.36 712.61 713.4 713.87 714.82 714 713.4 713.28 713.06 712.78 711.46 711.18 709.76 707.83 706.8 706.12 705.23 704.94 704.42 702.8 700.57 699.5 698.15 696.67 696.05 695.36 694.64 694.24 692.74 692.82 693.67 693.71 695.03 697.22 698.29 699.59 699.97 700.8 702.53 704.21 704.62 705.47 706.7 706.32 707.32 707.8 707.6 708.01 707.37 706.19 705.41 704.38 703.93 704.36 703.25 701.76 699.29 697.82 695.83 693.3 689.2 686.73 682.91 680.36 676.87 675.13 672.29 669.14 666.67 664.37 662.46 659.75 657.04 653.73 650.52 646.82 643.3 640.01 637.71 634.62 633 625.82 621.11 616.83 611.47 609.26 604.97 602.21 600.05 598.97 597.99 597.34 595.69 594.26 590.62 588.63 585.79 580.49 576.43 571.37 568.03 563.95 557.93 552.94 546.64 542.98 537.22 531.67 525.02 518.21 512.01 505.19 500.69 495.61 491.35 486.55 480 476.42 472.53 468.43 467.17 463.15 460.99 457.56 456.34 453.88 453.27 451.26 448.84 447.31 446.34 445.04 445.23 444.44 442.75 440.33 440 441.42 441.24 439.45 438.89 438.89 438.25 438.08 436.71 436.05 436.2 435.87 435.14 435.53 435.28 434.6 434.06 434.07 433.37 433.02 432.2 433.46 431.09 430.56 9999 9999
700.91 702.78 704.87 707.19 709.57 711.37 712.27 713.68 715.15 715.22 715.99 715.72 715.39 714.54 713.73 713.11 712.24 711.16 710.58 710.38 709.2 707.84 707.07 705.72 705.38 704.06 703.17 702.29 700.68 698.31 698.19 697.42 696.69 697.03 696.78 696.8 696.57 697.7 699.23 700.7 701.6 702.97 704.25 705.42 705.55 706.65 706.93 707.25 708.35 708.83 709.54 709.65 708.6 708.3 706.79 705.67 704.29 704.06 703.35 702.32 700.44 698.61 697.58 695.56 691.95 689.27 685.12 683.14 679.94 677.46 675.22 671.49 668.81 666.61 664.46 662 659.29 656.58 651.15 648.11 644.64 640.91 639.09 636.38 633.84 629.46 625.34 621.72 616.65 612.31 607.66 603.89 600.27 596.79 595.42 594.44 592.87 592.48 591.93 589.62 586.61 583.61 578.7 574.18 569.6 567.39 561.22 556.92 551.15 545.37 540.2 534.5 528.34 522.33 515.8 509.99 503.9 497.6 493.08 488.65 481.92 477.88 475.48 471.78 468.7 465.65 463.43 460.94 457.95 456.79 455.22 453.48 451.84 451.26 447.83 446.34 445.6 444.76 444.04 441.11 441.46 442.88 441.96 440.5 439.85 439.23 439.07 438.1 436.99 437.06 436.21 436.04 435.97 435.46 435.05 433.92 433.28 433.16 433.36 432.92 432.19 431.77 430.88 430.79 429.98 9999 9999
699.16 701.5 703.49 706.55 708.81 710.53 712.47 714.74 715.58 715.84 716.28 716.87 716.42 716.49 715.7 715.36 714.05 713.42 712.32 711.72 710.98 710.73 709.75 709.11 707.28 706.32 705.68 703.93 703.19 702.4 701.93 701.36 700.01 699.26 698.94 699.38 699.55 700.87 701.71 702.01 704.09 704.66 706.86 707.55 708.2 708.95 709.51 709.2 709.74 711.14 710.57 711.12 710.42 709.73 707.74 706.36 704.44 703.19 702.41 701.31 699.41 697.36 696.44 693.99 690.58 687.19 684.87 682.68 679.25 676.33 673.25 670.96 668.38 665.77 663.35 660.97 657.9 653.77 650.27 646.89 643.41 640.62 636.66 634.18 630.77 627.32 624.92 621.41 616.79 612.35 607.73 603.08 598.45 595.57 593.2 591.36 590.35 589.95 586.48 585.33 582.89 580.73 575.7 572.89 568.74 562.98 557.22 552.33 548.4 543.77 538.14 533.45 525.66 519.85 513.07 506.46 502.64 496.46 491.65 484.96 480.8 477.08 473.6 470.54 467.86 465.63 463.58 461.36 459.57 456.78 454.81 454 452.42 450.24 448.86 447.39 446.54 445.11 443.58 442.97 442.18 443.08 442.13 440.95 440.07 439.47 438.71 437.83 437.15 437.01 435.98 435.66 435.01 435.06 434.87 434.02 433.62 433.35 432.47 432.21 431.96 431.44 430.24 430.26 429.88 9999 9999
697.14 699.25 701.49 703.2 708.1 710.06 712.53 714.05 715.44 716.14 717.86 717.7 717.36 717.92 716.9 716.53 716.14 715.46 714.77 714.48 712.88 711.82 711.32 711.16 709.61 709.16 708.11 706.13 704.47 704.96 704.55 704.08 703.31 702.44 702.43 701.28 701.73 702.9 703.91 705.26 705.73 707.81 709.42 708.88 709.99 710.51 711.01 711.43 711.95 711.97 712.66 711.88 711.63 710.84 708.93 706.36 704.65 702.71 701.47 699.96 698.29 696.49 694.05 691.52 689.57 686.3 683.97 681.28 678.68 674.75 672.23 669.05 667.44 665.46 663.28 660.16 656.11 652.6 648.21 645.4 642.18 639.11 635.46 631.16 629.12 626.74 623.56 620.57 617.6 613.22 607.44 602.89 598.13 594.76 591.11 588.4 587.53 585.17 583.24 581.39 578.83 576.2 572.34 568.3 564.82 559.45 554.91 549.52 545.23 539.8 533.48 527.6 523.18 517.15 510.26 503.74 499.26 492.85 487.17 484.09 480.27 476.01 472.47 469.82 466.58 464.3 461.55 460.04 458.55 456.59 455.32 454.21 452.46 450.16 449.21 447.18 447.09 444.85 444.38 444.18 443.57 443.03 441.4 441.53 440.87 439.57 438.35 438.13 437.87 437.17 436.55 435.65 435.57 434.73 433.91 433.47 433.03 432 432.29 431.1 431.25 430.94 429.93 429.47 428.91 9999 9999
695.45 697.78 700.21 702.38 705.46 708.87 711.73 714.17 715.29 716.85 717.63 718.3 718.59 718.29 718.13 717.39 717.26 716.56 716.16 715.18 714.95 714.07 713.32 712.34 711.6 711.12 709.91 708.94 708.43 707.13 706.49 705.47 705.16 704.26 704 704.26 704.5 705.5 705.57 707.11 709.09 710.17 710.81 710.75 712 712.33 712.69 713.14 713.42 713.33 713.27 713.19 713.04 711.93 708.99 706.88 704.7 702.87 700.97 699.42 697.64 694.85 692.89 690.62 687.73 686.68 683.81 680.22 675.63 673.92 671.2 667.63 665.91 663.96 661.47 657.37 654.47 651.38 647.13 644.23 640.82 637.63 632.51 629.19 626.58 623.64 622.21 619.84 616.7 611.99 608.08 602.96 599.28 594.47 590.61 586.84 582.65 579.98 578.08 575.45 574.8 572.92 568.39 564.42 559.75 555.18 550.44 546.94 541.89 536.73 530.11 524.54 518.41 512.76 506.29 501.95 496.18 488.99 485.2 482.22 478.47 474.63 471.54 467.62 465.14 463.02 460.3 457 455.55 455.06 453.27 451.13 450.75 450.96 450.16 447.54 446.24 444.94 445.17 443.94 443.13 443.26 441.95 441.14 440.25 439.08 438.47 438.38 437.54 437.58 436.93 436.39 435.34 435.08 434.1 433.45 432.71 433.02 432.22 431.57 431.09 430.29 430.24 429.1 9999 9999 9999
693.29 695.6 697.45 701.07 705.48 707.93 710.71 713.21 715.04 716.31 717.56 718.65 718.88 719.4 719.37 719.06 718.54 717.76 717.29 716.37 716.35 715.46 714.86 714.2 713.57 712.43 711.48 710.05 709.52 708.84 707.59 707.4 706.82 706.64 705.53 706.05 706.84 707.5 707.76 709.44 710.65 711.17 711.49 713.01 713.46 714.11 714.62 714.95 715.35 714.55 714.79 714.36 714.09 712.05 710.34 708.38 705.9 703.29 701 698.66 696.13 693.81 691.98 689.62 687.36 685.66 682.7 678.65 675.55 672.65 669.76 667.4 665.24 663.03 660.13 657.26 654.04 649.97 645.94 643.07 639.01 635.48 631.46 627.44 623.76 620.22 618.13 617.19 614.61 611.57 608.23 605.19 599.71 594.9 588.93 584.61 580.69 577.04 574.09 571.95 569.2 566.65 563.73 560.5 556.56 553.08 547.92 542.37 535.53 530.47 526.54 521.2 515.46 508.95 502.1 494.4 490.1 486.29 483.93 480.27 476.56 473.28 468.9 465.79 462.42 460.56 459.47 457.81 457.5 456.15 454.09 452.07 451.23 449.89 448.68 448.07 446.45 446.35 445.41 444.78 442.99 442.42 441.06 440.49 439.81 439.31 438.6 438.3 437.55 436.94 436.93 436.08 436.19 434.7 434.66 433.61 433.69 432.51 432.32 431.2 431.38 430.92 429.68 429.33 430.68 9999 9999
691.13 693.76 695.43 699.53 703.01 706.77 710.73 713.18 714.7 716.39 717.76 718.66 719.08 719.22 719.7 719.79 718.69 718.46 718.53 718.07 717.48 717.12 715.99 714.99 713.96 713.24 712.38 711.79 710.32 709.43 709.1 708.14 707.72 707.88 708.26 708.11 708.81 708.37 710.22 710.63 712.37 712.67 713.78 714.25 715.3 715.46 715.95 716.5 716.11 716.56 716.32 715.86 714.66 713.29 711.43 708.7 706.39 704.19 700.32 698.02 695.97 693.44 690.92 688.82 686.57 684.02 681.73 678.51 675.41 672.31 669.24 667.18 663.99 662.03 658.64 656.31 652.85 648.94 645.28 641.31 639.07 635.06 631.45 626.7 622.48 618.57 614.85 612.49 610.81 610.25 607.69 604.91 600.88 594.38 588.92 584.89 579.93 575.76 571.92 569.49 565.24 562.28 559.44 554.49 550.79 547.17 543.1 537.92 532.04 526.57 520.96 515.88 509.98 505.42 496.52 492.59 488.13 485.08 481.47 477.19 474.48 470.75 466.97 464.45 464.1 461.76 460.64 459.47 456.82 455.32 453.66 452.85 451.87 450.72 449.18 447.88 446.6 445.7 444.42 443.8 443.3 442.44 440.95 439.9 439.96 439.29 438.37 437.78 437.09 436.45 435.83 435.75 434.77 434.4 434.87 434.05 433.15 432.72 431.88 431.82 432.46 430.87 429.48 430.2 430.27 9999 9999
688.72 691.43 695.08 697.72 701.58 706.95 710.55 712.38 713.85 716.87 717.05 718.38 718.85 719.58 719.76 719.58 720.11 719.73 719.09 719.04 717.79 717.91 715.99 715.79 714.86 714.22 712.43 711.98 711.08 710.08 709.52 708.61 708.13 708.42 708.45 709.32 710.03 710.84 711.73 712.12 712.58 713.83 714.36 715.84 715.76 717.13 717.47 717.66 716.99 717.77 716.93 716.45 715.32 714.31 712.57 709.75 707.25 703.39 700.58 698.16 695.67 693.33 690.32 688.74 685.42 683.45 681.52 678.15 674.74 672.82 669.84 666.05 664.12 661.75 658.83 655.56 651.99 648.44 644.45 641.74 638.86 634.94 631.41 626.4 622.78 616.44 612.88 610.71 609.1 607.76 606.79 605.48 601 596.74 590.77 585.69 580.64 575.26 570.75 564.53 561.14 558.48 554.84 551.46 547.88 543.35 537.49 531.29 526.16 523.31 517.07 511.9 505.13 496.99 493.04 489.83 484.71 482.13 478.55 475.21 470.9 468.39 467.24 465.35 463.95 463.03 460.74 459.75 457.57 456.36 455.06 452.7 450.88 450.55 448.7 448.13 447.04 446.36 445.94 445.76 445.15 443.18 441.22 440.43 439.62 439.32 439.01 437.18 437.38 436.66 436.01 435.6 434.96 434.49 433.76 433.23 432.64 432.52 432.25 431.6 431.98 430.72 429.82 429.57 431.17 429.21 9999
687.82 690.43 692.62 695.02 700.21 705.49 710.14 712.65 714.33 715.47 716.36 717.27 718.23 719.75 720.38 720.43 720.13 719.91 719.68 719.51 718.32 717.1 716.76 715.85 715.05 713.56 712.87 712.04 711.35 709.59 709.52 709.09 709.1 708.98 708.94 709.6 710.57 711.59 712.37 713.35 714.06 715.02 716.07 716.34 717.32 717.55 718.25 718.19 718.56 718.26 717.74 716.87 716.25 714.83 712.52 710.41 706.9 703.69 701.14 698.24 694.72 693.28 690.48 687.61 685.1 683.69 681.08 678.47 675.45 672.26 668.93 665.84 663.22 661.1 658.68 655.18 651.3 647.22 643.84 641.04 638.41 635.22 631.22 626.34 621.19 617.17 612.5 609.01 607.04 606.01 605.64 604 600.41 596.74 592.09 587.68 582.6 575.75 569.23 564.73 559.11 554.88 550.69 546.61 542.64 536.56 532.08 526.41 520.38 515.53 509.82 505.32 498.92 494.11 490.72 489.1 485.2 482.76 480.8 476.41 472.44 469.43 468.42 466.56 464.49 463.3 460.73 459.35 457.6 456 454.14 452.6 451.22 449.84 449.3 448.77 447.53 447.63 446.94 446.49 444.25 442.54 441.96 440.67 440.25 441.05 438.46 438.48 436.73 437.07 436.42 435.4 434.85 434.87 433.67 433.29 432.75 432.22 432.05 432.31 432.04 429.93 429.68 430.18 430.37 430.66 9999
686.1 689.25 690.38 692.86 698.01 702.7 709.34 710.78 712.66 714.37 715.62 716.83 718.15 718.91 719.7 719.65 719.88 720 719.04 718.79 718.04 717.06 716.28 716.06 714.64 713.44 712.5 710.68 709.51 709.01 708.73 708.81 708.58 708.65 709.42 710.31 711.3 712 713.37 713.79 714.81 715.8 716.41 717.54 717.65 718.24 719.32 719.19 718.85 718.54 718.5 717.58 716.62 715.14 713.68 709.44 706.86 704.23 701.34 698.32 695.39 692.5 690.17 687.47 685.3 683.66 681.1 678.39 675.69 671.32 668.29 666.58 663.96 660.34 658.3 655.47 649.95 646.49 643.91 640.97 637.88 634.86 630.82 625.44 621.03 616.63 612.79 609.1 605.67 603.27 602.09 601.24 599.06 596.79 592.79 589.08 584.41 576.94 572.05 566.01 559.73 554.53 549.57 544.87 539.58 534.12 528.37 522.39 516.56 513.7 510.18 506.53 503.26 500.53 496.4 491.05 490.75 487.81 484.83 482.23 477.7 472.93 469.39 466.28 463.94 461.75 461.23 458.79 458.17 456.57 455.01 453.67 451.33 451.17 449.68 448.48 447.1 446.46 445.84 444.61 443.67 442.33 442.91 442.15 441.11 439.26 438.99 437.91 437.27 436.48 435.73 435.45 434.88 434.48 433.92 433.79 432.6 432.42 432.13 431.23 431.01 429.74 430.1 430.51 430.72 430.86 9999
684.28 686.19 688.76 691.25 694.37 702.09 706.66 709.14 709.88 711.72 712.88 716.38 717.75 718.47 719.09 719 719.35 719.06 718.72 718.68 717.68 716.58 715.7 714.68 713.39 712.04 710.51 710.11 709.21 708.79 707.71 707.78 707.69 708.68 709.15 710.31 711.72 712.64 713.09 713.75 715.59 716.27 716.95 717.33 717.8 718.55 719.29 719.62 719.45 718.89 718.71 717.96 716.89 715.12 712.17 709.7 706.96 704.35 701.34 698.4 695.46 692.02 690.49 687.96 685.65 683.35 681.01 678.9 674.79 671.59 668.69 666.28 663.73 660.84 657.23 653.54 650.49 646.93 643.69 640.19 637.44 633.97 629.79 625.55 621.34 616.81 611.94 607.9 603.4 600.06 598.62 597.92 596.43 593.88 592.75 589.94 584.62 579.89 573.55 567.88 561.95 556.69 549.71 545.34 540.73 535.01 530.39 525.53 522.89 520.25 517.09 512.1 512.15 507.97 506.71 503.03 502.84 500.81 498.11 489.32 484.85 479.5 474.34 466.85 464.12 463.1 461.4 459.6 458.41 457.04 455.74 454.29 453.16 451.88 450.12 448.93 447.74 446.76 446.18 446.11 444.82 443.81 443 442.3 441.06 439.98 439.46 438.47 437.99 436.58 436.22 435.59 435.18 434.79 434.1 433.35 433.15 432.66 431.51 431.61 431.11 430.61 430.35 430.7 430.55 430.93 430.97
682.94 684.9 688.17 690.85 692.91 697.07 700.41 705.62 706.92 708.67 711.54 713.65 715.8 717.23 718.03 718.6 719.09 718.54 718.01 717.03 716.55 715.79 714.9 713.13 712.81 711.34 709.94 708.3 708.37 707.21 707.36 707.55 707.62 708.61 709.02 709.8 710.81 712.2 713.41 714.8 715.5 716.73 717.17 717.85 718.3 718.59 719.34 719.76 719.1 719.5 718.51 717.85 716.03 713.85 712.04 709.76 706.66 704.42 701.55 697.42 695.21 692.44 689.73 687.82 685.64 683.48 680.21 678.18 674.76 671.96 668.61 666.12 663.6 659.23 656.51 653.16 649.64 647.07 643.83 640.31 636.09 632.22 629.14 625.31 621.13 616.66 612.18 606.48 601.51 597.82 595.25 594.84 594.76 592.9 591.42 589 586.17 582.77 576.82 569.12 562.82 555.81 552.8 549.05 545.94 541.37 536.69 531.72 527.53 527.21 523.4 523.24 521.34 517.83 512.45 509.29 506.5 506.87 503.65 500.84 496.9 489.97 477.15 470.35 465.4 463.14 461.05 460.65 458.81 457.15 455.94 454.84 453.71 452.12 450.55 449.66 450.13 448.17 447.86 447.5 446.79 445.32 444.73 442.53 441.21 441.14 440.26 439.07 438.28 437.55 436.81 435.63 435.05 434.51 434.08 433.42 432.87 432.52 431.63 431.33 430.92 430.5 430.32 430.37 430.2 430.67 430.38
681.18 683.68 686.64 690.01 692.8 694.55 697.91 701.35 704.23 706.97 710.79 712.72 714.74 716.47 716.53 717.36 717.42 717.38 716.9 716.12 715.49 713.81 713.14 712.36 710.72 710.19 708.41 707.88 707.08 706.17 706.18 706.71 706.54 707.17 708.12 709.54 711.25 712.47 713.02 714.09 715.06 715.92 717.04 717.81 718.14 718.5 719.04 719 718.65 718.52 717.89 716.94 715.19 713.51 711.02 708.9 706.78 703.74 700.38 697.47 695.16 693.45 689.27 687.74 686.29 683.21 680.74 678.41 675.15 671.82 669.43 666.19 662.44 659.79 657 653.56 650.12 647.33 643.48 639.36 635.73 632.16 628.5 624.8 620.41 615.63 610.11 605.88 601.82 597.41 594.95 593.35 592.69 590.93 589.47 589.05 586.45 583.51 578.77 571.42 563.44 559.74 555.28 554.44 550.68 547.77 544.1 538.58 534.42 533.91 529.97 527.28 524.89 523.24 517.19 514.93 512.84 509.32 507.77 505.42 501.02 492.79 484.43 474.96 468.11 464.02 462.19 460.99 459.2 457.63 457.11 455.75 453.76 452.2 451.91 451.43 450.16 450.41 448.91 448.3 447.33 446.22 444.49 443.56 443.16 442.55 440.86 439.36 439.32 437.25 436.93 436.28 436.11 434.86 433.72 433.84 433.48 432.48 431.84 431.96 431.16 430.31 430.33 430.4 430.19 429.86 429.54
680.38 682.78 685.76 688.55 690.89 694.65 697.38 700.17 702.54 706.12 708.84 711.31 713.21 715.42 716.11 716.17 715.94 715.64 715.19 714.73 713.98 713.55 712.03 710.64 709.25 707.55 706.3 705.87 705.29 704.92 704.79 705.37 705.85 706.82 707.04 709.03 710.35 710.98 712.89 713.76 715.03 715.38 716.33 717.32 717.92 718.04 718.37 718.81 717.75 717.6 716.65 715.73 714.61 712.38 710.09 707.84 705.18 702.26 699.25 697.15 694.86 692.75 690.57 688.62 685.29 683.64 680.86 678.29 675.61 672.84 669.26 665.15 661.83 660.23 657.11 653.46 650.42 646.75 642.07 638.26 635.41 631.7 627.63 623.72 619.61 614.01 609.32 604.85 601.61 597.96 594.18 592.51 590.53 587.95 586.87 585.32 584.01 581.32 578.82 569.27 564.52 560.94 559.37 557.43 555.62 552.02 547.19 543.71 538.57 535.9 534.42 532.32 528.84 524.24 519.57 516.53 516.78 515.15 512.77 509.2 501.43 494.83 487.3 477.89 468.03 465.18 463.26 462.95 460.72 458.08 458.33 456.77 456 454.16 454.94 453.7 451.85 451.57 451.04 449.27 449.05 447.95 447.05 444.41 444.48 442.47 440.88 440.18 439.32 438.62 437.44 436.48 436.39 435.25 434.43 433.6 433.19 432.46 432.26 431.83 430.4 430.96 430.33 430.55 430.65 429.93 429.97
679.12 682.51 684.68 687.74 690.32 693.04 695.83 699.79 702.05 705.47 707.73 710.45 712.31 713.28 713.82 714.04 714.84 714.38 713.11 712.91 712.09 711.14 709.79 708.43 708.13 706.17 704.72 704.11 703.39 703.25 703.85 704.21 705.16 705.54 707.08 708.09 709.64 710.81 712.07 712.83 713.94 714.87 715.55 716.2 716.27 716.9 717.51 717 717.21 716.21 715.7 714.14 712.86 710.84 707.94 706.2 703.46 700.8 698.47 696.22 694.37 692.44 690.92 688.32 685.56 683.13 680.74 678.12 675.86 672.42 668.24 664.83 662.44 659.61 657.3 654.16 649.74 645.49 642.04 638.14 634.62 630.11 627.24 622.54 616.89 613.12 608.48 604.91 601.32 597.08 593.62 589.14 586.24 585.23 583.17 581.08 581.28 579.24 574.87 570.79 567.24 562.9 560.35 558.49 556.69 552.37 550.07 546.43 542.86 541.7 535.74 532.67 528.54 525.79 523.61 520.56 518.8 517.6 513.46 509.95 504.03 496.94 490.76 481.46 469.57 466.07 464.58 463.31 461.31 460.35 460.6 457.65 456.51 456.37 456.11 454.89 453.26 452.39 451.51 450.58 449.61 448.22 447.14 446.67 445.36 443.62 441.76 440.93 440.2 439.06 438.29 437.38 436.1 435.51 434.61 433.98 433.81 433.09 432.83 431.53 430.93 430.94 430.77 430.46 430.41 430.69 430.02
678.29 680.98 683.54 686.11 689.05 692.34 695.86 698.35 702.03 704.85 707.34 709.1 711.1 712.08 712.78 713.42 712.69 711.58 711.65 710.84 710.23 708.73 708.36 706.68 705.22 704.08 703.02 702.42 701.94 702.41 702.44 703.78 704.26 704.91 706.23 707.39 708.84 710.21 711.38 712.31 712.91 713.3 714.58 715.91 715.96 716.12 715.99 716.29 715.48 714.68 713.71 713.02 711.3 709.19 706.65 703.65 702.24 699.68 698.32 696.36 694.38 692.79 690.38 687.6 685.7 683.32 680.76 678.33 675.73 671.27 668.63 665.19 662.25 659.84 656.77 653.85 649.2 644.78 641.19 636.85 633.15 630.35 626.22 620.07 616.36 612.53 608.06 605.16 600.58 595.55 590.99 588.03 585.02 582.84 580.27 578.6 577.61 575.23 572.15 569.81 567.36 564.23 560.68 556.9 555.54 551.69 549.24 548.22 546.86 543.75 537.58 533.83 528.75 528.08 526.18 524.68 522.17 518.61 515.1 510.41 503.97 497.5 489.9 479.86 469.35 467.49 465.98 464.09 462.94 461.53 461.63 460.19 458.09 458.17 456.6 456.65 455.16 454.19 452.79 451.67 451.51 450.71 448.6 447.95 446.2 444.07 443.26 442.74 442.03 439.52 438.33 437.64 436.81 436.33 435.33 434.67 433.67 433.17 431.69 431.2 431.19 430.43 430.45 430.55 430.34 430.62 430.46
677.9 680.24 682.73 685.04 688.23 691.26 694.23 697.75 702.33 704.1 706.33 707.64 709.26 709.93 710.67 711.16 711.01 710.62 709.61 708.56 707.4 706.77 705.28 704.75 703.68 702.4 700.89 700.39 700.4 701.36 701.12 702.86 702.93 704.58 705.28 706.7 708.12 709.01 710.48 711.63 712.42 713.75 713.58 714.47 714.33 714.73 714.82 714.93 713.83 712.95 712.09 710.95 708.69 708 704.94 702.68 700.6 698.17 696.55 695.25 693.78 692.01 689.89 688.5 685.51 683.8 680.74 677.56 674.36 671.13 668.15 665.96 662.85 659.8 655.76 652.55 649.64 644.56 640.64 636.52 633.5 628.65 624.98 620.36 615.64 611.75 608.17 604.45 599.03 595.44 592.05 589.51 586.03 583.49 581.37 577.06 574.44 572.31 571.04 568.16 565.96 563.54 558.86 556.02 553.67 552.97 551.73 549.49 548.67 543.23 540 534.3 531.68 530.11 529.04 525.43 522.54 519.54 515.6 511.11 505.7 499.58 491.02 476.36 470.76 469.77 468.64 466.91 464.94 464.03 462.48 461.47 461.04 460.02 458.74 457.92 456.55 455.82 455.37 453.93 452.3 451.64 450.24 448.18 446.73 445.25 444.4 443.49 442.45 441.18 440.52 439.11 438.1 436.91 436.2 434.87 434.32 433.65 432.4 432.51 431.14 430.95 430.81 430.29 432.35 431.89 431.47
676.67 679.33 682.24 685.29 688.18 690.7 694.64 698.21 701.47 703.6 705.16 708.19 708.47 709.1 708.8 708.39 708.22 707.87 708.59 707.14 706.12 705.24 703.25 702.45 701.16 699.01 700.06 699.62 699.46 700.13 700.24 701.41 702.29 703.14 704.5 706.23 707.07 708.22 709.26 710.75 711.48 712.88 713.38 713.49 713.07 713.4 713.12 712.72 712.12 711.88 711.13 709.63 707.18 705.35 703.45 700.66 698.91 697.66 696.18 694.23 693.07 691.15 688.95 687.38 685.47 683.6 679.37 676.67 674.39 671.09 668.36 665.1 662.52 659.12 656.42 652.45 649.12 644.46 640.42 637.04 632.71 629.14 624.98 620.44 616.46 612.28 608.29 603.33 599.67 595.76 592.62 589.99 588.06 584.47 579.96 576.65 574.19 571.77 569.94 567.04 564.51 561.18 558.91 556.17 555.05 553.96 554.1 551.09 547.14 543.88 539.84 536.23 535.07 532.79 529.51 526.62 524.02 520.85 516.61 512.6 506.65 500.95 485.57 475.85 473 473.32 470.59 468.81 466.99 464.95 464.33 463.57 463.37 461.09 459.94 458.54 458.41 457.43 454.95 455.36 454.05 452.71 450.85 450.49 448.21 447.26 446.22 445.59 443.3 442.62 440.95 440.24 439.08 438.13 436.9 435.79 435.08 433.6 432.69 431.89 431.16 430.93 430.35 430.55 431.79 431.12 431.52
675.91 678.59 681.48 685.07 686.81 689.5 694.37 697.96 700.28 702.82 704.83 705.73 706.25 706.27 707.41 707.09 706.56 705.54 705.24 703.99 702.99 701.54 701.41 699.75 698.67 697.49 697.59 697.52 698 699.12 700.22 700.98 702.07 702.97 703.42 705.49 707.04 708.57 709.35 710.74 711.98 712.25 712.3 712.87 712.1 712.49 712.27 711.88 711.21 709.9 708.87 707.64 706.14 704.32 702.07 699.87 698.11 696.53 694.66 692.89 692.65 690.82 689.21 687.5 685.43 682.3 680.1 676.23 674.18 670.84 668.28 665.76 660.93 658.92 656.23 652.77 648.79 644.73 640.88 635.72 632.76 629.61 624.5 621.07 616.72 612.89 607.32 604.76 601.58 597.58 593.76 590.33 587.03 583.4 579.44 575.79 572.72 570.19 568.64 567.31 563.47 561.38 558.87 555.85 554.69 555.09 552.82 549.01 547.58 545.59 541.7 540.54 539.1 536.6 530.1 526.59 522.51 519.9 516.69 511.25 505.46 494.86 482.87 476.2 473.95 474.52 473.75 471.46 468.92 466.46 465.88 465.01 464.7 463.21 462.48 461.3 459.66 458.5 457.08 456.94 455.6 454.6 453.2 451.67 450.19 449.32 447.1 446.59 445.02 444.04 442.8 441.32 440.27 438.54 437.91 436.5 435.11 434.17 433.26 431.87 431.59 430.99 430.64 430.84 431.13 431.73 431.71
674.95 677.88 681.89 684.07 685.94 688.02 693.94 696.68 698.93 701.81 703.66 704.28 704.7 704.63 704.39 703.74 703.74 704.06 703.15 702.24 701.62 699.77 698.12 697.06 696.04 696.48 696.26 696.11 696.31 697.27 698.81 699.5 700.79 701.95 703.39 704.83 706.57 707.74 709.06 710.18 710.85 711.61 712.68 712.25 711.5 711.39 710.85 709.94 709.7 708.45 707.01 705.45 704.93 702.56 700.86 698.48 697.57 695.44 694.23 692.89 690.82 689.97 688.28 687.18 684.25 681.79 679.74 676.41 673.56 670.47 668.1 664.82 661.21 658.47 655.79 653.09 649.01 645.47 640.16 636.51 632.39 629.93 625.59 621.77 618.77 613.16 608.63 605.09 602.38 598.95 595.22 591.08 585.92 583.11 580.02 575.42 571.9 569.51 567.75 566.14 562.33 559.13 557.24 555.21 554.33 554.08 550.56 549.27 547.51 546.33 543.33 541.7 540.57 533.68 528.39 521.21 518.61 514.49 511.46 505.6 497.16 488.75 481.36 478.22 478.13 477.15 473.86 472.07 471.27 470.24 469.26 468.7 465.39 464.14 462.95 462.71 462.04 461.63 459.81 458.7 456.11 455.8 454.47 453.31 452.89 452.55 449.76 447.29 446.94 444.65 444.21 443.02 441.94 440.69 439.1 437.89 435.66 434.55 433.2 432.35 431.84 430.51 430.63 430.4 431.17 431.59 431.3
676.18 678.25 680.91 683.47 685.56 687.1 690.91 696.06 698.69 699.89 700.68 701.32 701.36 702.87 702.47 702.28 701.56 700.64 699.41 698.38 698.96 697.55 696.33 694.89 694.82 694.32 694.31 694.65 695.71 696.59 697.74 698.77 699.93 701.12 702.53 704.47 706.35 707.39 709.23 709.82 711.06 711.46 712.12 711.35 710.75 710.41 709.63 708.87 708.08 706.17 705.86 704.85 704 701.52 699.3 697.39 695.66 693.89 692.7 691.84 691.02 689.12 687.59 685.13 683.62 681.79 679.56 676.75 674.09 671.32 667.19 663.99 661.17 658.69 655.14 652.49 648.95 644.83 641.15 637.44 634.06 630.24 627.21 622.86 617.98 613.92 610.41 606.88 603.9 599.97 596.14 590.1 587.38 584.48 580.73 575.66 571.78 567.62 566.27 564.89 561.79 558.81 555.28 555.18 555.48 553.7 551.55 550.67 549.69 546.7 542.99 539.12 537.64 531.99 527.36 524.44 524.63 519.98 508.5 498.14 494.37 489.24 483.2 482.02 481.86 480.38 477.22 474.53 474.05 472.44 471.3 470.19 468.48 467.07 466.71 464.17 463.35 462.24 461.34 459.67 458.29 458.09 457.15 456 454.1 452.47 451.68 449.41 448.55 447.22 445.93 444.72 443.19 441.59 439.37 437.87 436.92 435.73 433.31 432.73 431.53 431.21 431.03 430.87 431.19 431.83 431.52
675.07 677.75 680.24 682.99 685.07 687.22 689.32 691.78 696.77 698.06 699.15 699.13 700.16 700.1 699.85 699.37 699.99 698.62 697.95 696.88 695.61 694 692.88 692.31 692.71 692.17 692.47 693.48 694.17 694.54 696.16 697.89 699.32 700.47 703.12 704.26 706.08 707.41 708.59 709.66 710.42 711.06 711.7 710.95 710.43 710.26 709.04 708.09 706.38 705.02 703.83 702.98 702.3 700.02 699.25 697.03 694.54 692.72 691.37 690.4 688.8 687.62 686.13 684.75 682.5 681.09 678.78 676.07 674.13 670.41 667.38 664.44 662.1 658.97 656.06 652.05 648.86 644.85 641.11 637.94 634.97 631.6 626.83 622.68 618.74 615.19 612.23 608.96 604.61 600.55 596.57 592.56 589.18 586.14 581.34 577.66 572.47 569.47 566.86 563.79 560.53 557.07 555.72 557.72 557.62 556.33 555.37 553.34 549.95 546.47 541.65 539.1 537.48 535.29 531.61 529.94 531.09 521.79 511.64 503.55 493.98 489.22 487.15 485.11 483.45 481.78 479.41 478.83 476.91 476.28 475.03 472.15 470.07 469.11 468.2 467.2 465.86 465.06 462.9 461.46 460.92 459.72 459.2 457.99 456.44 455.7 453.95 452.21 450.08 449.5 447.98 446.82 444.05 442.92 440.07 438.51 437.67 435.87 434.86 433.29 431.83 430.6 431.12 430.58 430.96 431.18 431.75
675.48 677.63 680 682.35 684.44 687.34 689.59 690.57 692.66 694.27 696.4 698.29 698.68 698.77 698.14 697.55 696.36 695.41 694.87 694.19 693.07 691.8 691.46 690.04 690.35 690.51 690.92 692.59 693 693.79 695.2 695.85 698.11 700.54 701.04 703.88 705.16 706.69 708.25 708.7 710.53 711.07 711.22 710.96 709.55 709.08 708.57 706.56 705.56 703.84 703.13 702.56 701.04 699.09 696.66 695.35 693.1 691.03 689.83 689.46 687.48 685.9 684.62 682.89 681.94 680.55 678.04 675.07 672.9 670.37 667.89 664.78 661.73 658.62 655.58 651.84 649.06 645.96 641.99 639.36 635.92 630.55 626.58 623.48 620.37 617.55 613.73 610.76 605.25 601.43 597.37 593.86 589.81 586.38 583.05 579 574.89 571.4 568.27 564.38 560.16 557.42 558.56 560.15 559.35 558.18 555.85 553.49 549.66 545.79 543.1 540.64 538.03 534.94 533.01 532.54 527.93 521.93 513.18 505 498.6 493.02 494.34 490.82 486.64 485.84 482.65 481.72 480.55 478.71 477.37 476.59 474.94 473.54 470.84 469.28 467.55 467.75 466.08 465.31 464.3 461.92 461.71 459.67 458.23 458.03 456.25 455.06 453.2 451.36 450.29 448.57 445.94 444.44 442.09 440.29 438.9 437.02 434.67 433.99 432.38 431.98 430.54 9999 430.32 430.63 431.26
674.78 677.43 679.22 682.22 684.24 686.41 687.86 690.33 691.8 693.43 695.07 695.97 695.94 695.41 695.17 695.39 694.68 693.65 692.12 691.46 689.85 689 689.02 689.03 688.26 689.56 689.28 690.44 690.79 692.33 693.72 695.3 697.72 699.45 701.13 702.98 704.22 706.22 707.77 708.8 709.47 709.85 710.23 709.91 708.29 708.05 706.76 705.74 704.89 703.03 702.32 701.08 699.56 698.33 697.05 694.45 692.11 690.41 688.44 686.55 685.24 685.1 683.72 682.15 680.96 679.37 677.38 675.37 673.43 670.26 667.87 665.52 663.01 659.02 656.09 653.33 648.93 645.76 643.35 639.31 634.66 632.03 628.52 625.38 621.65 618.59 614.93 610.98 605.68 602.64 598.62 594.57 590.9 587.33 582.62 579.15 576.55 573.09 569.78 565.78 562.38 559.27 561.53 561.51 560.66 558.53 555.62 551.88 549.11 546.14 542.65 541.63 540.49 537.26 533.3 529.94 526.03 519.8 512.46 507.58 506.85 500.61 494.58 492.5 490.4 489.07 487.8 486.37 484.14 481.8 480.5 479.3 478.47 475.65 474.57 472.18 470.96 469.75 469.52 468.33 466.52 466.04 464.14 463.47 461.63 459.52 458.25 457.47 455.98 454.05 451.89 451.8 448.29 445.42 444.21 442.27 440.36 439.21 436.79 436.17 434.49 432.62 431 9999 9999 431.13 431.02
674.66 676.94 678.88 681.72 684.3 685.98 687.85 689.37 690.61 691.63 693.94 693.92 694.05 693.7 693.26 692.1 691.98 690.52 690.23 689.56 687.45 687.01 686.58 686.21 686.45 686.79 688.75 688.95 689.95 690.94 693.19 694.77 696.38 698.25 699.92 702.02 703.32 705.56 707.34 708.14 708.83 709.35 709.86 708.43 707.86 707.27 705.84 704.6 702.98 702.83 701.47 700.25 699.15 697.35 696.16 693.86 691.1 689.35 686.66 685.63 684.53 682.42 681.55 680.79 680.35 678.42 676.68 675.15 672.5 671.18 668.51 665.89 662.25 659.69 656.67 653.18 649.79 646.12 643.38 638.98 636.22 632.4 629.39 627.5 623.99 620.9 616.47 611.21 608.18 603.67 599.98 595.6 591.84 588.44 584.91 580.2 577.16 573.97 570.73 568.13 565.04 562.7 561.44 561 559.64 558.12 555.02 552.31 548.99 547.18 545.36 544.8 542.57 540.27 533.71 528.87 525.58 519.62 517.32 516.32 509.86 504.85 503.2 500.01 496.93 492.94 491.75 488.9 487.2 486.01 484.38 484.06 482.54 479.02 477.48 475.06 474.26 474.17 472.97 472.15 468.9 467.47 465.97 465.88 464.61 463.05 462.19 460.5 457.43 456.65 456.05 453.86 451.82 450.51 448.46 443.75 441.49 440.05 438.92 437.41 436.76 434.17 432.74 430.62 9999 430.84 430.55
674.92 677.08 679.71 682.12 683.95 685.38 687.24 688.83 690.05 690.99 691.4 692.32 692 692.5 692.01 690.55 689.62 688.29 687.09 686.07 684.95 684.8 685.03 685.37 684.57 685.75 686.58 686.97 688.03 689.7 691.89 693.37 695.35 697.07 698.97 700.29 703.79 705.23 706.47 707.2 708.04 708.45 708.68 707.47 706.8 706.11 704.8 704.38 702.98 701.55 700.61 700.17 698.29 697.25 695.16 693.36 690.43 686.98 685.92 683.98 682.73 681.56 680.3 679.66 678.78 677.28 676.05 674.33 673.03 670.82 668.86 665.62 663.03 660.03 656.93 654.27 650.87 647.37 643.43 639.76 637.17 633.77 630.47 627.93 624.84 621.45 617.96 613.88 609.83 605.94 601.2 597.29 592.29 589.16 585.84 581.54 577.59 574.74 570.96 569.18 567.21 564.21 561.53 560.86 559.44 557.14 554.99 551.99 550.06 548.44 547.49 548.49 546.21 542.21 534.52 531.19 528.36 529.28 526.38 523.19 524.33 517.51 513.59 506.65 504.37 500.16 496.48 494.27 491.47 490.22 488.13 487.63 485.28 484.51 481.35 480.41 477.2 477.01 476.44 475.24 472.72 471.63 470.06 467.67 466.61 466.11 464.06 462.41 461.48 461.24 460.49 457.59 455.45 452.79 449.95 446.74 445.17 444.15 441.07 439.56 437.94 435.46 433.76 432.66 432.09 430.85 430.91
676.19 677.81 680.58 682.08 684.17 685.56 686.68 688.44 689.45 690.35 690.97 690.26 691.16 690.42 689.33 688.33 686.52 686.05 684.86 683.83 682.76 681.86 681.94 681.8 683.21 683.9 684.57 685.97 687.22 688.7 690.37 691.61 694.21 695.91 697.68 700.45 701.89 703.31 704.63 705.83 707.17 707.67 707.21 707.03 705.92 705.39 704.19 704.04 702.72 701.09 700.34 698.69 697.69 696.56 694.77 692.67 689.83 686.9 684.44 682.25 680.82 679.4 678.48 678.44 677.92 676.12 675.53 674.48 673 670.65 667.7 665.6 663.09 660.23 657.31 654.22 650.47 647.32 642.79 640.91 637.09 634.04 631.64 628.27 625.86 622.68 619.74 615.41 611.88 607.33 602.23 598.79 595.17 590.2 585.95 582.48 579.17 575.16 572.27 568.72 568.08 565.08 562.15 560.97 560.2 559.23 556.16 554.49 553.6 551.18 549.94 550.36 547.42 541.97 536.86 537.48 533.76 534.71 531.75 532.47 533.51 529.89 522.8 518.43 510.18 504.01 502.37 500.23 499.74 496.95 494.21 490.79 490 487.41 486.83 483.03 481.92 481.49 480.19 477.72 475.47 474.23 472.45 472.59 471.23 468.68 465.73 464.33 464.1 463.4 462.55 462.42 460.41 456.23 451.7 449.24 447.71 445.65 443.79 442.54 440.65 437.69 435.85 434.78 433.61 431.74 431.1
676.97 679.45 681.43 682.82 684.06 685.88 687.04 688.05 688.58 689.11 689.65 689.51 689.1 688.83 687.74 685.74 684.94 683.19 681.17 680.8 680.55 680.25 679.97 681.08 681.2 681.2 682.51 684.55 685.99 688 689.49 690.84 692.39 694.35 696.81 699.36 700.76 702.38 703.42 704.55 705.35 706.4 706.41 706.32 705.72 704.62 703.62 702.79 700.88 700.04 699.2 698.43 697.32 695.66 694.53 691.44 689.21 685.88 683.72 681.4 679.63 677.89 676.61 676 675.85 675.61 674.56 673.94 672.3 670.2 668.37 666.57 663.53 661.43 658.35 654.03 651.43 647.33 644.71 641.28 637.84 634.34 631.35 629.32 626.74 623.33 620.77 616.21 613.11 607.38 603.59 600.03 596.19 591.55 588.41 585.3 579.8 576.29 573.01 570.26 567.59 565.68 563.81 563.04 561.33 559.59 556.63 556.21 554.75 553.5 553.14 553.3 549.02 544.04 541.32 543.36 544.7 543.03 541.66 538.13 539.07 534.3 529.22 525.44 519.59 515.38 510.55 504.45 503.24 501.19 499.28 496.71 496.3 494.16 488.47 486.35 485.83 485.31 483.35 482.64 480.24 478.87 476.18 473.96 471.94 470.56 468.78 467.79 466.65 466.23 465.34 463.62 462.19 459.92 456.43 453.97 451.65 447.71 446.88 444.78 443.19 441.07 439.74 437.02 436.27 432.99 431.51
677.71 679.41 681.83 683.32 684.96 686.18 687.22 687.76 689.16 689.14 689.36 688.01 687.02 685.9 685.16 684.05 682.52 681.27 679.97 678.13 678.31 677.69 677.21 678.9 679.35 679.73 681.29 683.42 684.59 686.12 687.36 689.68 692.1 693.93 695.88 697.04 698.87 701.05 702.5 704.1 704.96 705.35 705.46 705.62 705.41 704.62 703.24 702.44 701.13 700.12 699.22 697.65 696.8 694.85 693.22 690.69 688.4 686.12 682.8 680.47 677.41 675 675.37 675.32 674.79 674.06 674.19 672.5 672.02 669.91 668.86 666.62 663.73 661.76 658.48 655.71 651.56 648.37 646.07 642.26 638.68 634.5 632.81 630.5 627.14 623.74 621.05 618.03 612.97 609.76 605.63 602.27 597.67 593.51 589.85 585.44 581.03 578.05 575.06 571.3 568.55 565.97 565.49 565.41 562.95 560.58 559 557.32 557.1 554.84 554.9 554.98 552.65 548.89 547.72 548.33 550.09 548.03 545.35 545.3 544.37 542.48 536.39 531.3 527.65 523.51 518.22 513.82 509.37 507.83 502.11 500.89 500.69 497.94 496.06 493.14 492 488.94 486.34 485.14 483.1 480.96 479.42 478.08 476.3 473.32 471.8 471.34 469.58 468.8 467.36 467.16 465.54 462.37 460.65 457.24 454.18 451.29 450.21 448.63 445.2 442.56 440.85 439.91 437.67 435.15 433.78
678.87 680.32 682.74 683.8 686.06 686.6 687.61 688.28 688.55 688.37 688.29 686.76 686.16 685.57 683.47 681.36 680.15 678.71 677.1 676.44 675.7 676.13 676.52 676.2 676.92 678.15 680.17 681.77 683.24 685.01 687.12 689.39 691.27 693.33 694.55 696.68 698.2 699.39 701.79 702.82 704.51 705.6 705.63 705.33 704.71 703.46 702.88 701.99 700.36 700.17 698.26 697.05 695.21 694.19 692.5 690.87 688.07 685.77 683.36 679.81 676.78 674.94 673.37 673.21 673.39 673.58 673 672.58 671.38 670.47 667.95 666.33 663.79 661.64 658.52 654.99 651.77 649.7 646.07 643.36 638.66 636.27 633.66 630.95 627.39 625.24 622.4 617.67 613.54 610.22 606.94 603.29 599.03 595.32 590.41 586.33 582.96 579.31 576.52 572.3 569.11 568.52 568.86 566.24 564.18 563.06 562.2 560.68 558.82 557.98 557.95 558.07 555.43 553.1 553.69 555.44 555.31 552.85 548.23 547.27 548.09 546.38 545.11 541.78 537.53 534.09 526.39 521.23 513.94 509.92 507.62 507.25 505.27 501.85 499.37 495.2 494.41 492.93 491.38 489.11 487.39 484.58 481.88 481.04 478.7 477.63 475.98 473.66 471.34 471.32 469.7 469.13 468.13 466.17 464.02 461.75 456.87 453.76 451.38 449.92 447.96 445.83 444.53 440.52 438.9 436.7 436.19
679.18 681.61 683.7 685.3 686.28 687.3 688.35 688.24 688.51 687.76 686.33 685.82 684.45 682.76 682.08 680.45 677.49 676.18 674.74 674.56 674.02 673.38 674.09 674.66 676.23 676.91 677.86 680.04 681.64 684.41 686.99 689.08 690.45 693.19 694.3 695.02 697.26 699.68 701.63 702.65 703.62 704.29 705.31 705.02 704.58 704.1 703.07 701.88 700.42 699.06 697.29 695.74 694.8 693.63 692.12 690.6 688.62 686.42 683.12 680.82 677.56 674.7 672.84 672.94 672.79 672.25 671.81 671.22 670.87 670.09 668.11 666.41 662.81 660.94 658.54 656.1 652.25 650.05 646.68 642.86 640.02 637.11 634.39 631.08 628.87 625.46 621.99 618.5 615.06 611.7 608.58 604.23 600.08 594.45 592 589.22 585.51 581.23 577.26 571.77 569.3 570.45 570.36 568.64 568.1 566.86 564.2 561.32 560.39 560.3 561.26 561.79 560.62 559.12 557.66 557.67 556.43 555.45 553.89 551.85 551.72 550.85 549.33 549.19 543.63 537.44 534.6 528.69 519.97 514.1 511.64 509.75 508.46 505.98 503.12 501 498.13 495.13 494.06 491.6 490.78 487.53 487.43 484.36 481.99 480.36 478.24 477.03 475.13 474.43 474.01 471.62 469.92 468.32 466.57 463.45 461.81 457.99 455.89 452.75 451.02 449.05 446.07 444 441.56 440.87 438.5
682.07 684.62 685.37 685.83 686.63 687.74 687.82 687.42 687.18 686.46 685.36 684.68 682.55 680.89 678.84 676.64 675.33 674.16 673.18 672.12 672.09 671.51 671.67 672.35 673.44 675.99 677.11 679.05 680.65 683.62 686.14 688.27 690.12 692.17 693.89 695.25 697.95 699.73 701.13 702.58 703.54 704.62 705.06 705.2 704.94 704.09 703.25 702.11 700.92 699.25 697.13 695.47 694.15 693.13 691.46 690.37 688.57 685.88 684.2 682.21 679.75 676.28 674.59 673.09 672.38 671.43 671.15 670.42 669.96 668.93 667.27 665.21 663.09 660.67 658.23 655.53 653.06 649.99 646.67 642.95 640.1 637.49 634.53 631.6 627.58 625.49 622.62 618.93 615.29 613.51 609.33 604.53 600.46 596.65 593.01 590.42 587.38 583.26 578.02 575.14 573.44 573.67 572.89 571.08 570.36 568.44 565.89 565.12 562.78 562.75 564.53 564.86 564.15 562.58 561.91 560.34 559.54 558.18 556.53 554.25 554.34 554.18 552.84 550.98 548.52 543.53 538.59 531.84 524.37 520.07 516.58 515.27 511.67 508.99 506.16 505.41 502.38 499.64 498.55 495.8 493.72 491.71 489.8 487.91 485.94 483.8 482.47 479.05 478.17 476.76 475.98 474.95 472.95 471.73 469.59 467.23 463.93 460.69 459.54 456.88 455.58 453.61 449.99 447.87 444.87 443.54 442.18
684.42 685.06 686.61 687.18 687.49 687.45 687.61 687.15 686.66 685.25 683.18 681.49 679.77 678.87 676.24 674.76 673.72 671.9 670.72 669.63 670.16 669.08 669.27 670.21 672.07 673.36 675.13 676.63 680.02 682.56 684.56 687.32 690.16 691.46 694.04 695.95 697.84 699.06 700.72 701.42 703.46 704.14 705.3 705.4 704.96 704.29 703.14 702.36 700.3 699.13 696.7 695.4 693.29 692.6 691.19 690.3 688.72 687.56 686.27 683.69 680.95 678.11 676.08 673.81 672.84 670.72 670.34 670.38 669.69 668.23 666.4 664.84 663.22 660.65 658.63 655.53 651.74 649.59 646.77 644.26 641.1 638.63 635.53 631.22 628.44 625.16 622.49 619.6 616.63 613.77 609.85 606.02 601.85 598.61 595.81 592.43 589.31 583.36 580.77 577.47 575.87 575.58 575.04 574.51 572.35 568.99 566.82 566.06 565.58 566.24 567.36 568.29 567.21 564.99 562.87 561.73 561.1 560.95 557.65 556.18 556.43 555.45 554.57 553.34 552.32 547.99 543.76 539.13 529.59 525.78 522.17 519.19 516.29 514.17 512.86 507.41 504.82 502.79 502.11 499.8 498.99 497.28 495.84 491.28 488.7 487.24 485.13 483.83 481.72 481.59 478.6 477.03 475.24 473.78 471.83 470.02 468.05 465.7 461.82 459.23 458.61 457.04 454.91 452.65 450.94 446.57 444.25
685.17 686 686.82 687.6 687.91 687.7 687.41 685.49 685.64 682.92 681.23 680.02 678.69 676.08 674.36 672.61 672.01 669.91 668.73 667.67 667.25 666.57 666.45 667.9 670.08 672.05 673.11 676.3 678.55 681.17 683.57 686.8 689.34 691.26 693.13 695.24 697.38 698.16 699.59 700.84 702.46 704.24 704.91 705.5 705.74 704.53 703.34 702.33 700.06 698.27 696.02 694.72 692.99 691.91 689.95 690.04 688.29 687.5 686.78 685.07 682.26 679.47 677.3 675.27 673.81 672 671.52 669.98 669.45 668.4 666.96 664.19 662.84 660.61 657.82 654.54 652.48 649.51 647.65 644.13 641.08 638.51 634.68 631.24 628.13 625.83 622.35 619.8 617.28 613.77 611.92 607.88 604.68 599.95 597.11 594.2 589.57 585.15 582.5 580.37 578.81 578.45 577.62 575.89 574.33 571.25 569.08 567.72 566.43 567.95 569.44 569.86 569.09 567.35 564.17 562.94 562.54 560.47 557.8 558.17 559.17 559.57 558.42 555.6 553.51 550.89 547.45 543.93 538.21 532.85 528.12 522.31 520.11 518.2 515.95 513.75 511.46 508.28 505.55 505.15 501.6 500.09 498.86 495.57 493.74 491.1 489.08 487.41 485.96 484 482.9 480.76 479.35 476.67 474.09 473.65 471.44 468.98 467.27 464.6 463.92 460.49 458.21 456.07 454.24 451.51 449.16
685.65 687.08 687.95 687.63 687.95 687.12 685.82 684.28 681.76 681.18 679.63 678.4 676.09 675.24 672.82 670.78 669.24 667.62 666.47 666.62 665.11 664.7 665.34 666.77 667.73 669.69 672 674.55 676.63 679.72 682.54 685.25 687.64 690.86 692.03 694.51 695.8 697.43 698.08 700.2 701.93 702.65 704.23 704.92 705.53 704.8 703.61 700.86 699.6 698.07 696.16 693.75 692.65 690.9 689.48 689 688.02 687.03 686.66 685.06 683.1 680.54 678.6 677.4 675.96 673.37 672.2 670.71 668.99 667.77 666.05 664.27 662.2 660.15 656.57 654.55 651.89 649.78 646.91 644.77 642.01 637.56 634.77 631.68 629.24 627.05 623.82 621.2 617.54 615.69 612.62 609.66 605.61 602.89 598.97 594.92 590.89 587.38 584.48 582.35 581.64 580.98 579.87 577.98 574.87 572.77 571.04 569.36 568.55 570.49 571.92 571.18 570.52 568 565.48 564.5 562.82 560.58 559.54 559.49 560.89 561.05 559.81 558.65 557.92 556.25 551.36 547.53 543.45 536.56 531.79 528.35 526.99 525.71 519.53 517.89 515.07 512.74 510.5 510.54 507.29 504.17 501.95 499.36 497.05 495.31 494.66 494.83 490.52 488.17 485.59 484.5 483.62 481.03 480.44 477.49 474.3 471.81 469.66 468.15 467.37 464.78 464.26 462.52 457.01 455.2 453.42
