182.68 183.76 184.79 185.79 186.78 186.76 186.64 186.54 187.4 188.26 189.08 189.69 190.29 191.1 192.55 193.99 195.45 196.93 198.42 199.58 200.39 201.2 201.69 201.95 202.21 202.37 202.5 202.63 202.38 202.04 201.7 201.29 200.88 200.46 200.47 200.48 200.58 201.18 201.78 202.39 203.03 203.69 204.25 204.67 205.08 205.46 205.81 206.16 206.29 206.27 206.25 206.4 206.61 206.83 206.8 206.71 206.62 206.06 205.45 204.85 204.75 204.66 204.53 204.26 204 203.75 203.52 203.3 203.27 203.6 203.92 204.4 205.04 205.69 206.11 206.37 206.64 204.19 200.55 196.94 189.75 181.67 173.57 168.26
181.25 182.43 183.88 185.38 186.88 187.06 187.12 187.21 188.23 189.25 190.25 191.14 192.03 193.12 194.85 196.57 198.17 199.56 200.95 201.93 202.45 202.97 203.29 203.46 203.64 203.57 203.38 203.21 202.75 202.22 201.7 201.51 201.33 201.16 201.02 200.88 200.88 201.68 202.48 203.19 203.66 204.14 204.56 204.89 205.22 205.57 205.94 206.31 206.39 206.28 206.17 206.39 206.75 207.1 207.05 206.91 206.77 206.14 205.48 204.84 204.91 204.97 204.97 204.54 204.12 203.77 203.63 203.48 203.53 203.91 204.29 204.78 205.41 206.04 206.34 206.41 206.49 202.95 197.89 192.85 186.05 178.81 171.56 168.2
180.17 181.42 183.18 185.05 186.92 187.32 187.6 187.91 189.1 190.28 191.46 192.67 193.87 195.25 197.12 198.99 200.64 201.9 203.16 203.95 204.24 204.53 204.72 204.84 204.97 204.69 204.24 203.79 203.15 202.46 201.77 201.77 201.82 201.86 201.57 201.28 201.19 202.19 203.18 203.99 204.29 204.59 204.87 205.12 205.36 205.68 206.07 206.46 206.49 206.29 206.09 206.38 206.88 207.38 207.3 207.11 206.91 206.23 205.51 204.84 205.07 205.3 205.4 204.82 204.24 203.8 203.73 203.67 203.79 204.22 204.65 205.17 205.78 206.39 206.56 206.45 206.33 201.68 195.2 188.74 182.36 175.97 169.57 168.18
179.79 181.11 182.94 184.86 186.79 187.48 188.08 188.72 190.05 191.38 192.77 194.44 196.11 197.73 199.25 200.77 202.03 202.86 203.69 204.25 204.51 204.77 205.01 205.22 205.43 205.23 204.86 204.49 204.03 203.55 203.06 203 202.97 202.93 202.84 202.75 202.78 203.48 204.18 204.77 205.04 205.32 205.55 205.72 205.89 206.11 206.36 206.62 206.61 206.42 206.24 206.5 206.95 207.4 207.21 206.9 206.6 205.92 205.22 204.57 204.93 205.29 205.51 205.02 204.52 204.13 203.99 203.85 203.9 204.25 204.6 205.13 205.83 206.52 206.67 206.47 206.27 201.26 194.37 187.48 182.3 177.44 172.53 172.08
179.41 180.8 182.69 184.68 186.67 187.65 188.58 189.53 191.01 192.49 194.08 196.22 198.36 200.21 201.37 202.54 203.41 203.81 204.22 204.54 204.78 205.02 205.3 205.6 205.9 205.77 205.48 205.2 204.92 204.64 204.35 204.23 204.11 204.01 204.11 204.22 204.37 204.78 205.19 205.56 205.81 206.05 206.24 206.35 206.46 206.56 206.67 206.77 206.73 206.58 206.43 206.64 207 207.36 207.05 206.6 206.16 205.5 204.84 204.24 204.71 205.18 205.51 205.2 204.88 204.58 204.3 204.03 203.94 204.14 204.35 204.87 205.7 206.53 206.71 206.49 206.27 201.43 194.88 188.32 185.04 182.34 179.6 179.34
179.46 180.92 182.82 184.8 186.78 187.97 189.13 190.32 191.92 193.53 195.29 197.79 200.3 202.33 203.22 204.1 204.63 204.63 204.64 204.77 205 205.23 205.57 205.96 206.35 206.31 206.11 205.9 205.81 205.73 205.65 205.45 205.25 205.09 205.39 205.69 205.95 206.07 206.19 206.35 206.57 206.79 206.94 206.98 207.02 207.01 206.97 206.93 206.84 206.73 206.61 206.78 207.06 207.33 206.88 206.3 205.73 205.09 204.45 203.9 204.48 205.06 205.51 205.38 205.24 205.02 204.61 204.2 203.98 204.03 204.09 204.61 205.58 206.53 206.74 206.5 206.27 201.61 195.39 189.16 187.82 187.29 186.72 186.59
180.89 182.51 184.27 186.06 187.85 188.92 189.95 191.03 192.61 194.19 195.87 197.95 200.03 201.8 202.81 203.82 204.31 204.07 203.83 203.89 204.22 204.54 205.02 205.57 206.12 206.42 206.63 206.82 206.85 206.84 206.84 206.57 206.3 206.06 206.21 206.36 206.51 206.63 206.74 206.88 207.07 207.26 207.38 207.41 207.43 207.44 207.43 207.42 207.28 207.07 206.86 206.92 207.07 207.23 206.72 206.11 205.49 205.06 204.63 204.27 204.84 205.41 205.84 205.65 205.47 205.19 204.65 204.12 203.82 203.86 203.89 204.46 205.51 206.56 206.84 206.69 206.53 202.61 197.4 192.16 191.31 191.2 191.12 190.13
182.32 184.11 185.72 187.32 188.92 189.85 190.77 191.75 193.3 194.86 196.43 198.09 199.76 201.27 202.41 203.54 203.99 203.5 203.01 203.01 203.43 203.85 204.47 205.18 205.9 206.54 207.15 207.75 207.89 207.96 208.02 207.68 207.33 207.01 206.98 206.95 206.96 207.1 207.23 207.37 207.52 207.68 207.78 207.8 207.82 207.87 207.93 207.99 207.79 207.45 207.12 207.05 207.08 207.1 206.57 205.96 205.35 205.2 205.06 204.97 205.48 205.99 206.33 205.98 205.63 205.18 204.52 203.87 203.53 203.64 203.74 204.38 205.49 206.6 207.01 207.03 207.05 204.44 200.98 197.48 195.52 193.83 192.17 188.96
183.8 185.69 187.15 188.56 189.96 190.77 191.57 192.44 193.95 195.47 196.94 198.22 199.49 200.76 202 203.26 203.66 202.92 202.19 202.14 202.65 203.17 203.92 204.8 205.68 206.66 207.68 208.69 208.93 209.07 209.21 208.79 208.36 207.96 207.75 207.54 207.41 207.56 207.72 207.86 207.98 208.1 208.17 208.19 208.21 208.3 208.43 208.56 208.3 207.84 207.38 207.19 207.08 206.98 206.42 205.81 205.2 205.34 205.49 205.67 206.12 206.57 206.82 206.3 205.78 205.18 204.39 203.61 203.25 203.42 203.59 204.3 205.47 206.64 207.17 207.37 207.56 206.31 204.59 202.83 199.71 196.43 193.19 187.75
185.54 187.23 188.45 189.61 190.78 191.47 192.17 192.91 194.07 195.24 196.48 197.95 199.42 200.71 201.65 202.59 202.91 202.42 201.93 202.04 202.64 203.24 204.06 204.98 205.9 206.77 207.64 208.51 208.7 208.81 208.92 208.47 208.03 207.62 207.5 207.37 207.33 207.55 207.77 207.93 207.96 207.98 208.04 208.15 208.26 208.4 208.57 208.73 208.46 207.97 207.48 207.24 207.06 206.89 206.44 205.96 205.46 205.66 205.87 206.11 206.6 207.1 207.33 206.66 205.99 205.23 204.29 203.35 202.98 203.31 203.63 204.43 205.62 206.8 207.38 207.65 207.93 207.19 206.17 205.17 200.89 196.24 191.6 184.98
187.27 188.76 189.74 190.66 191.59 192.17 192.76 193.38 194.19 195 196.02 197.69 199.35 200.66 201.29 201.92 202.16 201.92 201.68 201.96 202.66 203.36 204.24 205.2 206.16 206.88 207.53 208.19 208.29 208.34 208.38 207.91 207.43 207.02 207.03 207.04 207.11 207.41 207.71 207.88 207.78 207.69 207.74 207.96 208.17 208.37 208.55 208.73 208.46 207.99 207.51 207.24 207.04 206.83 206.56 206.28 206 206.1 206.2 206.36 206.97 207.57 207.85 207.04 206.24 205.32 204.2 203.08 202.73 203.32 203.89 204.79 205.95 207.1 207.62 207.85 208.08 206.58 204.63 202.7 197.17 191.25 185.37 179.37
188.98 190.27 191.02 191.71 192.39 192.87 193.36 193.84 194.3 194.76 195.56 197.43 199.28 200.6 200.92 201.24 201.42 201.43 201.43 201.89 202.69 203.49 204.42 205.42 206.42 206.98 207.42 207.86 207.88 207.86 207.84 207.34 206.84 206.43 206.57 206.71 206.9 207.28 207.66 207.82 207.61 207.4 207.44 207.77 208.09 208.34 208.53 208.72 208.47 208 207.53 207.25 207.01 206.77 206.68 206.61 206.53 206.53 206.53 206.62 207.34 208.05 208.36 207.42 206.49 205.42 204.11 202.8 202.49 203.33 204.16 205.16 206.28 207.4 207.87 208.05 208.22 205.95 203.07 200.21 193.41 186.25 179.15 173.77
190.4 191.42 192.23 193.01 193.78 194.17 194.55 194.95 195.38 195.8 196.47 197.86 199.26 200.3 200.68 201.05 201.38 201.65 201.92 202.41 203.07 203.72 204.45 205.2 205.97 206.39 206.72 207.05 207.09 207.11 207.11 206.89 206.66 206.48 206.64 206.79 206.98 207.28 207.57 207.7 207.53 207.36 207.4 207.69 207.98 208.26 208.52 208.78 208.5 207.97 207.44 207.18 206.98 206.77 206.84 206.93 207.01 206.98 206.96 207.03 207.66 208.3 208.57 207.72 206.87 205.78 204.3 202.82 202.52 203.52 204.52 205.54 206.58 207.62 208.02 208.15 208.27 205.15 201.28 197.43 189.67 181.56 173.57 168.76
191.82 192.56 193.43 194.31 195.16 195.46 195.75 196.07 196.48 196.89 197.43 198.33 199.23 199.98 200.45 200.91 201.42 201.97 202.52 203.02 203.5 203.97 204.43 204.89 205.35 205.63 205.88 206.12 206.21 206.27 206.34 206.49 206.63 206.77 206.91 207.05 207.19 207.33 207.48 207.55 207.5 207.45 207.5 207.68 207.85 208.14 208.52 208.89 208.54 207.9 207.26 207.05 206.94 206.83 207.02 207.23 207.43 207.47 207.5 207.58 207.93 208.28 208.42 207.93 207.43 206.51 204.88 203.25 202.93 203.98 205.03 205.97 206.84 207.71 208 208.06 208.12 204 198.99 193.99 186 177.79 169.75 165.48
193.23 193.7 194.64 195.61 196.55 196.75 196.95 197.19 197.59 197.98 198.38 198.78 199.2 199.67 200.23 200.78 201.47 202.3 203.13 203.63 203.92 204.22 204.41 204.57 204.73 204.88 205.04 205.19 205.32 205.44 205.58 206.1 206.61 207.05 207.17 207.3 207.39 207.38 207.38 207.41 207.48 207.54 207.6 207.66 207.72 208.03 208.51 208.99 208.59 207.83 207.08 206.93 206.91 206.88 207.2 207.54 207.86 207.95 208.04 208.13 208.19 208.26 208.27 208.14 208 207.23 205.46 203.69 203.34 204.44 205.54 206.39 207.09 207.79 207.98 207.97 207.96 202.83 196.67 190.53 182.34 174.02 165.95 162.21
194.68 195.39 196.2 197.01 197.8 197.96 198.12 198.33 198.77 199.22 199.62 199.94 200.26 200.64 201.13 201.62 202.24 203 203.76 204.11 204.19 204.28 204.36 204.44 204.51 204.71 204.92 205.13 205.39 205.65 205.92 206.46 207 207.48 207.65 207.83 207.93 207.88 207.83 207.82 207.88 207.94 207.98 208.01 208.03 208.29 208.71 209.14 208.73 208 207.27 207.15 207.15 207.15 207.47 207.81 208.15 208.31 208.48 208.6 208.48 208.36 208.28 208.34 208.4 207.75 205.99 204.23 203.84 204.82 205.8 206.57 207.19 207.8 207.91 207.82 207.73 201.83 194.8 187.77 179.43 171.02 162.92 159.57
196.12 197.11 197.78 198.43 199.05 199.17 199.29 199.48 199.97 200.47 200.91 201.22 201.53 201.88 202.28 202.68 203.19 203.8 204.41 204.55 204.42 204.28 204.3 204.38 204.45 204.75 205.1 205.44 205.89 206.34 206.79 207.2 207.61 208 208.26 208.52 208.7 208.67 208.65 208.62 208.59 208.57 208.59 208.66 208.73 208.89 209.1 209.32 208.97 208.41 207.85 207.73 207.7 207.66 207.84 208.04 208.24 208.5 208.76 208.95 208.81 208.67 208.56 208.52 208.48 207.89 206.46 205.02 204.54 204.99 205.44 206.1 206.87 207.65 207.69 207.48 207.27 201.51 194.75 187.98 179.8 171.56 163.66 160.2
197.58 198.84 199.36 199.84 200.29 200.37 200.46 200.63 201.18 201.73 202.2 202.5 202.8 203.11 203.42 203.74 204.13 204.59 205.05 204.99 204.64 204.28 204.24 204.32 204.39 204.81 205.28 205.75 206.39 207.04 207.66 207.94 208.22 208.51 208.87 209.22 209.47 209.47 209.47 209.42 209.31 209.2 209.2 209.31 209.43 209.47 209.48 209.5 209.22 208.83 208.44 208.32 208.24 208.17 208.22 208.27 208.34 208.69 209.05 209.3 209.14 208.98 208.83 208.69 208.56 208.03 206.92 205.81 205.23 205.14 205.07 205.63 206.56 207.49 207.48 207.14 206.81 201.19 194.69 188.19 180.17 172.1 164.4 160.84
198.57 199.9 200.39 200.84 201.27 201.46 201.64 201.89 202.44 203 203.44 203.62 203.8 203.99 204.19 204.39 204.68 205.03 205.39 205.28 204.89 204.51 204.5 204.61 204.72 205.23 205.81 206.38 207.11 207.85 208.54 208.73 208.93 209.15 209.45 209.76 209.99 210 210.02 209.99 209.89 209.78 209.79 209.9 210.02 210 209.92 209.84 209.62 209.35 209.08 208.91 208.75 208.6 208.53 208.47 208.44 208.83 209.22 209.5 209.28 209.07 208.87 208.66 208.45 208 207.24 206.46 205.84 205.35 204.86 205.33 206.32 207.32 207.19 206.71 206.23 200.72 194.45 188.18 180.4 172.57 165.1 161.47
199.5 200.84 201.31 201.76 202.2 202.52 202.84 203.19 203.73 204.27 204.65 204.67 204.7 204.75 204.81 204.88 205.06 205.33 205.6 205.5 205.18 204.85 204.91 205.1 205.28 205.89 206.56 207.23 207.98 208.73 209.42 209.57 209.72 209.87 210.02 210.17 210.27 210.3 210.32 210.33 210.32 210.32 210.35 210.4 210.46 210.47 210.45 210.42 210.25 210.03 209.81 209.5 209.18 208.87 208.74 208.62 208.54 208.85 209.16 209.33 208.97 208.61 208.29 208.02 207.77 207.43 207.01 206.57 206.17 205.79 205.42 205.71 206.36 207.03 206.53 205.68 204.84 199.08 192.63 186.19 179.18 172.14 165.47 162.11
200.42 201.78 202.24 202.69 203.13 203.58 204.03 204.49 205.02 205.54 205.86 205.73 205.6 205.5 205.43 205.37 205.44 205.62 205.81 205.71 205.46 205.2 205.33 205.59 205.84 206.54 207.32 208.09 208.85 209.61 210.31 210.41 210.52 210.6 210.58 210.56 210.56 210.59 210.61 210.67 210.76 210.86 210.9 210.91 210.91 210.94 210.97 211 210.88 210.71 210.53 210.09 209.61 209.14 208.96 208.77 208.64 208.86 209.09 209.16 208.65 208.14 207.7 207.39 207.08 206.87 206.78 206.69 206.5 206.23 205.97 206.09 206.4 206.73 205.86 204.65 203.45 197.44 190.82 184.2 177.98 171.74 165.84 162.75
201.57 202.76 203.03 203.3 203.58 204.01 204.44 204.9 205.46 206.02 206.33 206.15 205.96 205.86 205.86 205.85 205.93 206.07 206.21 206.13 205.93 205.74 205.93 206.22 206.52 207.32 208.18 209.03 209.8 210.57 211.26 211.29 211.33 211.33 211.18 211.04 210.96 211.01 211.06 211.13 211.23 211.34 211.38 211.34 211.31 211.33 211.38 211.43 211.34 211.2 211.06 210.57 210.03 209.49 209.26 209.02 208.83 208.97 209.11 209.08 208.44 207.81 207.26 206.9 206.53 206.42 206.62 206.81 206.82 206.68 206.53 206.47 206.47 206.46 205.25 203.71 202.16 195.92 189.11 182.28 176.79 171.35 166.21 163.4
202.79 203.75 203.77 203.79 203.85 204.19 204.52 204.92 205.51 206.11 206.44 206.23 206.03 206 206.17 206.34 206.49 206.61 206.74 206.69 206.56 206.42 206.65 206.98 207.31 208.19 209.13 210.07 210.84 211.6 212.27 212.22 212.16 212.07 211.84 211.61 211.5 211.61 211.73 211.78 211.76 211.74 211.71 211.67 211.63 211.6 211.57 211.55 211.41 211.24 211.07 210.75 210.42 210.08 209.82 209.57 209.36 209.42 209.48 209.37 208.72 208.06 207.49 207.09 206.69 206.57 206.78 206.98 207.09 207.12 207.15 207.07 206.93 206.8 205.84 204.67 203.48 198.53 193.18 187.79 182.53 177.26 172.18 168.43
204.01 204.72 204.5 204.28 204.12 204.36 204.6 204.93 205.57 206.21 206.54 206.32 206.1 206.14 206.49 206.84 207.05 207.16 207.26 207.25 207.18 207.11 207.38 207.74 208.1 209.06 210.09 211.11 211.87 212.64 213.28 213.14 212.99 212.81 212.49 212.17 212.04 212.22 212.4 212.43 212.28 212.13 212.04 212 211.95 211.86 211.76 211.66 211.48 211.29 211.09 210.95 210.81 210.66 210.39 210.12 209.89 209.87 209.85 209.67 208.99 208.31 207.71 207.28 206.86 206.73 206.93 207.14 207.35 207.57 207.78 207.66 207.4 207.14 206.44 205.63 204.81 201.18 197.27 193.31 188.28 183.24 178.25 173.59
204.8 205.34 205.09 204.84 204.65 204.85 205.04 205.32 205.82 206.33 206.61 206.46 206.3 206.43 206.88 207.32 207.63 207.82 208.02 208.04 207.99 207.94 208.22 208.58 208.94 209.92 210.96 212 212.72 213.45 214.04 213.85 213.65 213.4 213.03 212.66 212.52 212.77 213.01 213.03 212.8 212.57 212.43 212.36 212.29 212.15 211.99 211.83 211.61 211.37 211.13 211.15 211.18 211.21 210.91 210.61 210.34 210.25 210.16 209.92 209.24 208.55 207.94 207.48 207.02 206.88 207.09 207.3 207.62 208.01 208.4 208.25 207.86 207.47 207.04 206.59 206.14 203.85 201.4 198.82 194.03 189.23 184.31 178.73
205.37 205.79 205.62 205.45 205.33 205.53 205.72 205.94 206.2 206.47 206.64 206.63 206.62 206.85 207.32 207.79 208.22 208.61 208.99 209.06 208.99 208.92 209.18 209.52 209.86 210.77 211.72 212.66 213.29 213.91 214.41 214.21 214.01 213.76 213.38 213.01 212.88 213.19 213.49 213.54 213.32 213.1 212.94 212.81 212.69 212.53 212.37 212.21 211.91 211.59 211.26 211.36 211.48 211.58 211.16 210.73 210.36 210.21 210.06 209.82 209.28 208.75 208.22 207.71 207.21 207.03 207.19 207.35 207.62 207.98 208.34 208.22 207.92 207.61 207.29 206.97 206.64 205 203.26 201.41 197.6 193.78 189.72 184.53
205.94 206.23 206.15 206.06 206.02 206.21 206.4 206.55 206.58 206.61 206.68 206.81 206.95 207.26 207.76 208.26 208.82 209.4 209.98 210.08 210 209.91 210.15 210.46 210.78 211.61 212.48 213.33 213.85 214.38 214.79 214.58 214.37 214.11 213.73 213.35 213.25 213.61 213.97 214.05 213.84 213.64 213.45 213.27 213.09 212.92 212.75 212.58 212.21 211.8 211.39 211.57 211.78 211.95 211.4 210.85 210.37 210.16 209.96 209.72 209.34 208.95 208.5 207.95 207.39 207.17 207.28 207.39 207.63 207.95 208.27 208.19 207.97 207.75 207.53 207.31 207.09 206.05 204.95 203.73 200.96 198.17 195.05 190.45
206.44 206.62 206.69 206.75 206.84 207.12 207.39 207.55 207.42 207.29 207.25 207.37 207.49 207.79 208.28 208.77 209.4 210.12 210.84 211.05 211.06 211.07 211.34 211.65 211.97 212.69 213.43 214.16 214.53 214.91 215.2 215.02 214.84 214.61 214.27 213.93 213.84 214.16 214.49 214.55 214.34 214.13 213.91 213.67 213.43 213.25 213.08 212.91 212.49 212.02 211.55 211.78 212.06 212.28 211.62 210.96 210.37 210.12 209.86 209.62 209.39 209.16 208.78 208.18 207.58 207.31 207.37 207.43 207.63 207.91 208.19 208.17 208.03 207.88 207.77 207.66 207.55 207.11 206.64 206.08 204.34 202.59 200.4 196.37
206.88 206.98 207.24 207.5 207.78 208.23 208.67 208.92 208.73 208.54 208.39 208.33 208.28 208.47 208.89 209.32 209.97 210.75 211.53 211.95 212.23 212.51 212.89 213.29 213.68 214.23 214.79 215.33 215.47 215.61 215.72 215.67 215.61 215.53 215.38 215.24 215.15 215.14 215.14 215 214.72 214.45 214.14 213.82 213.5 213.29 213.13 212.96 212.63 212.28 211.92 211.99 212.08 212.12 211.52 210.91 210.36 210.07 209.78 209.55 209.46 209.37 209.08 208.5 207.92 207.64 207.64 207.63 207.76 207.96 208.17 208.11 207.95 207.8 207.7 207.62 207.53 207.22 206.9 206.51 205.22 203.93 202.18 198.51
207.32 207.33 207.79 208.25 208.73 209.34 209.94 210.3 210.04 209.79 209.54 209.3 209.06 209.14 209.5 209.87 210.53 211.37 212.21 212.85 213.41 213.97 214.45 214.92 215.39 215.77 216.15 216.5 216.4 216.31 216.25 216.31 216.38 216.44 216.5 216.55 216.45 216.11 215.79 215.45 215.11 214.76 214.38 213.97 213.57 213.34 213.18 213.01 212.78 212.53 212.29 212.19 212.1 211.97 211.42 210.86 210.34 210.02 209.69 209.48 209.54 209.59 209.39 208.83 208.27 207.98 207.91 207.84 207.9 208.02 208.14 208.04 207.86 207.68 207.59 207.51 207.43 207.15 206.86 206.51 205.51 204.51 203.01 199.58
207.99 208.03 208.62 209.21 209.81 210.46 211.12 211.48 211.16 210.84 210.54 210.26 209.97 209.97 210.23 210.5 211.17 212.07 212.98 213.78 214.55 215.31 215.89 216.43 216.97 217.2 217.42 217.61 217.35 217.08 216.9 217.09 217.28 217.46 217.64 217.83 217.68 217.07 216.45 215.94 215.52 215.1 214.64 214.15 213.66 213.41 213.23 213.06 212.92 212.79 212.66 212.39 212.11 211.82 211.32 210.81 210.33 209.97 209.6 209.42 209.62 209.81 209.69 209.16 208.63 208.31 208.18 208.05 208.03 208.08 208.12 207.97 207.76 207.56 207.47 207.4 207.33 207.08 206.83 206.53 205.81 205.09 203.84 200.65
208.93 209.11 209.77 210.42 211.06 211.6 212.13 212.38 211.98 211.58 211.31 211.21 211.11 211.1 211.19 211.28 211.95 212.93 213.91 214.76 215.57 216.38 216.99 217.57 218.15 218.29 218.43 218.53 218.35 218.17 218.1 218.43 218.75 218.96 218.91 218.86 218.56 217.91 217.27 216.7 216.19 215.68 215.19 214.72 214.24 213.81 213.39 212.98 212.77 212.6 212.42 212.06 211.69 211.33 210.95 210.57 210.18 209.74 209.31 209.05 209.18 209.31 209.18 208.69 208.2 207.95 207.89 207.83 207.83 207.87 207.9 207.78 207.62 207.45 207.38 207.31 207.25 207.09 206.93 206.72 206.19 205.66 204.52 201.24
209.87 210.18 210.91 211.64 212.3 212.73 213.15 213.29 212.81 212.33 212.09 212.17 212.24 212.23 212.14 212.06 212.72 213.78 214.84 215.74 216.6 217.45 218.1 218.72 219.34 219.39 219.43 219.46 219.36 219.27 219.29 219.76 220.23 220.46 220.17 219.89 219.44 218.76 218.08 217.45 216.85 216.25 215.74 215.28 214.82 214.2 213.54 212.89 212.62 212.41 212.19 211.72 211.26 210.82 210.58 210.33 210.02 209.5 208.99 208.66 208.7 208.74 208.56 208.11 207.66 207.48 207.5 207.53 207.56 207.6 207.64 207.57 207.46 207.35 207.29 207.24 207.18 207.13 207.08 206.98 206.61 206.23 205.12 201.59
211.1 211.5 212.23 212.95 213.6 213.94 214.27 214.34 213.85 213.36 213.17 213.37 213.57 213.52 213.28 213.04 213.66 214.72 215.79 216.72 217.62 218.51 219.18 219.81 220.45 220.42 220.39 220.36 220.34 220.32 220.44 221.04 221.64 221.87 221.39 220.9 220.31 219.6 218.89 218.2 217.51 216.83 216.3 215.84 215.39 214.59 213.69 212.8 212.47 212.21 211.95 211.39 210.83 210.33 210.21 210.09 209.86 209.27 208.68 208.27 208.21 208.16 207.95 207.53 207.12 207.01 207.12 207.23 207.29 207.34 207.38 207.35 207.3 207.25 207.2 207.16 207.11 207.17 207.23 207.25 207.03 206.8 205.72 201.94
212.79 213.23 213.84 214.46 215 215.31 215.62 215.72 215.39 215.07 214.98 215.19 215.4 215.3 214.97 214.64 215.1 215.96 216.82 217.71 218.61 219.5 220.08 220.62 221.15 221.15 221.15 221.14 221.12 221.09 221.19 221.68 222.17 222.36 222.01 221.65 221.09 220.29 219.5 218.67 217.83 217 216.32 215.72 215.13 214.31 213.42 212.53 212.16 211.84 211.51 211.01 210.51 210.06 209.95 209.84 209.64 209.15 208.67 208.33 208.27 208.21 208.02 207.68 207.34 207.23 207.3 207.36 207.45 207.55 207.64 207.55 207.42 207.29 207.29 207.29 207.3 207.37 207.43 207.48 207.4 207.32 206.42 203.09
214.48 214.96 215.46 215.96 216.41 216.68 216.96 217.09 216.94 216.78 216.8 217.02 217.23 217.09 216.66 216.23 216.54 217.2 217.85 218.7 219.59 220.49 220.98 221.42 221.86 221.88 221.9 221.92 221.89 221.87 221.94 222.32 222.69 222.86 222.63 222.39 221.86 220.98 220.1 219.15 218.15 217.16 216.34 215.59 214.84 214 213.13 212.25 211.83 211.44 211.06 210.63 210.21 209.83 209.71 209.59 209.41 209.07 208.72 208.49 208.45 208.42 208.28 208.03 207.78 207.67 207.66 207.64 207.76 207.94 208.11 207.92 207.65 207.39 207.45 207.54 207.63 207.65 207.66 207.69 207.75 207.8 207.22 204.8
216.18 216.68 217.07 217.46 217.81 218.06 218.31 218.47 218.47 218.48 218.58 218.8 219.02 218.84 218.38 217.9 218.07 218.53 219 219.78 220.65 221.53 221.91 222.25 222.58 222.61 222.64 222.67 222.64 222.62 222.68 222.95 223.22 223.36 223.25 223.14 222.63 221.66 220.69 219.62 218.47 217.33 216.35 215.45 214.55 213.69 212.83 211.98 211.49 211.05 210.6 210.25 209.91 209.59 209.46 209.34 209.19 208.98 208.78 208.64 208.63 208.62 208.54 208.39 208.23 208.11 208.01 207.92 208.07 208.33 208.58 208.29 207.88 207.48 207.62 207.79 207.95 207.92 207.89 207.9 208.1 208.29 208.03 206.53
217.89 218.41 218.68 218.96 219.22 219.45 219.68 219.86 219.98 220.09 220.23 220.4 220.58 220.5 220.25 219.99 220.19 220.6 221 221.63 222.32 223.01 223.21 223.37 223.51 223.25 223 222.77 222.66 222.55 222.5 222.62 222.75 222.81 222.76 222.71 222.19 221.19 220.18 219.11 218 216.89 216.02 215.26 214.49 213.79 213.11 212.42 212.04 211.68 211.32 211.02 210.71 210.42 210.22 210.03 209.84 209.63 209.41 209.27 209.24 209.22 209.16 209.07 208.98 208.82 208.62 208.41 208.47 208.62 208.78 208.44 207.99 207.54 207.73 207.96 208.18 208.17 208.16 208.17 208.35 208.52 208.34 207.21
219.6 220.13 220.29 220.46 220.64 220.84 221.04 221.26 221.48 221.71 221.88 222.01 222.13 222.16 222.12 222.08 222.31 222.65 223 223.48 223.98 224.49 224.5 224.48 224.44 223.9 223.36 222.88 222.67 222.47 222.32 222.29 222.27 222.25 222.23 222.22 221.69 220.64 219.59 218.53 217.46 216.38 215.66 215.06 214.46 213.96 213.48 212.99 212.76 212.54 212.31 212.05 211.78 211.52 211.27 211.02 210.76 210.51 210.25 210.07 210.02 209.97 209.93 209.91 209.88 209.67 209.34 209.02 208.9 208.86 208.83 208.45 208.01 207.57 207.81 208.08 208.34 208.39 208.45 208.49 208.5 208.52 208.14 206.78
220.99 221.53 221.62 221.72 221.84 222.04 222.24 222.49 222.82 223.15 223.37 223.47 223.58 223.72 223.9 224.07 224.34 224.66 224.96 225.3 225.63 225.97 225.8 225.6 225.36 224.53 223.71 222.98 222.69 222.39 222.13 221.95 221.78 221.68 221.71 221.74 221.19 220.1 219 217.94 216.91 215.88 215.29 214.86 214.43 214.13 213.86 213.57 213.48 213.39 213.29 213.08 212.86 212.63 212.31 212 211.69 211.38 211.08 210.87 210.79 210.72 210.7 210.75 210.79 210.52 210.07 209.62 209.33 209.1 208.87 208.47 208.04 207.6 207.89 208.2 208.49 208.62 208.74 208.81 208.66 208.51 207.93 206.36
220.99 221.51 221.64 221.76 221.91 222.15 222.4 222.64 222.9 223.16 223.4 223.61 223.81 224 224.19 224.37 224.72 225.13 225.54 225.8 226.03 226.26 226.09 225.91 225.69 224.9 224.12 223.38 222.85 222.32 221.88 221.65 221.42 221.27 221.22 221.17 220.68 219.76 218.85 217.92 216.99 216.06 215.57 215.24 214.91 214.57 214.24 213.91 213.86 213.81 213.74 213.46 213.18 212.9 212.59 212.27 211.98 211.73 211.48 211.31 211.25 211.19 211.21 211.28 211.35 211.07 210.59 210.11 209.75 209.44 209.12 208.69 208.24 207.8 208.07 208.37 208.65 208.78 208.92 208.96 208.61 208.27 207.29 204.91
221 221.5 221.65 221.8 221.98 222.27 222.55 222.8 222.99 223.18 223.43 223.74 224.05 224.29 224.48 224.68 225.1 225.61 226.11 226.29 226.41 226.54 226.38 226.21 226 225.27 224.54 223.79 223.01 222.24 221.61 221.35 221.08 220.87 220.73 220.59 220.16 219.48 218.79 218.02 217.21 216.39 216.01 215.77 215.52 215.09 214.63 214.17 214.11 214.06 213.99 213.58 213.19 212.81 212.51 212.21 211.96 211.8 211.65 211.55 211.52 211.5 211.53 211.61 211.68 211.42 210.97 210.51 210.17 209.86 209.55 209.1 208.63 208.16 208.37 208.59 208.8 208.88 208.96 208.9 208.3 207.7 206 201.93
220.86 221.36 221.54 221.73 221.96 222.3 222.64 222.9 223.04 223.18 223.46 223.88 224.29 224.57 224.77 224.98 225.49 226.09 226.69 226.79 226.8 226.82 226.67 226.51 226.3 225.63 224.95 224.2 223.17 222.15 221.35 221.05 220.74 220.47 220.23 220 219.65 219.19 218.73 218.12 217.43 216.73 216.45 216.3 216.14 215.61 215.02 214.43 214.37 214.32 214.23 213.7 213.18 212.71 212.43 212.15 211.93 211.87 211.81 211.78 211.79 211.81 211.85 211.93 212.01 211.76 211.34 210.92 210.59 210.28 209.98 209.51 209.02 208.52 208.67 208.82 208.96 208.98 209 208.83 207.98 207.13 204.67 198.91
219.45 219.81 220.01 220.2 220.46 220.89 221.32 221.66 221.89 222.12 222.53 223.1 223.67 224.02 224.26 224.5 225.04 225.67 226.3 226.43 226.49 226.54 226.3 226.05 225.77 225.17 224.57 223.86 222.77 221.68 220.85 220.58 220.31 220.03 219.76 219.48 219.19 218.9 218.6 218.08 217.43 216.78 216.54 216.42 216.3 215.79 215.23 214.67 214.51 214.36 214.17 213.63 213.09 212.61 212.3 211.99 211.8 211.86 211.91 211.97 212.03 212.09 212.14 212.18 212.22 211.97 211.57 211.17 210.87 210.6 210.33 209.9 209.45 208.99 209.03 209.07 209.09 209 208.91 208.51 207.04 205.6 202.42 195.81
218.04 218.27 218.47 218.67 218.96 219.48 219.99 220.43 220.75 221.07 221.61 222.33 223.04 223.46 223.73 224 224.55 225.19 225.83 226 226.11 226.21 225.86 225.5 225.12 224.59 224.05 223.39 222.26 221.14 220.31 220.08 219.86 219.59 219.28 218.97 218.75 218.61 218.45 217.98 217.35 216.71 216.48 216.36 216.24 215.82 215.36 214.9 214.58 214.26 213.93 213.44 212.95 212.49 212.12 211.76 211.58 211.77 211.96 212.12 212.24 212.35 212.38 212.35 212.31 212.03 211.64 211.24 210.99 210.77 210.56 210.26 209.95 209.63 209.49 209.36 209.2 208.91 208.61 207.72 204.87 202.05 198.26 192.61
216.63 216.73 216.93 217.14 217.47 218.07 218.67 219.19 219.61 220.02 220.69 221.55 222.42 222.9 223.2 223.49 224.06 224.71 225.36 225.57 225.73 225.88 225.41 224.94 224.47 224.01 223.54 222.92 221.75 220.59 219.76 219.58 219.4 219.15 218.81 218.47 218.32 218.31 218.31 217.89 217.26 216.64 216.42 216.3 216.18 215.85 215.49 215.13 214.65 214.17 213.69 213.25 212.81 212.37 211.95 211.53 211.37 211.69 212.01 212.27 212.44 212.62 212.62 212.51 212.4 212.09 211.7 211.31 211.11 210.95 210.8 210.62 210.45 210.27 209.95 209.64 209.31 208.81 208.31 206.89 202.67 198.48 194.12 189.43
216.53 216.69 216.83 216.98 217.19 217.54 217.89 218.3 218.76 219.21 219.85 220.63 221.41 221.91 222.27 222.63 223.24 223.91 224.58 224.88 225.14 225.4 224.94 224.48 224.02 223.52 223.02 222.39 221.32 220.25 219.47 219.25 219.03 218.82 218.63 218.43 218.35 218.35 218.36 217.95 217.36 216.76 216.5 216.33 216.16 215.85 215.51 215.18 214.68 214.18 213.69 213.32 212.94 212.54 212.11 211.68 211.5 211.76 212.03 212.22 212.32 212.43 212.4 212.28 212.15 211.87 211.53 211.18 211.04 210.95 210.85 210.73 210.61 210.48 210.02 209.55 209.03 208.11 207.21 205.28 200.31 195.32 190.9 187.45
216.43 216.65 216.75 216.85 216.95 217.04 217.14 217.42 217.92 218.42 219.01 219.68 220.35 220.86 221.29 221.72 222.36 223.05 223.73 224.14 224.52 224.88 224.46 224.05 223.61 223.05 222.49 221.85 220.92 219.99 219.28 218.98 218.69 218.55 218.59 218.63 218.61 218.56 218.51 218.11 217.56 217 216.68 216.42 216.17 215.81 215.45 215.09 214.69 214.29 213.9 213.61 213.32 213.01 212.63 212.25 212 211.99 211.99 211.91 211.77 211.62 211.53 211.47 211.4 211.21 210.96 210.71 210.63 210.59 210.55 210.3 210.05 209.77 209.17 208.57 207.76 205.79 203.84 201.39 197.52 193.63 190.87 189.95
216.33 216.61 216.67 216.72 216.7 216.54 216.38 216.55 217.09 217.63 218.18 218.73 219.29 219.81 220.31 220.81 221.48 222.18 222.89 223.4 223.89 224.36 223.99 223.62 223.21 222.59 221.97 221.31 220.52 219.73 219.09 218.72 218.34 218.28 218.56 218.83 218.88 218.77 218.67 218.27 217.76 217.24 216.86 216.51 216.17 215.78 215.39 215 214.7 214.4 214.11 213.91 213.71 213.47 213.14 212.81 212.5 212.22 211.94 211.61 211.21 210.82 210.66 210.66 210.65 210.55 210.39 210.24 210.23 210.24 210.25 209.88 209.48 209.06 208.32 207.58 206.47 203.45 200.45 197.53 194.76 191.96 190.89 192.5
217.04 217.19 217.1 217.01 216.9 216.74 216.58 216.65 216.96 217.28 217.68 218.14 218.6 219.12 219.67 220.21 220.84 221.48 222.13 222.6 223.05 223.49 223.24 222.98 222.68 222.12 221.55 220.97 220.37 219.77 219.23 218.8 218.38 218.31 218.61 218.92 218.99 218.91 218.83 218.45 217.94 217.44 217.02 216.61 216.2 215.74 215.28 214.84 214.6 214.35 214.12 213.96 213.79 213.59 213.3 213.01 212.69 212.31 211.93 211.5 211.01 210.51 210.28 210.23 210.18 210.09 209.99 209.89 209.86 209.85 209.85 209.3 208.72 208.14 207.36 206.58 205.3 201.67 198.01 194.87 193.07 191.25 191.59 195.25
217.83 217.84 217.6 217.36 217.17 217.06 216.95 216.92 216.97 217.02 217.27 217.63 218 218.53 219.12 219.7 220.27 220.84 221.4 221.77 222.13 222.47 222.37 222.27 222.11 221.65 221.19 220.74 220.36 219.97 219.55 219.1 218.65 218.52 218.72 218.92 219.01 219.01 219.01 218.63 218.12 217.6 217.15 216.71 216.27 215.7 215.13 214.58 214.35 214.11 213.88 213.67 213.45 213.22 212.93 212.65 212.39 212.19 211.98 211.75 211.49 211.22 210.93 210.62 210.32 210.13 210 209.86 209.61 209.36 209.1 208.23 207.33 206.47 206 205.52 204.75 202.65 200.52 198.67 197.56 196.43 196.71 199.05
218.62 218.48 218.09 217.7 217.43 217.38 217.32 217.19 216.97 216.76 216.85 217.12 217.4 217.94 218.57 219.19 219.7 220.19 220.67 220.94 221.2 221.45 221.51 221.55 221.53 221.18 220.83 220.52 220.35 220.17 219.88 219.4 218.92 218.73 218.83 218.93 219.02 219.1 219.18 218.82 218.29 217.77 217.29 216.81 216.34 215.66 214.98 214.32 214.1 213.87 213.64 213.38 213.11 212.85 212.57 212.28 212.1 212.07 212.04 212.01 211.98 211.94 211.57 211.01 210.45 210.18 210 209.82 209.36 208.85 208.36 207.15 205.93 204.8 204.64 204.48 204.23 203.66 203.05 202.49 202.07 201.63 201.8 202.83
219.01 218.97 218.53 218.09 217.75 217.54 217.33 217.09 216.82 216.55 216.66 217.01 217.36 217.92 218.56 219.2 219.52 219.79 220.07 220.21 220.35 220.49 220.65 220.8 220.87 220.56 220.25 219.99 219.85 219.7 219.43 218.96 218.48 218.33 218.47 218.61 218.73 218.85 218.96 218.66 218.22 217.77 217.31 216.84 216.38 215.66 214.93 214.24 213.95 213.67 213.39 213.12 212.85 212.59 212.36 212.12 212.02 212.1 212.18 212.26 212.36 212.46 212.06 211.39 210.7 210.37 210.16 209.95 209.29 208.56 207.84 206.42 204.98 203.67 203.75 203.83 204.05 204.81 205.58 206.18 206.43 206.68 206.74 206.53
219.32 219.41 218.96 218.51 218.06 217.64 217.22 216.89 216.62 216.35 216.56 217.06 217.55 218.16 218.8 219.45 219.54 219.53 219.53 219.53 219.54 219.56 219.79 220.01 220.14 219.83 219.52 219.22 218.94 218.66 218.3 217.84 217.38 217.33 217.64 217.96 218.12 218.2 218.27 218.09 217.82 217.55 217.17 216.77 216.37 215.73 215.07 214.44 213.99 213.54 213.15 212.95 212.75 212.59 212.52 212.44 212.42 212.48 212.53 212.5 212.41 212.32 212.07 211.74 211.4 211.19 211.02 210.85 210.16 209.4 208.63 207.88 207.11 206.42 206.57 206.71 206.89 207.25 207.61 207.88 207.94 208.01 207.97 207.8
219.63 219.85 219.38 218.92 218.38 217.74 217.11 216.68 216.42 216.16 216.47 217.11 217.74 218.39 219.05 219.7 219.55 219.27 218.99 218.85 218.72 218.63 218.93 219.23 219.41 219.1 218.79 218.45 218.03 217.61 217.18 216.73 216.28 216.34 216.82 217.3 217.5 217.54 217.59 217.53 217.44 217.34 217.04 216.7 216.37 215.79 215.22 214.63 214.02 213.41 212.91 212.77 212.64 212.58 212.68 212.77 212.83 212.85 212.88 212.74 212.45 212.18 212.09 212.1 212.11 212.01 211.88 211.75 211.03 210.23 209.43 209.35 209.25 209.18 209.38 209.59 209.73 209.68 209.64 209.57 209.45 209.33 209.21 209.06
219.38 219.76 219.41 219.05 218.54 217.81 217.09 216.59 216.28 215.97 216.31 217 217.7 218.3 218.86 219.43 219.17 218.77 218.38 218.22 218.07 217.96 218.23 218.51 218.67 218.38 218.09 217.72 217.17 216.63 216.17 215.81 215.45 215.62 216.22 216.82 217.03 217.05 217.06 217.08 217.11 217.13 216.88 216.59 216.29 215.74 215.18 214.62 213.95 213.28 212.73 212.62 212.52 212.51 212.68 212.86 212.98 213.02 213.06 212.85 212.45 212.04 212.1 212.41 212.71 212.71 212.63 212.54 211.82 211.02 210.22 210.78 211.35 211.88 212.16 212.45 212.56 212.11 211.66 211.26 210.95 210.65 210.44 210.33
218.92 219.47 219.26 219.06 218.62 217.87 217.12 216.57 216.18 215.79 216.11 216.81 217.51 217.98 218.38 218.78 218.49 218.1 217.71 217.64 217.57 217.53 217.68 217.84 217.91 217.67 217.42 217.04 216.39 215.74 215.31 215.16 215 215.29 215.94 216.59 216.81 216.81 216.82 216.85 216.89 216.93 216.67 216.37 216.07 215.39 214.72 214.07 213.61 213.14 212.73 212.52 212.32 212.16 212.08 212.01 212.06 212.23 212.41 212.36 212.15 211.94 212.02 212.25 212.48 212.41 212.26 212.11 211.65 211.15 210.66 211.22 211.78 212.29 212.44 212.6 212.66 212.4 212.14 211.9 211.72 211.54 211.44 211.43
218.46 219.17 219.12 219.07 218.7 217.93 217.15 216.54 216.08 215.61 215.92 216.62 217.32 217.66 217.89 218.13 217.82 217.43 217.05 217.06 217.07 217.09 217.13 217.17 217.16 216.96 216.75 216.36 215.6 214.84 214.45 214.5 214.55 214.97 215.66 216.36 216.58 216.58 216.57 216.62 216.67 216.73 216.46 216.16 215.84 215.05 214.25 213.52 213.27 213.01 212.74 212.42 212.11 211.8 211.48 211.16 211.14 211.45 211.76 211.88 211.87 211.85 211.94 212.1 212.25 212.1 211.88 211.67 211.48 211.29 211.11 211.67 212.22 212.7 212.72 212.75 212.75 212.67 212.58 212.51 212.46 212.4 212.42 212.52
218.06 218.78 218.81 218.85 218.6 217.98 217.35 216.88 216.54 216.19 216.46 217.05 217.64 217.74 217.71 217.69 217.39 217.05 216.72 216.77 216.81 216.84 216.8 216.76 216.68 216.47 216.27 215.85 215.03 214.21 213.83 213.97 214.12 214.58 215.26 215.95 216.21 216.27 216.32 216.39 216.47 216.55 216.29 216 215.69 214.84 213.98 213.23 213.1 212.97 212.78 212.39 211.99 211.55 211.03 210.5 210.41 210.82 211.23 211.47 211.61 211.76 211.86 211.94 212.02 211.8 211.51 211.23 211.32 211.43 211.56 212.11 212.66 213.1 213 212.89 212.84 212.94 213.03 213.12 213.19 213.27 213.4 213.6
217.7 218.32 218.4 218.48 218.38 218.04 217.69 217.51 217.46 217.41 217.65 218.05 218.45 218.22 217.84 217.46 217.23 217.01 216.8 216.82 216.85 216.86 216.79 216.71 216.59 216.33 216.07 215.62 214.85 214.08 213.67 213.69 213.71 214.04 214.59 215.14 215.5 215.77 216.04 216.2 216.32 216.45 216.26 216.03 215.8 215.2 214.59 214.02 213.71 213.4 213.08 212.74 212.41 212.08 211.78 211.47 211.45 211.73 212.01 212.02 211.85 211.69 211.73 211.84 211.96 211.94 211.88 211.82 211.97 212.14 212.32 212.8 213.29 213.68 213.59 213.49 213.43 213.43 213.43 213.46 213.53 213.61 213.7 213.8
217.33 217.86 217.99 218.11 218.16 218.1 218.04 218.15 218.39 218.63 218.84 219.05 219.26 218.7 217.95 217.22 217.07 216.97 216.87 216.88 216.89 216.88 216.78 216.67 216.51 216.19 215.87 215.4 214.67 213.94 213.51 213.4 213.29 213.5 213.91 214.33 214.8 215.29 215.77 216 216.17 216.35 216.22 216.07 215.91 215.56 215.2 214.81 214.31 213.81 213.38 213.1 212.82 212.62 212.54 212.45 212.48 212.63 212.79 212.56 212.09 211.62 211.6 211.74 211.89 212.07 212.26 212.43 212.65 212.86 213.09 213.51 213.93 214.27 214.21 214.14 214.06 213.94 213.81 213.76 213.81 213.86 213.86 213.8
216.92 217.3 217.38 217.46 217.63 217.87 218.1 218.43 218.84 219.24 219.45 219.57 219.7 219.06 218.24 217.41 217.36 217.36 217.37 217.35 217.34 217.31 217.16 217 216.79 216.41 216.04 215.56 214.92 214.28 213.86 213.67 213.48 213.56 213.83 214.1 214.61 215.21 215.81 216.05 216.23 216.4 216.3 216.18 216.06 215.91 215.76 215.53 214.88 214.23 213.69 213.46 213.24 213.16 213.29 213.42 213.5 213.53 213.57 213.09 212.31 211.54 211.46 211.65 211.83 212.21 212.63 213.05 213.32 213.59 213.86 214.22 214.57 214.86 214.83 214.8 214.7 214.45 214.2 214.06 214.09 214.11 214.02 213.81
216.46 216.63 216.58 216.53 216.77 217.32 217.86 218.31 218.7 219.09 219.31 219.47 219.62 219.26 218.78 218.29 218.36 218.48 218.58 218.58 218.59 218.55 218.35 218.14 217.89 217.51 217.13 216.74 216.35 215.95 215.73 215.69 215.64 215.76 215.99 216.21 216.55 216.93 217.32 217.37 217.36 217.36 217.06 216.76 216.46 216.15 215.84 215.51 215.06 214.6 214.18 213.88 213.58 213.45 213.59 213.73 213.82 213.87 213.92 213.49 212.76 212.03 211.97 212.15 212.33 212.73 213.17 213.61 213.93 214.24 214.56 214.92 215.28 215.55 215.44 215.33 215.16 214.85 214.54 214.35 214.3 214.25 214.2 214.13
216 215.95 215.77 215.6 215.93 216.78 217.62 218.18 218.56 218.93 219.18 219.37 219.55 219.47 219.33 219.17 219.37 219.59 219.8 219.81 219.83 219.79 219.54 219.28 218.99 218.61 218.22 217.93 217.78 217.63 217.61 217.71 217.81 217.96 218.14 218.32 218.49 218.65 218.82 218.68 218.49 218.31 217.83 217.34 216.85 216.38 215.92 215.49 215.23 214.97 214.68 214.29 213.91 213.74 213.89 214.03 214.14 214.21 214.27 213.88 213.21 212.54 212.51 212.69 212.87 213.28 213.72 214.16 214.52 214.88 215.24 215.62 216.01 216.27 216.05 215.83 215.57 215.23 214.88 214.63 214.49 214.36 214.39 214.57
215.76 215.6 215.36 215.11 215.47 216.43 217.4 217.97 218.29 218.62 218.89 219.14 219.38 219.55 219.7 219.85 220.14 220.44 220.72 220.75 220.78 220.76 220.5 220.23 219.94 219.61 219.27 219.09 219.15 219.21 219.35 219.57 219.79 219.96 220.11 220.25 220.28 220.26 220.25 219.93 219.57 219.22 218.56 217.9 217.24 216.61 215.99 215.47 215.42 215.36 215.17 214.71 214.24 214.04 214.19 214.34 214.45 214.54 214.63 214.27 213.67 213.06 213.05 213.23 213.42 213.83 214.27 214.71 215.12 215.52 215.92 216.33 216.73 216.98 216.66 216.33 215.99 215.61 215.22 214.91 214.68 214.46 214.59 215.01
215.79 215.68 215.49 215.29 215.6 216.39 217.18 217.6 217.8 218 218.31 218.66 219 219.34 219.68 220.01 220.3 220.58 220.85 220.87 220.89 220.87 220.69 220.5 220.34 220.24 220.14 220.11 220.2 220.3 220.37 220.44 220.51 220.59 220.68 220.77 220.81 220.83 220.85 220.41 219.9 219.39 218.73 218.07 217.41 216.86 216.31 215.85 215.79 215.73 215.53 215.04 214.55 214.35 214.55 214.75 214.82 214.79 214.76 214.57 214.3 214.02 214.11 214.31 214.52 214.89 215.29 215.69 216.04 216.38 216.71 216.92 217.13 217.22 216.82 216.42 216.05 215.74 215.43 215.23 215.18 215.12 215.37 215.87
215.82 215.77 215.62 215.47 215.72 216.34 216.96 217.24 217.31 217.39 217.74 218.18 218.62 219.13 219.65 220.17 220.45 220.72 220.97 220.98 221 220.99 220.88 220.78 220.75 220.88 221.01 221.13 221.26 221.38 221.39 221.31 221.23 221.22 221.26 221.29 221.34 221.4 221.45 220.88 220.21 219.55 218.89 218.23 217.59 217.11 216.63 216.24 216.17 216.11 215.9 215.37 214.85 214.67 214.92 215.17 215.19 215.03 214.86 214.87 214.97 215.05 215.25 215.49 215.73 216.07 216.43 216.78 217.04 217.3 217.52 217.47 217.43 217.29 216.81 216.34 215.97 215.77 215.58 215.58 215.83 216.07 216.46 216.96
215.67 215.68 215.63 215.57 215.77 216.21 216.65 216.83 216.86 216.88 217.25 217.74 218.22 218.87 219.53 220.2 220.46 220.72 220.95 220.98 221 221.02 221.02 221.02 221.12 221.46 221.8 222.07 222.23 222.39 222.35 222.14 221.93 221.85 221.83 221.81 221.87 221.96 222.05 221.34 220.53 219.72 219.06 218.4 217.77 217.36 216.96 216.62 216.55 216.49 216.26 215.7 215.15 214.98 215.29 215.6 215.56 215.26 214.96 215.18 215.64 216.09 216.4 216.67 216.95 217.25 217.56 217.87 218.04 218.22 218.33 218.02 217.71 217.35 216.81 216.26 215.89 215.81 215.73 215.94 216.48 217.02 217.54 218.05
215.16 215.26 215.37 215.47 215.64 215.88 216.12 216.33 216.52 216.71 217.03 217.41 217.78 218.39 219.03 219.67 219.87 220.07 220.26 220.37 220.48 220.61 220.81 221 221.24 221.54 221.85 222.11 222.29 222.48 222.5 222.39 222.28 222.23 222.22 222.21 222.18 222.15 222.12 221.38 220.55 219.73 219.18 218.62 218.09 217.76 217.43 217.15 217.02 216.9 216.66 216.2 215.74 215.66 216.01 216.37 216.43 216.27 216.09 216.36 216.82 217.29 217.61 217.88 218.16 218.41 218.65 218.9 218.97 219.06 219.08 218.72 218.36 217.94 217.31 216.68 216.29 216.3 216.31 216.64 217.33 218.02 218.58 219.05
214.65 214.85 215.11 215.38 215.51 215.54 215.58 215.82 216.18 216.53 216.81 217.08 217.34 217.91 218.53 219.14 219.28 219.42 219.57 219.76 219.95 220.19 220.59 221 221.35 221.63 221.9 222.15 222.36 222.57 222.65 222.64 222.62 222.62 222.62 222.62 222.49 222.33 222.17 221.4 220.56 219.73 219.29 218.85 218.43 218.18 217.93 217.69 217.5 217.31 217.07 216.73 216.39 216.4 216.81 217.22 217.42 217.46 217.5 217.77 218.15 218.53 218.83 219.1 219.38 219.56 219.73 219.9 219.88 219.86 219.8 219.51 219.21 218.81 218.1 217.39 216.98 217.08 217.17 217.58 218.32 219.06 219.59 219.97
214.19 214.47 214.84 215.21 215.32 215.21 215.11 215.38 215.85 216.32 216.58 216.79 216.98 217.51 218.08 218.65 218.73 218.81 218.91 219.17 219.43 219.78 220.38 220.98 221.45 221.7 221.95 222.19 222.42 222.65 222.8 222.89 222.97 223.01 223.02 223.02 222.8 222.51 222.22 221.42 220.58 219.74 219.41 219.08 218.76 218.59 218.42 218.23 217.97 217.72 217.48 217.26 217.04 217.15 217.61 218.07 218.41 218.66 218.91 219.19 219.48 219.77 220.05 220.32 220.6 220.71 220.81 220.9 220.77 220.65 220.52 220.29 220.06 219.68 218.89 218.1 217.68 217.86 218.04 218.52 219.31 220.1 220.59 220.89
213.93 214.23 214.5 214.77 214.9 214.93 214.96 215.19 215.53 215.86 216.29 216.75 217.2 217.61 218.03 218.44 218.51 218.58 218.66 218.84 219.01 219.3 219.91 220.53 220.96 221.06 221.17 221.4 221.76 222.11 222.39 222.62 222.84 222.93 222.96 222.99 222.64 222.2 221.76 221.04 220.3 219.58 219.38 219.17 218.98 218.96 218.93 218.85 218.62 218.39 218.18 218 217.82 217.99 218.53 219.07 219.48 219.8 220.12 220.37 220.6 220.83 221.06 221.29 221.52 221.56 221.59 221.61 221.4 221.19 220.98 220.76 220.53 220.18 219.52 218.84 218.53 218.78 219.03 219.52 220.24 220.97 221.4 221.66
213.67 213.99 214.15 214.32 214.49 214.66 214.82 215 215.2 215.4 216.01 216.71 217.42 217.71 217.97 218.23 218.29 218.34 218.41 218.5 218.59 218.82 219.45 220.08 220.47 220.43 220.39 220.6 221.08 221.56 221.97 222.33 222.68 222.82 222.87 222.92 222.43 221.83 221.23 220.61 220 219.4 219.32 219.23 219.18 219.32 219.45 219.5 219.32 219.14 218.96 218.8 218.64 218.87 219.5 220.12 220.57 220.9 221.23 221.45 221.63 221.81 221.96 222.12 222.27 222.24 222.2 222.14 221.85 221.55 221.26 220.98 220.71 220.4 220.01 219.62 219.51 219.84 220.16 220.59 221.12 221.65 222.01 222.26
213.47 213.78 213.85 213.92 214.11 214.39 214.67 214.81 214.89 214.96 215.73 216.67 217.6 217.79 217.91 218.02 218.07 218.11 218.15 218.16 218.17 218.35 218.99 219.64 219.97 219.79 219.61 219.81 220.41 221.01 221.54 222.04 222.53 222.72 222.78 222.84 222.22 221.45 220.69 220.18 219.69 219.22 219.26 219.3 219.38 219.68 219.98 220.15 220.02 219.88 219.74 219.6 219.45 219.75 220.46 221.18 221.66 222 222.34 222.52 222.65 222.78 222.87 222.94 223.02 222.92 222.8 222.67 222.29 221.9 221.53 221.21 220.88 220.62 220.51 220.4 220.49 220.89 221.29 221.66 221.99 222.33 222.61 222.85
213.61 213.81 213.8 213.8 213.96 214.23 214.51 214.66 214.76 214.85 215.48 216.24 216.99 217.28 217.54 217.77 217.74 217.7 217.69 217.83 217.97 218.26 218.96 219.65 220.02 219.84 219.67 219.85 220.4 220.96 221.47 221.95 222.44 222.58 222.59 222.6 221.91 221.07 220.24 219.87 219.52 219.2 219.26 219.33 219.43 219.72 220.01 220.2 220.14 220.07 220.04 220.04 220.04 220.46 221.27 222.07 222.52 222.77 223.01 223.18 223.31 223.44 223.46 223.46 223.46 223.28 223.08 222.88 222.56 222.24 221.9 221.54 221.17 220.96 221.09 221.21 221.44 221.81 222.19 222.47 222.66 222.86 223.05 223.26
213.74 213.84 213.76 213.67 213.8 214.08 214.35 214.51 214.63 214.74 215.23 215.8 216.38 216.78 217.17 217.53 217.4 217.28 217.23 217.51 217.78 218.19 218.95 219.7 220.1 219.95 219.8 219.98 220.48 220.97 221.45 221.9 222.36 222.44 222.38 222.33 221.57 220.69 219.81 219.6 219.4 219.22 219.29 219.35 219.44 219.65 219.86 220.01 220.01 220.02 220.11 220.31 220.52 221.09 221.98 222.88 223.24 223.31 223.39 223.53 223.7 223.87 223.82 223.74 223.65 223.36 223.07 222.79 222.67 222.54 222.36 221.98 221.59 221.43 221.75 222.06 222.33 222.54 222.75 222.91 223.02 223.13 223.23 223.32
213.77 213.81 213.68 213.54 213.65 213.92 214.19 214.36 214.5 214.63 214.98 215.37 215.76 216.28 216.8 217.28 217.07 216.87 216.78 217.19 217.6 218.13 218.94 219.75 220.19 220.07 219.94 220.11 220.55 220.99 221.42 221.85 222.28 222.3 222.17 222.05 221.24 220.31 219.39 219.32 219.28 219.25 219.31 219.37 219.44 219.57 219.7 219.82 219.89 219.96 220.18 220.59 221 221.71 222.7 223.68 223.96 223.86 223.76 223.89 224.1 224.3 224.18 224.01 223.84 223.44 223.05 222.7 222.78 222.86 222.83 222.42 222.01 221.91 222.41 222.91 223.21 223.26 223.31 223.35 223.38 223.41 223.4 223.37
212.17 212.52 212.92 213.3 213.68 214.04 214.41 214.66 214.86 215.06 215.28 215.5 215.72 215.96 216.21 216.45 216.45 216.45 216.54 217.04 217.54 218.1 218.8 219.51 219.88 219.79 219.7 219.89 220.35 220.8 221.12 221.37 221.63 221.56 221.39 221.23 220.55 219.79 219.03 219.01 219.01 219.02 219.17 219.31 219.45 219.6 219.74 219.84 219.88 219.91 220.18 220.74 221.3 222.08 223.04 224.01 224.25 224.1 223.95 224.11 224.37 224.63 224.43 224.17 223.91 223.5 223.08 222.72 222.83 222.94 222.95 222.59 222.23 222.2 222.83 223.45 223.79 223.78 223.77 223.74 223.7 223.66 223.57 223.45
210.58 211.24 212.16 213.07 213.7 214.17 214.63 214.96 215.23 215.5 215.59 215.65 215.71 215.65 215.6 215.57 215.8 216.04 216.33 216.92 217.5 218.08 218.64 219.2 219.5 219.43 219.36 219.59 220.07 220.56 220.74 220.76 220.79 220.63 220.42 220.2 219.73 219.22 218.71 218.68 218.66 218.68 218.95 219.22 219.48 219.69 219.89 220.01 219.94 219.87 220.13 220.8 221.46 222.23 223.08 223.94 224.16 224.06 223.95 224.19 224.52 224.84 224.56 224.2 223.84 223.51 223.18 222.88 222.77 222.67 222.55 222.33 222.12 222.18 222.78 223.37 223.76 223.89 224.02 224.02 223.93 223.84 223.72 223.59
208.98 209.97 211.41 212.85 213.72 214.29 214.86 215.26 215.6 215.95 215.9 215.8 215.7 215.34 214.98 214.7 215.16 215.63 216.13 216.8 217.46 218.05 218.47 218.89 219.12 219.07 219.02 219.28 219.8 220.31 220.35 220.15 219.95 219.7 219.44 219.18 218.92 218.65 218.39 218.35 218.32 218.33 218.73 219.14 219.51 219.78 220.05 220.17 220 219.82 220.08 220.86 221.63 222.38 223.12 223.87 224.07 224.01 223.96 224.26 224.66 225.06 224.68 224.22 223.77 223.53 223.29 223.03 222.71 222.4 222.15 222.08 222.01 222.16 222.72 223.29 223.72 224 224.28 224.31 224.16 224.01 223.87 223.73
209.59 210.49 211.92 213.35 214.15 214.62 215.09 215.34 215.52 215.71 215.61 215.48 215.34 215.11 214.87 214.71 215.21 215.71 216.23 216.81 217.4 217.9 218.21 218.53 218.71 218.71 218.71 218.97 219.44 219.91 219.91 219.68 219.45 219.24 219.05 218.85 218.64 218.44 218.24 218.24 218.24 218.28 218.65 219.02 219.37 219.65 219.93 220.08 220 219.92 220.22 220.98 221.74 222.4 222.99 223.58 223.81 223.88 223.94 224.26 224.64 225.03 224.65 224.19 223.73 223.53 223.33 223.1 222.69 222.27 221.96 221.97 221.97 222.18 222.72 223.27 223.73 224.11 224.49 224.53 224.34 224.16 223.96 223.77
210.28 211.1 212.5 213.9 214.62 214.97 215.33 215.4 215.38 215.37 215.24 215.08 214.93 214.9 214.88 214.9 215.41 215.91 216.41 216.86 217.32 217.7 217.92 218.15 218.3 218.36 218.42 218.66 219.05 219.44 219.45 219.28 219.11 219.04 218.98 218.92 218.69 218.44 218.19 218.27 218.35 218.45 218.66 218.88 219.1 219.33 219.55 219.77 219.96 220.15 220.54 221.17 221.8 222.27 222.64 223.02 223.34 223.62 223.9 224.14 224.36 224.6 224.34 224.04 223.74 223.5 223.25 223.01 222.75 222.49 222.28 222.21 222.14 222.31 222.87 223.44 223.88 224.21 224.53 224.55 224.35 224.16 223.77 223.32
210.97 211.7 213.08 214.46 215.07 215.32 215.56 215.45 215.24 215.04 214.86 214.69 214.52 214.7 214.88 215.1 215.61 216.12 216.59 216.91 217.25 217.51 217.63 217.76 217.89 218.01 218.13 218.35 218.66 218.96 218.99 218.89 218.78 218.83 218.92 219 218.74 218.44 218.15 218.31 218.47 218.61 218.67 218.74 218.84 219.01 219.18 219.46 219.93 220.39 220.87 221.36 221.85 222.14 222.3 222.46 222.86 223.36 223.86 224.01 224.08 224.16 224.04 223.9 223.75 223.46 223.17 222.91 222.81 222.71 222.6 222.45 222.31 222.45 223.02 223.6 224.03 224.3 224.58 224.56 224.36 224.16 223.58 222.86
211.92 212.5 213.5 214.51 214.94 215.11 215.28 215.13 214.91 214.68 214.43 214.19 213.95 214.37 214.78 215.19 215.66 216.13 216.54 216.79 217.03 217.23 217.35 217.47 217.61 217.8 217.98 218.18 218.4 218.63 218.62 218.5 218.39 218.44 218.53 218.63 218.42 218.19 217.98 218.25 218.52 218.75 218.75 218.75 218.79 218.92 219.05 219.34 219.9 220.46 220.92 221.28 221.64 221.81 221.84 221.88 222.31 222.9 223.5 223.6 223.59 223.58 223.58 223.59 223.57 223.26 222.95 222.69 222.7 222.71 222.68 222.56 222.43 222.58 223.16 223.75 224.15 224.38 224.61 224.55 224.33 224.12 223.36 222.4
