116.68 116.62 116.2 115.07 113.96 113.67 114.15 114.63 114.27 113.58 112.88 112.31 111.75 111.14 110.19 109.25 108.44 107.93 107.44 107.27 107.46 107.64 107.43 107.03 9999 106.91 107.29 107.74 109.29 110.86 112.21 112.9 113.57 113.89 113.77 113.65 113.12 112.37 111.6 111.58 111.71 111.84 111.71 111.57 111.47 111.54 111.59 111.81 112.27 112.72 113.21 113.75 114.29 113.89 113.25 112.62 112.86 113.12 113.39 113.69 113.98 114.2 114.32 114.45 114.68 114.97 115.26 115.6 115.95 116.3 116.05 115.79 115.56 115.48 115.4 115.49 115.89 116.29 115.83 114.6 113.35 113.8 114.88 115.95 115.69 115.32 114.92 114.18 113.44 112.22 109.9 107.59 106.43 106.4 106.38 106.41 106.46 106.51 106.6 106.68 9999 9999 9999 9999 9999 9999 9999 9999 9999 9999 9999 9999 9999 9999 9999 9999 9999 9999 9999 9999 9999 9999 9999 9999 9999 9999 9999 9999 9999 9999 9999 106.68 106.66 106.64 107.22 108.77 110.34 112.18 114.22 116.28 116.03 115.11 114.18 112.84 111.46 110.5 111.73 112.93 113.84 114.25 114.66 113.96 112.36 110.78 109.48 108.27 107.05 106.9 106.84 106.8 106.9 107.01 107.06 107 106.94 107.01 107.22
116.81 117.26 117.16 115.99 114.8 114.46 114.85 115.24 115.11 114.78 114.44 113.92 113.39 112.76 111.44 110.14 109.02 108.31 107.6 107.36 107.59 9999 9999 9999 9999 9999 9999 9999 108.72 109.88 111.03 112.08 113.12 113.67 113.65 113.63 113.27 112.72 112.17 111.95 111.81 111.67 111.61 111.54 111.55 111.86 112.15 112.59 113.21 113.82 114.28 114.66 115.04 114.51 113.79 113.07 113.17 113.28 113.46 113.9 114.34 114.53 114.35 114.18 114.41 114.91 115.41 115.88 116.35 116.81 116.22 115.61 115.09 114.93 114.77 114.78 115.1 115.42 115.31 114.82 114.31 115.21 116.59 117.96 117.5 116.92 116.32 115.55 114.77 113.35 110.59 107.83 106.49 106.47 106.45 106.49 106.56 106.62 106.7 9999 9999 9999 9999 9999 9999 9999 9999 9999 9999 9999 9999 9999 9999 9999 9999 9999 9999 9999 9999 9999 9999 9999 9999 9999 9999 9999 9999 9999 9999 9999 9999 9999 9999 106.65 107.05 108.1 109.18 110.65 112.39 114.14 113.97 113.28 112.58 111.59 110.58 110 111.42 112.84 113.9 114.37 114.83 114.42 113.33 112.21 110.79 109.29 107.8 107.4 107.08 106.81 106.87 106.92 106.94 106.9 106.85 106.89 107
115.65 115.9 115.8 115.09 114.37 114.2 114.5 114.79 114.88 114.88 114.88 114.56 114.21 113.76 112.63 111.49 110.32 109.11 107.91 107.41 9999 9999 9999 9999 9999 9999 9999 9999 108.3 109.11 110.03 111.18 112.33 113.02 113.18 113.34 113.14 112.78 112.4 112.14 111.89 111.65 111.64 111.63 111.7 112.06 112.42 112.93 113.61 114.31 114.73 115.01 115.29 114.71 113.95 113.22 113.29 113.35 113.54 114.18 114.81 115.01 114.6 114.18 114.39 115.01 115.65 116.21 116.76 117.31 116.4 115.46 114.63 114.37 114.13 114.07 114.31 114.56 114.81 115.06 115.29 116.62 118.3 119.97 119.3 118.51 117.73 116.91 116.1 114.48 111.26 108.06 106.55 106.53 106.51 106.57 106.65 9999 9999 9999 9999 9999 9999 9999 9999 9999 9999 9999 9999 9999 9999 9999 9999 9999 9999 9999 9999 9999 9999 9999 9999 9999 9999 9999 9999 9999 9999 9999 9999 9999 9999 9999 9999 106.65 106.85 107.42 108 109.11 110.55 111.99 111.91 111.45 110.98 110.35 109.72 109.5 111.1 112.69 113.86 114.35 114.84 114.84 114.45 114.03 112.47 110.59 108.72 108.02 107.37 106.84 106.85 106.87 106.87 106.83 106.8 106.82 106.91
114.49 114.53 114.46 114.21 113.95 113.94 114.13 114.32 114.62 114.94 115.24 115.11 114.95 114.69 113.81 112.92 111.73 109.98 108.25 107.45 9999 107.49 9999 9999 9999 9999 9999 107.49 107.97 108.45 109.12 110.22 111.33 112.08 112.46 112.84 112.8 112.57 112.34 112.15 111.97 111.8 111.83 111.86 111.92 112.08 112.24 112.58 113.11 113.65 113.99 114.21 114.44 113.89 113.2 112.55 112.87 113.17 113.65 114.68 115.7 116.2 116 115.8 115.94 116.31 116.69 117.03 117.37 117.71 117.07 116.41 115.82 115.49 115.17 114.91 114.75 114.61 114.86 115.38 115.9 117.15 118.61 120.09 119.87 119.56 119.15 118.21 117.27 115.41 111.84 108.27 106.63 106.59 106.54 106.6 106.69 9999 9999 9999 9999 9999 9999 9999 9999 9999 9999 9999 9999 9999 9999 9999 9999 9999 9999 9999 9999 9999 9999 9999 9999 9999 9999 9999 9999 9999 9999 9999 9999 9999 9999 9999 9999 9999 106.66 106.74 106.83 107.56 108.69 109.84 109.86 109.63 109.39 109.13 108.86 109.01 110.78 112.55 113.82 114.34 114.86 115.27 115.59 115.88 114.15 111.88 109.62 108.62 107.66 106.86 106.84 106.82 106.79 106.77 106.74 106.76 106.82
113.33 113.15 113.13 113.35 113.55 113.68 113.76 113.85 114.37 115 115.62 115.67 115.7 115.62 114.99 114.36 113.13 110.84 108.57 107.48 107.38 9999 9999 9999 9999 9999 9999 107.47 107.62 107.77 108.22 109.27 110.32 111.15 111.75 112.36 112.47 112.38 112.28 112.17 112.05 111.95 112.03 112.1 112.14 112.1 112.06 112.22 112.61 112.99 113.24 113.41 113.59 113.08 112.45 111.89 112.45 113 113.77 115.19 116.6 117.39 117.41 117.42 117.49 117.6 117.72 117.84 117.97 118.09 117.74 117.38 117.01 116.62 116.24 115.79 115.24 114.71 114.96 115.72 116.47 117.52 118.68 119.84 120.19 120.51 120.57 119.47 118.39 116.27 112.37 108.48 106.72 106.63 106.54 106.6 106.71 9999 9999 9999 9999 9999 9999 9999 9999 9999 9999 9999 9999 9999 9999 9999 9999 9999 9999 9999 9999 9999 9999 9999 9999 9999 9999 9999 9999 9999 9999 9999 9999 9999 9999 9999 9999 9999 9999 106.75 106.77 107.27 108.03 108.81 108.81 108.65 108.5 108.35 108.19 108.39 109.81 111.24 112.35 112.98 113.61 113.97 114.18 114.39 112.95 111.08 109.18 108.37 107.55 106.87 106.83 106.8 106.77 106.76 106.75 106.75 106.78
112.78 112.51 112.48 112.81 113.14 113.38 113.57 113.74 114.13 114.58 115.04 114.92 114.8 114.72 114.77 114.8 113.95 111.62 109.29 108.05 107.69 9999 107.28 9999 9999 9999 9999 107.42 107.44 107.46 107.82 108.87 109.92 110.76 111.42 112.09 112.27 112.27 112.27 112.28 112.28 112.28 112.3 112.32 112.29 112.13 111.96 111.98 112.19 112.41 112.55 112.66 112.78 112.33 111.79 111.34 112.09 112.85 113.86 115.59 117.33 118.41 118.69 118.95 118.96 118.85 118.74 118.65 118.57 118.49 118.43 118.35 118.19 117.75 117.3 116.65 115.73 114.81 115.07 116.06 117.04 117.89 118.73 119.57 120.53 121.47 121.98 120.74 119.5 117.11 112.89 108.67 106.81 106.68 106.54 106.61 106.72 9999 9999 9999 9999 9999 9999 9999 9999 9999 9999 9999 9999 9999 9999 9999 9999 9999 9999 9999 9999 9999 9999 9999 9999 9999 9999 9999 9999 9999 9999 9999 9999 9999 9999 9999 9999 9999 9999 9999 9999 106.97 107.38 107.81 107.81 107.74 107.67 107.61 107.55 107.73 108.71 109.7 110.58 111.3 112.03 112.16 111.95 111.75 110.71 109.45 108.18 107.73 107.26 106.88 106.84 106.8 106.77 106.78 106.79 106.79 106.77
112.24 111.89 111.87 112.3 112.74 113.09 113.39 113.69 113.89 114.07 114.26 113.88 113.51 113.37 114.18 114.96 114.59 112.38 110.17 108.84 108.17 9999 107.4 9999 9999 9999 9999 9999 107.39 107.42 107.84 108.96 110.09 110.91 111.48 112.05 112.24 112.29 112.33 112.54 112.75 112.9 112.7 112.5 112.33 112.21 112.09 112.03 112.03 112.03 112.05 112.08 112.11 111.84 111.52 111.29 112.02 112.75 113.64 114.97 116.3 117.35 118.05 118.74 118.82 118.59 118.37 118.55 118.8 119.02 118.94 118.87 118.75 118.49 118.23 117.65 116.65 115.66 115.78 116.58 117.38 117.93 118.44 118.96 119.98 121 121.59 120.54 119.48 117.23 113.19 109.14 107.28 106.94 106.62 106.63 9999 9999 9999 9999 9999 9999 9999 9999 9999 9999 9999 9999 9999 9999 9999 9999 9999 9999 9999 9999 9999 9999 9999 9999 9999 9999 9999 9999 9999 9999 9999 9999 9999 9999 9999 9999 9999 9999 9999 9999 9999 9999 9999 9999 106.82 106.83 106.84 106.87 106.91 107.06 107.59 108.13 108.81 109.63 110.45 110.34 109.71 109.1 108.48 107.84 107.2 107.1 106.99 106.88 106.84 106.79 106.78 106.81 106.84 106.82 106.77
111.7 111.27 111.26 111.8 112.34 112.8 113.22 113.63 113.64 113.55 113.47 112.84 112.21 112.04 113.6 115.15 115.23 113.14 111.05 109.62 108.64 9999 9999 9999 9999 107.52 9999 107.28 107.34 107.39 107.86 109.06 110.26 111.06 111.54 112.02 112.21 112.3 112.39 112.8 113.22 113.52 113.09 112.68 112.38 112.3 112.22 112.07 111.85 111.65 111.55 111.5 111.45 111.36 111.26 111.24 111.94 112.65 113.42 114.33 115.26 116.29 117.42 118.54 118.66 118.33 117.99 118.45 119.03 119.55 119.44 119.34 119.26 119.2 119.14 118.66 117.66 116.66 116.62 117.13 117.65 117.87 118.04 118.23 119.08 119.94 120.44 119.67 118.9 116.96 113.38 109.78 107.98 107.35 106.74 9999 9999 9999 9999 9999 9999 9999 9999 9999 9999 9999 9999 9999 9999 9999 9999 9999 9999 9999 9999 9999 9999 9999 9999 9999 9999 9999 9999 9999 9999 9999 9999 9999 9999 9999 9999 9999 9999 9999 9999 9999 9999 9999 9999 9999 9999 9999 106.74 106.77 106.8 106.89 107.18 107.46 107.92 108.57 109.24 109.07 108.47 107.86 107.48 107.13 106.79 106.82 106.84 106.86 106.82 106.78 106.77 106.8 106.83 106.81 106.76
111.75 111.14 111.1 111.75 112.39 113.01 113.63 114.24 113.99 113.58 113.17 112.48 111.79 111.59 113.12 114.67 114.98 113.51 112.01 110.58 109.2 9999 9999 9999 9999 107.55 107.4 107.31 107.47 107.63 108.22 109.53 110.84 111.54 111.79 112.05 112.32 112.57 112.81 113.25 113.71 114.03 113.48 112.93 112.54 112.49 112.43 112.15 111.67 111.21 111.02 110.91 110.8 110.92 111.05 111.23 111.9 112.58 113.2 113.69 114.21 115.25 116.81 118.35 118.51 118.06 117.61 118.37 119.26 120.07 119.95 119.82 119.77 119.92 120.06 119.67 118.66 117.66 117.45 117.68 117.91 117.79 117.62 117.5 118.18 118.87 119.29 118.82 118.33 116.71 113.58 110.43 108.67 107.75 106.85 9999 9999 9999 9999 9999 9999 9999 9999 9999 9999 9999 9999 9999 9999 9999 9999 9999 9999 9999 9999 9999 9999 9999 9999 9999 9999 9999 9999 9999 9999 9999 9999 9999 9999 9999 9999 9999 9999 9999 9999 9999 9999 9999 9999 9999 9999 9999 9999 9999 9999 9999 106.98 107.09 107.35 107.76 108.17 108.08 107.74 107.39 107.17 106.96 106.77 106.78 106.8 106.8 106.78 106.76 106.75 106.75 106.76 106.76 106.76
111.86 111.09 111.02 111.78 112.53 113.34 114.19 115.03 114.51 113.76 113.03 112.38 111.72 111.5 112.67 113.86 114.28 113.67 113.03 111.65 109.83 108.02 107.66 9999 107.61 107.54 107.46 107.46 107.82 108.17 108.97 110.49 111.99 112.52 112.35 112.2 112.68 113.32 113.95 114.11 114.26 114.32 113.87 113.42 113.1 113.04 112.97 112.41 111.46 110.53 110.29 110.29 110.29 110.77 111.27 111.78 112.39 113 113.39 113.32 113.27 113.9 115.18 116.47 117 117.19 117.36 118.02 118.75 119.37 118.81 118.26 117.98 118.31 118.63 118.63 118.26 117.87 117.81 117.93 118.04 117.85 117.61 117.4 117.76 118.12 118.36 118.18 118 116.63 113.79 110.94 109.19 108.06 106.93 9999 9999 9999 9999 9999 9999 9999 9999 9999 9999 9999 9999 9999 9999 9999 9999 9999 9999 9999 9999 9999 9999 9999 9999 9999 9999 9999 9999 9999 9999 9999 9999 9999 9999 9999 9999 9999 9999 9999 9999 9999 9999 9999 9999 9999 9999 9999 9999 9999 9999 9999 9999 106.72 106.77 106.93 107.1 107.1 107.03 106.94 106.87 106.8 106.74 106.74 106.75 106.75 106.74 106.74 106.72 106.7 106.68 106.71 106.75
111.97 111.03 110.95 111.81 112.68 113.68 114.76 115.82 115.02 113.94 112.89 112.28 111.66 111.4 112.21 113.03 113.61 113.86 114.08 112.71 110.43 108.18 107.71 107.62 107.54 107.53 107.51 107.62 108.17 108.72 109.74 111.45 113.15 113.48 112.9 112.34 113.05 114.08 115.11 114.95 114.79 114.61 114.26 113.91 113.66 113.58 113.51 112.66 111.24 109.83 109.57 109.68 109.78 110.63 111.51 112.32 112.87 113.42 113.56 112.93 112.31 112.54 113.51 114.5 115.41 116.29 117.14 117.64 118.13 118.45 117.36 116.28 115.68 116.13 116.57 117.01 117.44 117.84 118 118.05 118.11 117.97 117.8 117.64 117.59 117.55 117.57 117.71 117.85 116.68 114.01 111.33 109.55 108.26 106.98 9999 9999 9999 9999 9999 9999 9999 9999 9999 9999 9999 9999 9999 9999 9999 9999 9999 9999 9999 9999 9999 9999 9999 9999 9999 9999 9999 9999 9999 9999 9999 9999 9999 9999 9999 9999 9999 9999 9999 9999 9999 9999 9999 9999 9999 9999 9999 9999 9999 9999 9999 9999 9999 9999 106.67 106.7 106.7 106.7 106.7 106.69 106.68 106.68 106.69 106.7 106.71 106.72 106.72 106.72 106.72 106.72 106.77 106.83
112.15 111.08 110.91 111.68 112.46 113.57 114.83 116.09 115.36 114.34 113.36 112.83 112.31 112.07 112.64 113.21 113.69 114.09 114.5 113.18 110.92 108.65 108.07 107.81 107.56 9999 107.53 107.66 108.27 108.88 110.03 111.91 113.78 114.03 113.25 112.47 113.38 114.7 116.02 115.69 115.35 115 114.68 114.36 114.14 114.06 113.98 112.89 111.07 109.23 108.94 109.12 109.3 110.51 111.75 112.87 113.35 113.83 113.72 112.52 111.33 111.17 111.84 112.52 113.85 115.41 116.94 117.26 117.5 117.51 115.89 114.29 113.38 113.95 114.51 115.42 116.64 117.84 118.18 118.18 118.18 118.09 118 117.87 117.42 116.97 116.79 117.25 117.7 116.74 114.23 111.71 109.91 108.46 107.02 9999 9999 9999 9999 9999 9999 9999 9999 9999 9999 9999 9999 9999 9999 9999 9999 9999 9999 9999 9999 9999 9999 9999 9999 9999 9999 9999 9999 9999 9999 9999 9999 9999 9999 9999 9999 9999 9999 9999 9999 9999 9999 9999 9999 9999 9999 9999 9999 9999 9999 9999 9999 9999 9999 9999 106.75 106.71 106.67 106.62 106.61 106.6 106.59 106.63 106.67 106.7 106.7 106.71 106.76 106.85 106.95 107.02 107.08
112.36 111.17 110.89 111.49 112.11 113.29 114.71 116.13 115.62 114.87 114.15 113.78 113.4 113.25 113.68 114.12 114.34 114.33 114.33 113.13 111.31 109.48 108.75 108.21 107.71 107.59 107.48 107.5 107.94 108.38 109.47 111.38 113.3 113.67 113.15 112.61 113.57 114.84 116.1 116.06 116.02 115.84 115.21 114.58 114.17 114.06 113.96 113.09 111.69 110.27 109.89 109.79 109.7 110.69 111.71 112.61 112.93 113.25 113.07 111.98 110.9 110.59 110.9 111.22 112.35 113.76 115.17 115.4 115.56 115.49 113.96 112.42 111.54 111.98 112.43 113.41 114.86 116.31 116.96 117.29 117.61 117.76 117.89 117.93 117.3 116.67 116.4 116.95 117.52 116.65 114.29 111.93 110.12 108.57 107.01 9999 9999 9999 9999 9999 9999 9999 9999 9999 9999 9999 9999 9999 9999 9999 9999 9999 9999 9999 9999 9999 9999 9999 9999 9999 9999 9999 9999 9999 9999 9999 9999 9999 9999 9999 9999 9999 9999 9999 9999 9999 9999 9999 9999 9999 9999 9999 9999 9999 9999 9999 9999 9999 9999 9999 9999 106.72 106.63 106.55 106.53 106.51 106.51 106.57 106.63 106.68 106.69 106.7 106.8 106.99 107.17 107.27 107.33
112.55 111.25 110.85 111.3 111.75 113.01 114.59 116.17 115.89 115.41 114.94 114.72 114.49 114.42 114.72 115.03 114.98 114.56 114.15 113.09 111.71 110.31 109.42 108.61 9999 107.64 107.42 107.34 107.6 107.87 108.91 110.86 112.81 113.33 113.05 112.77 113.75 114.98 116.18 116.44 116.69 116.66 115.72 114.79 114.19 114.07 113.94 113.29 112.31 111.32 110.82 110.45 110.08 110.86 111.66 112.33 112.47 112.62 112.36 111.44 110.52 110.1 110.06 110.03 110.85 111.94 113.04 113.17 113.26 113.14 111.88 110.61 109.85 110.09 110.34 111.19 112.56 113.93 114.93 115.79 116.63 117.11 117.54 117.85 117.24 116.63 116.35 116.81 117.27 116.37 114.15 111.93 110.14 108.54 106.94 9999 9999 9999 9999 9999 9999 9999 9999 9999 9999 9999 9999 9999 9999 9999 9999 9999 9999 9999 9999 9999 9999 9999 9999 9999 9999 9999 9999 9999 9999 9999 9999 9999 9999 9999 9999 9999 9999 9999 9999 9999 9999 9999 9999 9999 9999 9999 9999 9999 9999 9999 9999 9999 9999 9999 9999 9999 106.63 106.53 106.49 106.47 106.45 106.54 106.63 106.69 106.69 106.7 106.86 107.15 107.44 107.53 107.54
112.7 111.4 111.01 111.42 111.82 113.03 114.55 116.08 115.79 115.35 114.96 114.89 114.82 114.83 115.06 115.29 115.15 114.65 114.13 113.32 112.38 111.42 110.39 109.37 9999 9999 107.5 107.22 107.35 107.47 108.39 110.22 112.06 112.67 112.62 112.58 113.6 114.8 115.98 116.55 117.11 117.26 116.13 114.97 114.24 114.08 113.92 113.51 112.95 112.38 111.74 111.1 110.47 111.03 111.6 112.04 112.01 111.98 111.67 110.91 110.15 109.6 109.21 108.83 109.34 110.12 110.9 110.93 110.95 110.8 109.81 108.8 108.16 9999 108.24 108.97 110.26 111.55 112.92 114.3 115.67 116.46 117.21 117.77 117.18 116.59 116.31 116.66 117.01 116.1 114.02 111.93 110.16 108.51 106.87 9999 9999 9999 9999 9999 9999 9999 9999 9999 9999 9999 9999 9999 9999 9999 9999 9999 9999 9999 9999 9999 9999 9999 9999 9999 9999 9999 9999 9999 9999 9999 9999 9999 9999 9999 9999 9999 9999 9999 9999 9999 9999 9999 9999 9999 9999 9999 9999 9999 9999 9999 9999 9999 9999 9999 9999 9999 9999 106.57 106.52 106.47 106.45 106.56 106.67 106.74 106.74 106.74 106.96 107.37 107.78 107.8 107.67
112.84 111.59 111.27 111.71 112.14 113.23 114.56 115.89 115.42 114.84 114.34 114.39 114.44 114.52 114.68 114.85 114.81 114.57 114.33 113.91 113.43 112.92 111.86 110.75 109.65 108.74 107.83 9999 9999 9999 107.98 109.18 110.4 110.81 110.82 110.83 111.79 112.89 113.97 114.67 115.37 115.78 115.38 114.96 114.65 114.49 114.34 114.08 113.75 113.41 112.69 111.89 111.13 111.41 111.71 111.89 111.66 111.43 111.08 110.54 110 109.51 109.06 108.62 108.93 109.44 109.96 110.21 110.44 110.49 109.77 109.03 108.41 9999 9999 107.95 108.92 109.9 111.18 112.55 113.94 114.9 115.84 116.62 116.45 116.26 116.21 116.47 116.74 115.84 113.94 112.02 110.24 108.53 106.81 9999 9999 9999 9999 9999 9999 9999 9999 9999 9999 9999 9999 9999 9999 9999 9999 9999 9999 9999 9999 9999 9999 9999 9999 9999 9999 9999 9999 9999 9999 9999 9999 9999 9999 9999 9999 9999 9999 9999 9999 9999 9999 9999 9999 9999 9999 9999 9999 9999 9999 9999 9999 9999 9999 9999 9999 9999 9999 9999 9999 106.48 106.45 106.58 106.72 106.79 106.78 106.77 107.07 107.6 108.13 108.06 107.8
112.97 111.78 111.53 111.99 112.46 113.42 114.56 115.7 115.05 114.32 113.72 113.9 114.06 114.21 114.3 114.4 114.47 114.5 114.53 114.52 114.49 114.44 113.33 112.13 110.91 109.53 108.16 107.22 107.24 107.26 107.55 108.13 108.72 108.95 109.02 109.08 109.97 110.97 111.96 112.8 113.63 114.33 114.66 114.97 115.06 114.91 114.76 114.64 114.55 114.45 113.63 112.69 111.79 111.81 111.83 111.75 111.32 110.89 110.52 110.22 109.91 109.53 109.12 108.72 108.88 109.19 109.5 110.13 110.75 111.16 110.79 110.41 109.79 108.82 107.87 107.79 108.31 108.84 109.64 110.53 111.43 112.38 113.32 114.23 114.9 115.55 116.03 116.24 116.45 115.62 113.96 112.28 110.48 108.65 106.81 9999 9999 9999 9999 9999 9999 9999 9999 9999 9999 9999 9999 9999 9999 9999 9999 9999 9999 9999 9999 9999 9999 9999 9999 9999 9999 9999 9999 9999 9999 9999 9999 9999 9999 9999 9999 9999 9999 9999 9999 9999 9999 9999 9999 9999 9999 9999 9999 9999 9999 9999 9999 9999 9999 9999 9999 9999 9999 9999 9999 106.5 106.47 106.61 106.75 106.84 106.85 106.86 107.28 108 108.7 108.56 108.16
113.23 112.26 112.07 112.45 112.84 113.62 114.51 115.41 114.72 113.96 113.36 113.61 113.87 114.06 114.14 114.22 114.31 114.43 114.56 114.81 115.11 115.41 114.38 113.24 112.02 110.27 108.53 107.32 107.26 107.21 107.2 107.23 107.25 107.31 107.4 107.48 108.26 109.13 110.01 110.96 111.91 112.89 113.96 115 115.47 115.32 115.17 115.22 115.36 115.49 114.57 113.48 112.45 112.19 111.94 111.61 110.97 110.35 109.97 109.9 109.82 109.56 109.19 108.81 108.83 108.93 109.06 110.07 111.07 111.85 111.82 111.79 111.15 109.64 108.16 107.61 107.68 107.76 108.09 108.49 108.91 109.85 110.81 111.87 113.39 114.88 115.85 116 116.15 115.41 113.98 112.55 110.72 108.76 106.81 9999 9999 9999 9999 9999 9999 9999 9999 9999 9999 9999 9999 9999 9999 9999 9999 9999 9999 9999 9999 9999 9999 9999 9999 9999 9999 9999 9999 9999 9999 9999 9999 9999 9999 9999 9999 9999 9999 9999 9999 9999 9999 9999 9999 9999 9999 9999 9999 9999 9999 9999 9999 9999 9999 9999 9999 9999 9999 9999 9999 106.55 106.52 106.63 106.74 106.86 106.99 107.12 107.88 109.05 110.22 110.18 109.82
113.57 112.93 112.81 113.04 113.28 113.81 114.42 115.04 114.42 113.78 113.29 113.6 113.91 114.16 114.3 114.45 114.44 114.33 114.23 114.44 114.74 115.04 114.37 113.63 112.73 110.91 109.08 107.8 107.62 107.43 107.33 107.31 107.29 107.29 107.29 107.3 107.88 108.51 109.19 110.18 111.16 112.17 113.23 114.29 114.94 115.16 115.37 115.51 115.62 115.74 114.89 113.9 112.97 112.75 112.53 112.22 111.66 111.1 110.77 110.71 110.66 110.32 109.84 109.36 109.25 109.22 109.23 110.49 111.74 112.74 112.94 113.14 112.39 110.38 108.38 107.52 107.37 107.21 107.24 107.32 107.4 108.31 109.22 110.34 112.31 114.29 115.58 115.77 115.96 115.28 113.98 112.69 110.83 108.81 106.78 106.67 9999 9999 9999 9999 9999 9999 9999 9999 9999 9999 9999 9999 9999 9999 9999 9999 9999 9999 9999 9999 9999 9999 9999 9999 9999 9999 9999 9999 9999 9999 9999 9999 9999 9999 9999 9999 9999 9999 9999 9999 9999 9999 9999 9999 9999 9999 9999 9999 9999 9999 9999 9999 9999 9999 9999 9999 9999 9999 9999 106.6 106.58 106.66 106.73 106.89 107.14 107.39 108.48 110.12 111.75 111.81 111.48
113.92 113.62 113.54 113.62 113.71 113.99 114.32 114.66 114.13 113.6 113.22 113.59 113.95 114.25 114.47 114.68 114.57 114.23 113.9 114.06 114.37 114.67 114.37 114.03 113.44 111.54 109.64 108.29 107.96 107.64 107.46 107.39 107.32 107.25 107.19 107.13 107.49 107.89 108.37 109.39 110.41 111.44 112.5 113.55 114.38 114.98 115.57 115.78 115.82 115.87 115.12 114.26 113.47 113.36 113.24 113.05 112.66 112.27 112.02 111.94 111.86 111.4 110.75 110.12 109.93 109.81 109.79 111.22 112.64 113.8 114.13 114.46 113.53 111.02 108.53 107.54 107.42 107.3 107.3 107.33 107.38 108.27 109.16 110.24 112.03 113.83 115.1 115.58 116.06 115.36 113.88 112.4 110.56 108.62 106.68 106.67 9999 9999 9999 9999 9999 9999 9999 9999 9999 9999 9999 9999 9999 9999 9999 9999 9999 9999 9999 9999 9999 9999 9999 9999 9999 9999 9999 9999 9999 9999 9999 9999 9999 9999 9999 9999 9999 9999 9999 9999 9999 9999 9999 9999 9999 9999 9999 9999 9999 9999 9999 9999 9999 9999 9999 9999 9999 9999 9999 9999 9999 106.69 106.74 106.96 107.4 107.82 109.19 111.16 113.16 113.31 113.05
114.13 114 113.93 113.9 113.88 113.97 114.08 114.2 113.87 113.52 113.3 113.62 113.95 114.25 114.51 114.76 114.58 114.09 113.6 113.75 114.07 114.39 114.31 114.23 113.85 111.95 110.03 108.66 108.24 107.82 107.57 107.46 107.35 9999 107.08 106.95 107.09 107.26 107.55 108.61 109.67 110.72 111.77 112.81 113.83 114.81 115.78 116.04 116.02 116.01 115.35 114.63 113.98 113.97 113.95 113.88 113.67 113.45 113.28 113.17 113.06 112.47 111.67 110.87 110.6 110.41 110.34 111.95 113.55 114.85 115.32 115.78 114.66 111.66 108.67 107.56 107.47 107.38 107.36 107.35 107.37 108.23 109.1 110.13 111.74 113.36 114.62 115.4 116.17 115.44 113.77 112.11 110.29 108.43 106.57 106.67 106.77 9999 9999 9999 9999 9999 9999 9999 9999 9999 9999 9999 9999 9999 9999 9999 9999 9999 9999 9999 9999 9999 9999 9999 9999 9999 9999 9999 9999 9999 9999 9999 9999 9999 9999 9999 9999 9999 9999 9999 9999 9999 9999 9999 9999 9999 9999 9999 9999 9999 9999 9999 9999 9999 9999 9999 9999 9999 9999 9999 9999 106.76 106.77 107.24 108.24 109.22 110.45 111.84 113.24 113.31 113.11
114.19 114.06 113.95 113.84 113.73 113.69 113.66 113.64 113.64 113.62 113.63 113.74 113.87 114.04 114.25 114.48 114.3 113.86 113.42 113.65 114.06 114.46 113.94 113.41 112.69 111.02 109.35 108.2 107.93 107.66 107.49 107.41 107.32 9999 107.05 106.9 107.18 107.47 107.93 109.35 110.76 111.93 112.69 113.45 114.21 114.97 115.74 115.96 115.98 115.99 115.4 114.76 114.2 114.2 114.2 114.14 113.93 113.72 113.52 113.34 113.16 112.64 111.95 111.26 110.96 110.71 110.62 112.18 113.75 115 115.37 115.75 114.56 111.58 108.57 107.53 107.48 107.43 9999 9999 9999 108.18 109.03 110.04 111.53 113.02 114.29 115.26 116.24 115.51 113.78 112.02 110.17 108.32 106.51 106.68 106.84 9999 9999 9999 9999 9999 9999 9999 9999 9999 9999 9999 9999 9999 9999 9999 9999 9999 9999 9999 9999 9999 9999 9999 9999 9999 9999 9999 9999 9999 9999 9999 9999 9999 9999 9999 9999 9999 9999 9999 9999 9999 9999 9999 9999 9999 9999 9999 9999 9999 9999 9999 9999 9999 9999 9999 9999 9999 9999 9999 9999 106.83 106.81 107.53 109.1 110.65 111.69 112.49 113.31 113.32 113.18
114.25 114.12 113.96 113.77 113.59 113.41 113.24 113.09 113.42 113.73 113.95 113.86 113.78 113.82 114 114.19 114.02 113.63 113.24 113.56 114.05 114.53 113.55 112.58 111.53 110.1 108.67 107.75 107.63 107.51 107.42 107.35 107.29 107.16 107.01 106.86 107.29 107.72 108.39 110.21 112.02 113.34 113.8 114.27 114.73 115.18 115.64 115.81 115.87 115.93 115.4 114.82 114.31 114.28 114.26 114.14 113.83 113.53 113.22 112.9 112.6 112.22 111.81 111.4 111.07 110.77 110.62 111.92 113.23 114.15 114.11 114.08 112.92 110.55 108.16 107.4 107.41 107.42 9999 9999 9999 108.09 108.95 109.99 111.57 113.14 114.39 115.24 116.09 115.62 114.42 113.2 111.06 108.76 106.55 106.65 106.75 106.82 9999 9999 9999 9999 9999 9999 9999 9999 9999 9999 9999 9999 9999 9999 9999 9999 9999 9999 9999 9999 9999 9999 9999 9999 9999 9999 9999 9999 9999 9999 9999 9999 9999 9999 9999 9999 9999 9999 9999 9999 9999 9999 9999 9999 9999 9999 9999 9999 9999 9999 9999 9999 9999 9999 9999 9999 9999 9999 9999 106.92 106.91 107.89 109.98 112.07 112.9 113.13 113.35 113.32 113.25
114.26 114.15 113.96 113.72 113.48 113.21 112.94 112.7 113.21 113.73 114.07 113.9 113.72 113.67 113.79 113.92 113.76 113.43 113.09 113.48 114.03 114.54 113.14 111.75 110.4 109.21 108.01 107.31 107.33 107.36 107.35 107.3 107.25 107.12 106.97 106.82 107.4 107.98 108.86 111.08 113.3 114.74 114.91 115.09 115.24 115.39 115.54 115.66 115.77 115.88 115.4 114.88 114.43 114.37 114.31 114.13 113.73 113.33 112.91 112.46 112.02 111.81 111.68 111.54 111.19 110.82 110.61 111.66 112.71 113.29 112.83 112.39 111.3 109.54 107.77 107.27 107.34 107.4 9999 9999 9999 108 108.86 109.94 111.6 113.26 114.48 115.21 115.94 115.75 115.08 114.39 111.94 109.19 106.6 106.62 106.65 106.68 106.7 106.72 9999 9999 9999 9999 9999 9999 9999 9999 9999 9999 9999 9999 9999 9999 9999 9999 9999 9999 9999 9999 9999 9999 9999 9999 9999 9999 9999 9999 9999 9999 9999 9999 9999 9999 9999 9999 9999 9999 9999 9999 9999 9999 9999 9999 9999 9999 9999 9999 9999 9999 9999 9999 9999 9999 9999 9999 9999 9999 107.59 108.78 110.85 112.92 113.66 113.78 113.9 113.58 113.2
114.19 114.13 113.95 113.71 113.47 113.18 112.9 112.65 113.03 113.41 113.7 113.73 113.75 113.75 113.75 113.75 113.61 113.38 113.16 113.49 113.92 114.29 112.67 111.05 109.6 108.68 107.76 107.22 107.21 107.21 107.19 107.17 107.15 107.25 107.37 107.48 108.02 108.57 109.4 111.4 113.41 114.79 115.15 115.51 115.63 115.6 115.56 115.65 115.78 115.9 115.52 115.12 114.76 114.66 114.55 114.34 113.91 113.49 113.06 112.62 112.17 112 111.93 111.86 111.43 110.98 110.68 111.41 112.16 112.5 111.94 111.37 110.42 109.13 107.83 107.43 107.4 107.38 9999 9999 9999 9999 108.87 110 111.74 113.48 114.66 115.27 115.88 115.93 115.73 115.54 112.78 109.62 106.64 106.59 106.56 106.54 106.61 106.67 106.71 9999 9999 9999 9999 9999 9999 9999 9999 9999 9999 9999 9999 9999 9999 9999 9999 9999 9999 9999 9999 9999 9999 9999 9999 9999 9999 9999 9999 9999 9999 9999 9999 9999 9999 9999 9999 9999 9999 9999 9999 9999 9999 9999 9999 9999 9999 9999 9999 9999 9999 9999 9999 9999 9999 9999 9999 107.57 108.28 109.67 111.73 113.78 114.41 114.43 114.45 113.83 113.14
114.12 114.11 113.94 113.69 113.45 113.15 112.85 112.6 112.84 113.09 113.34 113.57 113.79 113.84 113.7 113.56 113.45 113.34 113.23 113.49 113.82 114.03 112.18 110.34 108.8 108.16 107.52 107.13 107.09 107.05 107.03 107.04 107.04 107.39 107.81 108.23 108.72 109.21 109.95 111.6 113.26 114.52 115.18 115.83 115.98 115.81 115.64 115.71 115.83 115.96 115.71 115.46 115.21 115.06 114.92 114.68 114.3 113.91 113.58 113.29 112.99 112.76 112.56 112.35 111.81 111.26 110.84 111.21 111.59 111.82 111.71 111.59 110.97 109.92 108.87 108.24 107.78 107.33 9999 107.14 107.19 108.22 109.26 110.54 112.4 114.26 115.49 116.08 116.68 116.55 116.1 115.66 113.15 110.36 107.74 107.28 106.84 106.53 106.59 106.65 106.68 106.7 9999 9999 9999 9999 9999 9999 9999 9999 9999 9999 9999 9999 9999 9999 9999 9999 9999 9999 9999 9999 9999 9999 9999 9999 9999 9999 9999 9999 9999 9999 9999 9999 9999 9999 9999 9999 9999 9999 9999 9999 9999 9999 9999 9999 9999 9999 9999 9999 9999 9999 9999 9999 9999 9999 9999 107.9 108.98 110.56 112.6 114.64 115.15 115.07 115 114.07 113.07
113.87 113.81 113.68 113.51 113.33 113.09 112.82 112.59 112.66 112.75 112.93 113.32 113.72 113.83 113.63 113.42 113.34 113.32 113.31 113.49 113.7 113.77 111.7 109.63 108.01 107.65 107.29 107.05 106.97 106.89 106.88 106.9 106.93 107.54 108.27 108.97 109.41 109.85 110.48 111.79 113.1 114.27 115.22 116.16 116.33 116.02 115.71 115.76 115.89 116.02 115.91 115.8 115.67 115.47 115.28 115.03 114.69 114.34 114.11 113.97 113.82 113.52 113.18 112.85 112.2 111.54 110.99 110.99 111.01 111.15 111.49 111.82 111.53 110.72 109.91 109.03 108.15 107.27 107.19 9999 9999 108.48 109.66 111.09 113.07 115.05 116.31 116.89 117.48 117.16 116.46 115.77 113.54 111.12 108.83 107.96 107.11 9999 106.58 106.63 106.65 106.65 106.65 106.67 106.7 9999 9999 9999 9999 9999 9999 9999 9999 9999 9999 9999 9999 9999 9999 9999 9999 9999 9999 9999 9999 9999 9999 9999 9999 9999 9999 9999 9999 9999 9999 9999 9999 9999 9999 9999 9999 9999 9999 9999 9999 9999 9999 9999 9999 9999 9999 9999 9999 9999 9999 9999 9999 108 109.15 110.55 112.18 113.82 114.32 114.38 114.45 113.98 113.45
113.19 112.87 112.83 112.9 112.96 112.9 112.83 112.74 112.52 112.31 112.27 112.62 112.96 113.25 113.47 113.67 113.65 113.55 113.44 113.46 113.5 113.38 111.4 109.42 107.88 107.51 107.15 106.93 106.87 106.81 106.83 106.89 106.95 107.6 108.36 109.1 109.72 110.34 111.09 112.29 113.49 114.55 115.41 116.28 116.41 116.09 115.77 115.76 115.81 115.87 115.86 115.84 115.79 115.65 115.5 115.33 115.11 114.88 114.74 114.67 114.6 114.24 113.81 113.37 112.64 111.9 111.23 110.88 110.54 110.52 111.06 111.6 111.61 111.18 110.72 109.75 108.6 107.44 107.35 107.33 107.5 108.82 110.13 111.69 113.75 115.82 117.11 117.69 118.28 117.76 116.81 115.88 113.93 111.88 109.9 108.63 107.38 9999 9999 9999 106.62 106.6 106.58 106.61 106.66 106.71 106.73 9999 9999 9999 9999 9999 9999 9999 9999 9999 9999 9999 9999 9999 9999 9999 9999 9999 9999 9999 9999 9999 9999 9999 9999 9999 9999 9999 9999 9999 9999 9999 9999 9999 9999 9999 9999 9999 9999 9999 9999 9999 9999 9999 9999 9999 9999 9999 9999 9999 106.89 108.1 109.31 110.5 111.69 112.9 113.37 113.58 113.79 113.86 113.91
112.51 111.92 111.99 112.3 112.59 112.73 112.85 112.88 112.37 111.86 111.62 111.91 112.21 112.68 113.31 113.93 113.97 113.77 113.58 113.43 113.3 113 111.12 109.23 107.77 107.39 107.02 106.8 106.77 106.74 106.8 106.9 107 107.64 108.36 109.09 109.94 110.79 111.72 112.91 114.1 115.03 115.65 116.28 116.35 116.09 115.83 115.73 115.66 115.59 115.62 115.64 115.65 115.63 115.61 115.59 115.57 115.54 115.48 115.4 115.32 114.92 114.43 113.95 113.19 112.43 111.68 111.01 110.34 109.94 109.99 110.05 110.23 110.47 110.68 110.21 109.52 108.82 108.55 108.31 108.34 109.85 111.36 112.91 114.58 116.27 117.08 117.17 117.27 116.48 115.38 114.29 112.54 110.75 109.07 108.33 107.58 107.09 107.22 107.34 107.43 107.49 107.55 107.7 107.9 108.09 108 107.87 9999 9999 9999 9999 9999 9999 9999 9999 9999 9999 9999 9999 9999 9999 9999 9999 9999 9999 9999 9999 9999 9999 9999 9999 9999 9999 9999 9999 9999 9999 9999 9999 9999 9999 9999 9999 9999 9999 9999 9999 9999 9999 9999 9999 9999 9999 9999 9999 106.92 108.2 109.48 110.44 111.2 111.96 112.42 112.78 113.13 113.76 114.39
111.82 111.09 111.26 111.74 112.22 112.49 112.75 112.87 112.14 111.4 110.99 111.25 111.5 112.15 113.17 114.2 114.28 113.99 113.71 113.39 113.09 112.62 110.83 109.03 107.66 107.27 106.88 106.68 106.68 106.67 106.77 106.91 107.06 107.68 108.36 109.08 110.16 111.24 112.35 113.52 114.7 115.51 115.89 116.28 116.29 116.09 115.89 115.69 115.49 115.31 115.38 115.44 115.52 115.62 115.72 115.85 116.04 116.22 116.23 116.14 116.05 115.59 115.06 114.52 113.74 112.96 112.13 111.12 110.12 109.35 108.91 108.49 108.87 109.78 110.66 110.68 110.45 110.21 109.74 109.28 109.19 110.89 112.58 114.12 115.4 116.7 117.04 116.64 116.25 115.18 113.89 112.61 111.05 109.46 108.07 107.94 107.79 107.75 107.99 108.23 108.44 108.62 108.8 109.15 109.57 109.97 109.74 109.46 109.12 108.33 9999 9999 9999 9999 9999 9999 9999 9999 9999 9999 9999 9999 9999 9999 9999 9999 9999 9999 9999 9999 9999 9999 9999 9999 9999 9999 9999 9999 9999 9999 9999 9999 9999 9999 9999 9999 9999 9999 9999 9999 9999 9999 9999 9999 9999 106.56 107.03 108.38 109.73 110.66 111.3 111.94 112.37 112.73 113.1 113.77 114.46
111.12 110.73 110.97 111.4 111.82 111.86 111.89 111.85 111.34 110.82 110.67 111.21 111.74 112.36 113.08 113.8 113.88 113.73 113.57 113.48 113.39 113.08 111.19 109.3 107.85 107.35 106.86 106.62 106.61 106.61 106.71 106.85 106.99 107.49 108.03 108.62 109.62 110.63 111.74 113.1 114.45 115.3 115.6 115.9 115.92 115.81 115.68 115.49 115.28 115.08 114.98 114.89 114.89 115.14 115.39 115.68 116.02 116.37 116.52 116.56 116.59 116.16 115.63 115.09 114.27 113.45 112.52 111.16 109.82 108.72 107.92 107.11 107.65 109.06 110.49 110.99 111.24 111.48 110.86 110.22 110.04 111.92 113.82 115.32 116.21 117.12 116.99 116.09 115.21 113.87 112.39 110.93 109.55 108.18 107.08 107.56 108.01 108.42 108.77 109.12 109.45 109.75 110.05 110.6 111.23 111.86 111.49 111.04 110.49 109.23 107.98 107.07 9999 9999 106.61 106.67 106.73 107.1 107.59 108.07 107.78 9999 9999 9999 9999 9999 9999 9999 9999 9999 9999 9999 9999 9999 9999 9999 9999 9999 9999 9999 9999 9999 9999 9999 9999 9999 9999 9999 9999 9999 9999 9999 9999 9999 9999 106.57 107.15 108.57 109.99 110.9 111.48 112.06 112.48 112.86 113.23 113.81 114.4
110.43 110.39 110.67 111.05 111.42 111.23 111.04 110.83 110.54 110.25 110.36 111.17 111.98 112.56 112.97 113.4 113.48 113.46 113.42 113.58 113.75 113.61 111.61 109.62 108.08 107.47 106.85 106.56 106.56 106.55 106.64 106.76 106.89 107.22 107.57 107.98 108.73 109.5 110.52 112.12 113.71 114.66 114.96 115.27 115.33 115.29 115.24 115.14 115.03 114.89 114.4 113.92 113.68 114.07 114.46 114.86 115.26 115.66 116.05 116.43 116.79 116.5 116.09 115.66 114.76 113.86 112.76 111 109.25 107.99 107.39 106.78 107.13 108.07 109.03 109.78 110.46 111.13 110.98 110.82 110.88 111.92 112.99 113.92 114.62 115.33 115.4 115.02 114.61 113.16 111.44 109.72 108.68 107.65 106.93 107.82 108.71 109.54 110.3 111.04 111.51 111.79 112.06 112.5 113.01 113.52 113.17 112.76 112.22 110.86 109.5 108.44 108.04 107.65 107.52 107.63 107.73 108.23 108.87 109.52 109.12 108.62 9999 9999 9999 9999 9999 9999 9999 9999 9999 9999 9999 9999 9999 9999 9999 9999 9999 9999 9999 9999 9999 9999 9999 9999 9999 9999 9999 9999 9999 9999 9999 106.44 106.51 106.59 107.27 108.77 110.26 111.15 111.67 112.19 112.6 112.98 113.36 113.84 114.33
109.98 110.22 110.49 110.78 111.08 110.66 110.24 109.87 109.78 109.69 110.06 111.15 112.23 112.75 112.86 112.98 113.09 113.19 113.28 113.69 114.11 114.14 112.04 109.94 108.31 107.58 106.84 106.5 106.5 106.5 106.57 106.68 106.78 106.94 107.11 107.32 107.84 108.36 109.3 111.14 112.98 114.03 114.33 114.63 114.74 114.78 114.81 114.8 114.78 114.69 113.8 112.93 112.47 113.01 113.55 114.04 114.5 114.95 115.58 116.3 117 116.85 116.56 116.23 115.25 114.27 112.99 110.82 108.66 107.28 106.87 9999 9999 107.06 107.55 108.57 109.7 110.79 111.11 111.43 111.7 111.9 112.13 112.47 112.94 113.42 113.73 113.91 114.08 112.53 110.56 108.59 107.94 107.28 106.98 108.26 109.54 110.81 112.08 113.34 113.99 114.2 114.41 114.61 114.82 115.04 114.83 114.59 114.21 113.05 111.88 110.88 110.22 109.57 109.4 109.63 109.86 110.53 111.35 112.18 111.79 111.32 110.8 110.01 109.23 9999 9999 9999 9999 9999 9999 9999 9999 9999 9999 9999 9999 9999 9999 9999 9999 9999 9999 9999 9999 9999 9999 9999 9999 9999 9999 9999 106.58 106.61 106.95 107.28 108.12 109.59 111.07 112.03 112.69 113.35 113.58 113.74 113.91 114.03 114.16
111.13 111.37 111.42 111.44 111.46 111.26 111.05 110.94 111.18 111.42 111.8 112.42 113.05 113.1 112.76 112.42 112.47 112.63 112.78 113.3 113.82 113.94 112.07 110.18 108.67 107.82 106.98 106.61 106.61 106.62 106.68 106.76 106.84 106.86 106.88 106.94 107.26 107.58 108.35 110 111.67 112.78 113.35 113.91 114.16 114.29 114.41 114.45 114.48 114.4 113.42 112.43 111.89 112.42 112.96 113.47 113.94 114.4 115.09 115.89 116.71 116.59 116.35 116.07 115.12 114.17 112.84 110.45 108.04 106.62 106.38 9999 9999 9999 106.09 107.39 108.94 110.46 111.26 112.05 112.49 111.85 111.24 111.01 111.25 111.51 112.08 112.83 113.56 111.88 109.66 107.47 107.2 9999 107.04 108.72 110.39 112.1 113.88 115.65 116.46 116.61 116.76 116.72 116.63 116.55 116.49 116.43 116.21 115.24 114.27 113.31 112.4 111.49 111.29 111.64 111.98 112.83 113.84 114.84 114.47 114.02 113.45 112.18 110.92 109.7 108.55 9999 9999 9999 9999 9999 9999 9999 9999 9999 9999 9999 9999 9999 9999 9999 9999 9999 9999 9999 9999 9999 9999 9999 9999 106.64 106.65 106.83 107.47 108.1 109.1 110.56 112.02 113.1 113.97 114.84 114.86 114.74 114.62 114.27 113.94
112.28 112.52 112.34 112.08 111.84 111.86 111.88 112.01 112.6 113.17 113.57 113.72 113.88 113.46 112.64 111.84 111.83 112.03 112.22 112.81 113.4 113.6 112.01 110.42 109.06 108.11 107.17 106.77 106.79 106.81 106.86 106.92 106.99 106.89 106.79 106.73 106.9 107.07 107.57 108.71 109.86 110.98 112.06 113.12 113.58 113.83 114.07 114.09 114.08 114.01 113.39 112.77 112.43 112.74 113.07 113.44 113.86 114.28 114.49 114.62 114.77 114.18 113.52 112.86 112.17 111.47 110.52 108.93 107.32 106.36 106.16 105.96 105.93 105.99 106.05 107.01 108.13 109.28 110.78 112.27 113.26 112.84 112.4 112.2 112.28 112.38 112.92 113.71 114.51 112.84 110.65 108.49 108.04 107.59 107.62 109.35 111.08 112.87 114.75 116.62 117.46 117.61 117.76 117.6 117.37 117.13 117.14 117.15 117.03 116.35 115.65 114.91 114.09 113.25 113.05 113.36 113.67 114.34 115.15 115.98 115.81 115.57 115.16 113.82 112.45 111.01 109.48 107.96 107.13 9999 9999 9999 9999 9999 9999 9999 9999 9999 9999 9999 9999 9999 9999 9999 9999 9999 106.62 106.57 106.54 106.52 106.51 106.62 106.72 107.06 108 108.92 110.09 111.53 112.96 114.17 115.26 116.34 116.13 115.73 115.32 114.5 113.7
113.38 113.65 113.25 112.72 112.22 112.47 112.7 113.09 114.02 114.93 115.32 115 114.7 113.79 112.51 111.24 111.19 111.43 111.66 112.33 112.99 113.26 111.97 110.66 109.45 108.4 107.35 106.93 106.97 107 107.04 107.09 107.13 106.91 106.69 106.52 106.53 106.55 106.78 107.4 108.03 109.2 110.78 112.34 113.01 113.37 113.74 113.72 113.68 113.62 113.37 113.12 112.97 113.06 113.16 113.41 113.78 114.16 113.87 113.33 112.81 111.76 110.67 109.66 109.22 108.77 108.22 107.43 106.62 106.11 105.94 105.77 105.8 105.91 106.02 106.62 107.3 108.1 110.3 112.48 114.04 113.92 113.8 113.72 113.71 113.71 114.22 115.01 115.8 114.21 112.17 110.17 109.39 108.62 108.41 110.06 111.71 113.39 115.11 116.84 117.58 117.71 117.85 117.6 117.27 116.94 116.88 116.82 116.7 116.3 115.9 115.52 115.17 114.81 114.64 114.62 114.61 114.41 114.18 113.98 114.21 114.43 114.53 114.06 113.56 112.64 111.03 109.41 108.45 108.02 107.59 107.39 107.28 9999 9999 9999 9999 9999 9999 9999 9999 9999 9999 107.97 108.19 108.35 108.48 108.61 108.31 107.97 107.7 107.82 107.94 108.3 109.2 110.1 110.91 111.64 112.4 113.45 114.61 115.77 115.7 115.44 115.13 114.32 113.5
112.89 113.13 112.87 112.52 112.19 112.44 112.69 113.03 113.66 114.29 114.54 114.29 114.04 113.45 112.65 111.82 111.8 111.96 112.12 112.42 112.74 112.79 111.78 110.78 109.74 108.69 107.63 107.17 107.13 107.09 107.16 107.25 107.35 107.38 107.4 107.39 107.28 107.17 107.2 107.47 107.75 108.73 110.28 111.84 112.5 112.87 113.24 113.24 113.21 113.19 113.22 113.25 113.24 113.15 113.07 113.21 113.55 113.89 113.16 112.03 110.92 109.5 108.06 106.74 106.49 106.25 106.06 106.01 105.96 105.86 105.72 105.59 105.66 105.83 105.99 106.22 106.46 106.94 109.84 112.72 114.83 115.02 115.2 115.24 115.14 115.04 115.53 116.31 117.09 115.58 113.69 111.83 110.73 109.63 109.2 110.77 112.33 113.9 115.47 117.04 117.69 117.81 117.93 117.6 117.17 116.75 116.62 116.5 116.38 116.27 116.15 116.14 116.27 116.39 116.22 115.88 115.55 114.45 113.18 111.94 112.63 113.31 113.94 114.33 114.7 114.27 112.56 110.86 109.77 109.14 108.52 108.14 107.84 107.55 107.36 107.18 107.04 107.06 107.08 107.27 107.77 108.26 108.76 109.28 109.79 110.2 110.57 110.94 110.34 109.68 109.13 109.28 109.44 109.8 110.59 111.39 111.65 111.41 111.21 111.93 113.04 114.15 114.34 114.41 114.41 113.88 113.34
112.4 112.62 112.5 112.31 112.16 112.39 112.63 112.87 113.12 113.37 113.44 113.29 113.13 112.99 112.85 112.7 112.73 112.8 112.87 112.69 112.53 112.26 111.55 110.84 109.99 108.98 107.96 107.46 107.28 107.1 107.23 107.42 107.62 108.24 108.84 109.28 109.13 108.98 108.98 109.2 109.42 110 110.86 111.74 112.08 112.27 112.46 112.52 112.57 112.63 112.72 112.81 112.79 112.58 112.38 112.44 112.72 113 112.11 110.82 109.53 108.46 107.38 106.41 106.23 106.05 105.94 105.98 106.02 105.99 105.91 105.82 105.85 105.93 106.02 106.17 106.34 106.73 109.21 111.71 113.74 114.59 115.42 115.79 115.7 115.6 115.85 116.26 116.7 115.67 114.41 113.16 112.34 111.5 111.16 112.32 113.49 114.76 116.13 117.51 118.08 118.21 118.33 117.89 117.35 116.82 116.52 116.22 116.04 116.2 116.35 116.6 117 117.41 117.28 116.82 116.35 114.68 112.72 110.77 111.65 112.54 113.45 114.4 115.38 115.34 113.68 112.01 110.88 110.13 109.37 108.86 108.41 107.94 107.61 107.3 107.06 107.14 107.22 107.54 108.28 109.01 109.79 110.6 111.39 112.05 112.66 113.27 112.36 111.38 110.56 110.75 110.94 111.29 111.98 112.68 112.37 111.15 109.98 110.41 111.47 112.53 112.99 113.38 113.7 113.45 113.19
111.91 112.11 112.12 112.11 112.12 112.35 112.58 112.7 112.57 112.44 112.35 112.28 112.22 112.55 113.08 113.59 113.65 113.64 113.61 112.95 112.31 111.74 111.33 110.91 110.24 109.27 108.29 107.73 107.42 107.11 107.3 107.6 107.91 109.11 110.28 111.16 110.98 110.8 110.76 110.92 111.09 111.25 111.42 111.62 111.66 111.66 111.67 111.8 111.94 112.07 112.22 112.37 112.34 112.01 111.68 111.67 111.89 112.11 111.05 109.6 108.15 107.42 106.72 106.09 105.98 105.86 105.83 105.96 106.08 106.12 9999 106.06 106.05 106.05 106.05 106.16 106.29 106.63 108.54 110.47 112.3 113.85 115.37 116.08 116 115.92 115.81 115.7 115.61 115.23 114.79 114.34 114.11 113.86 113.83 114.41 115 115.87 117.02 118.19 118.7 118.88 119.06 118.52 117.85 117.2 116.6 116.02 115.68 116.06 116.43 116.74 116.99 117.25 117.23 117.04 116.84 115.54 114 112.49 112.78 113.09 113.35 113.37 113.43 112.99 111.82 110.62 109.91 109.52 109.11 109.14 109.27 109.38 109.66 109.91 110.14 110.33 110.51 110.68 110.86 111.06 111.52 112.16 112.82 113.39 113.94 114.49 113.6 112.64 111.85 112.09 112.32 112.63 113.1 113.58 113.01 111.53 110.05 110.23 111.03 111.85 112.41 112.96 113.41 113.22 113.03
111.49 111.47 111.35 111.22 111.12 111.28 111.45 111.56 111.53 111.49 111.58 111.79 111.99 112.47 113.09 113.71 113.8 113.8 113.77 113.26 112.74 112.22 111.77 111.32 110.68 109.81 108.93 108.25 107.69 107.14 107.29 107.58 107.92 109.46 111.01 112.24 112.38 112.5 112.58 112.63 112.69 112.5 112.16 111.82 111.59 111.38 111.19 111.37 111.55 111.72 111.88 112.03 111.99 111.61 111.22 111.09 111.17 111.27 110.04 108.43 106.81 106.42 106.07 105.77 105.72 105.67 105.72 105.93 106.14 106.25 9999 9999 106.25 106.16 106.07 106.15 106.25 106.51 107.85 109.22 110.88 113.12 115.34 116.37 116.31 116.24 115.76 115.13 114.51 114.81 115.18 115.54 115.9 116.24 116.47 116.48 116.5 116.97 117.91 118.86 119.33 119.56 119.79 119.13 118.35 117.56 116.68 115.81 115.33 115.93 116.52 116.88 116.98 117.09 117.18 117.27 117.34 116.42 115.29 114.19 113.9 113.63 113.22 112.32 111.45 110.67 109.97 109.25 108.96 108.92 108.87 109.44 110.15 110.84 111.72 112.59 113.34 113.69 114.03 114.07 113.65 113.25 113.34 113.77 114.21 114.61 115.02 115.42 114.61 113.76 113.1 113.38 113.66 113.9 114.09 114.28 113.63 112.29 110.95 110.94 111.4 111.87 112.46 113.05 113.51 113.17 112.83
111.07 110.82 110.53 110.23 109.98 110.05 110.12 110.23 110.39 110.55 110.9 111.44 111.97 112.49 113.01 113.52 113.62 113.65 113.68 113.62 113.54 113.3 112.62 111.95 111.25 110.53 109.8 108.96 108.06 107.18 107.19 107.35 107.59 109.19 110.79 112.22 113.15 114.04 114.46 114.29 114.13 113.76 113.29 112.82 112.41 112.01 111.64 111.82 112 112.15 112.16 112.18 112.21 112.23 112.24 111.91 111.38 110.87 109.59 108.09 106.59 106.31 106.04 105.82 105.79 105.77 105.8 105.94 106.07 106.15 106.18 106.22 106.18 106.12 106.06 106.12 106.19 106.39 107.3 108.22 109.51 111.52 113.55 114.73 115.14 115.53 115.14 114.44 113.74 114.24 114.85 115.47 116.22 116.95 117.42 117.29 117.14 117.5 118.34 119.18 119.57 119.77 119.97 119.3 118.51 117.7 116.6 115.51 114.95 115.73 116.52 116.96 117.01 117.05 117.1 117.2 117.32 116.72 116 115.29 114.63 113.95 113.01 111.31 109.59 108.49 108.22 107.93 108.02 108.33 108.63 109.76 111.05 112.32 113.81 115.29 116.54 117.05 117.56 117.44 116.42 115.42 115.16 115.37 115.59 115.83 116.09 116.35 115.63 114.9 114.36 114.68 115 115.16 115.06 114.97 114.26 113.06 111.85 111.65 111.76 111.88 112.5 113.14 113.6 113.12 112.64
110.65 110.16 109.7 109.24 108.84 108.82 108.8 108.9 109.26 109.61 110.23 111.1 111.97 112.51 112.92 113.33 113.44 113.5 113.6 113.98 114.36 114.36 113.46 112.57 111.83 111.26 110.68 109.66 108.43 107.22 107.08 107.12 107.26 108.91 110.56 112.23 113.93 115.61 116.35 115.95 115.56 115.03 114.42 113.81 113.22 112.64 112.08 112.27 112.45 112.57 112.44 112.33 112.44 112.86 113.27 112.72 111.58 110.46 109.14 107.76 106.38 106.2 106.01 105.86 105.87 105.88 105.9 105.94 105.98 106.02 106.05 106.08 106.08 106.06 106.04 106.09 106.14 106.26 106.77 107.3 108.14 109.57 111.01 112.25 113.29 114.32 114.21 113.71 113.2 113.56 113.98 114.46 115.36 116.25 116.86 116.91 116.95 117.4 118.24 119.07 119.31 119.31 119.32 118.75 118.11 117.41 116.23 115.05 114.47 115.36 116.25 116.85 117.15 117.45 116.86 115.89 114.95 114.18 113.43 112.73 112.7 112.65 112.31 111.19 110.06 109.4 109.32 109.23 109.45 109.83 110.22 111.05 111.98 112.94 114.33 115.72 116.87 117.18 117.49 117.42 116.81 116.19 115.93 115.92 115.91 116.02 116.15 116.29 115.83 115.36 115.07 115.52 115.98 116.17 115.96 115.76 115.07 114.03 112.99 112.74 112.72 112.69 113.29 113.91 114.32 113.68 113.05
110.32 109.63 109.25 9999 9999 9999 9999 9999 9999 109.09 109.7 110.57 111.46 112.06 112.54 113.02 113.13 113.2 113.33 113.98 114.62 114.84 114.08 113.3 112.59 111.97 111.35 110.23 108.86 107.49 107.2 107.06 107.06 108.55 110.06 111.75 113.87 116 116.99 116.65 116.28 115.8 115.24 114.66 114 113.32 112.66 112.73 112.82 112.85 112.64 112.42 112.65 113.47 114.28 113.5 111.77 110.03 108.69 107.43 106.19 106.09 105.99 105.91 105.95 105.98 105.99 105.94 105.89 105.89 105.92 105.95 105.97 106 106.03 106.05 106.08 106.12 106.24 106.36 106.76 107.6 108.45 109.79 111.46 113.12 113.29 112.98 112.67 112.87 113.1 113.45 114.5 115.54 116.31 116.54 116.76 117.31 118.13 118.96 119.04 118.85 118.66 118.2 117.71 117.13 115.85 114.58 114 114.99 115.98 116.75 117.31 117.85 116.58 114.55 112.55 111.64 110.86 110.2 110.79 111.36 111.62 111.1 110.55 110.31 110.42 110.52 110.89 111.38 111.87 112.38 112.9 113.47 114.66 115.86 116.76 116.73 116.72 116.7 116.66 116.6 116.39 116.12 115.86 115.81 115.81 115.81 115.65 115.49 115.49 116.11 116.72 117 116.81 116.61 116.03 115.19 114.34 114.24 114.32 114.4 114.98 115.56 115.9 115.15 114.4
110.01 109.11 108.88 9999 9999 9999 9999 9999 9999 9999 109.22 109.95 110.68 111.36 112.01 112.65 112.74 112.8 112.93 113.67 114.41 114.82 114.49 114.16 113.54 112.66 111.78 110.64 109.39 108.12 107.66 107.29 107.05 108.03 109.02 110.21 111.86 113.52 114.51 114.73 114.93 115 115 114.98 114.66 114.29 113.89 113.24 112.62 112.16 112.1 112.04 112.48 113.52 114.55 114.34 113.4 112.45 111.14 109.77 108.41 107.69 106.98 106.41 106.26 106.12 106.01 105.94 105.87 105.85 105.86 105.87 105.89 105.92 105.94 105.99 106.04 106.08 106.08 106.08 106.27 106.76 107.25 108.38 109.98 111.6 112.07 112.2 112.3 112.63 112.95 113.34 114.2 115.07 115.77 116.12 116.47 117.05 117.8 118.57 118.54 118.24 117.93 117.6 117.26 116.8 115.53 114.25 113.73 114.78 115.83 116.73 117.48 118.24 116.33 113.34 110.35 109.29 9999 9999 9999 110.1 110.95 111.02 111.06 111.23 111.53 111.83 112.33 112.93 113.53 113.69 113.81 114 114.99 116 116.65 116.28 115.93 115.99 116.52 117.02 116.85 116.33 115.81 115.6 115.46 115.33 115.49 115.63 115.91 116.7 117.48 117.84 117.65 117.47 117 116.35 115.7 115.74 115.93 116.12 116.66 117.21 117.47 116.61 115.75
109.7 108.59 9999 9999 9999 9999 9999 9999 9999 9999 9999 109.32 109.9 110.66 111.47 112.28 112.36 112.39 112.54 113.37 114.21 114.81 114.93 115.03 114.47 113.34 112.21 111.07 109.91 108.76 108.11 107.51 107.04 107.49 107.97 108.66 109.84 111.04 112.04 112.82 113.59 114.22 114.77 115.31 115.33 115.27 115.1 113.74 112.4 111.47 111.57 111.67 112.31 113.57 114.83 115.19 115.06 114.91 113.64 112.19 110.74 109.38 108.04 106.95 106.59 106.25 106.02 105.94 105.86 105.82 105.82 105.81 105.82 105.82 105.83 105.92 106 106.08 106.11 106.14 106.28 106.59 106.89 107.65 108.71 109.79 110.62 111.37 112.09 112.83 113.55 114.19 114.53 114.88 115.25 115.64 116.02 116.51 117.08 117.66 117.6 117.34 117.07 116.87 116.67 116.36 115.41 114.44 114.15 115.17 116.18 117.03 117.73 118.42 116.47 113.52 110.58 109.42 108.42 9999 9999 9999 9999 109.84 109.93 110.26 110.84 111.4 112.39 113.54 114.68 114.87 114.95 115.05 115.52 116 116.25 115.82 115.4 115.5 116.18 116.87 116.77 116.27 115.77 115.6 115.49 115.4 115.75 116.09 116.58 117.53 118.47 118.96 118.87 118.78 118.32 117.67 117.02 117.04 117.21 117.39 117.87 118.35 118.55 117.67 116.79
109.9 108.74 108.8 9999 9999 9999 9999 9999 9999 9999 9999 109.09 109.63 110.37 111.16 111.96 112.14 112.28 112.52 113.32 114.12 114.77 115.12 115.48 114.99 113.78 112.56 111.56 110.63 109.68 108.99 108.3 107.68 107.6 107.53 107.68 108.32 108.97 109.89 111.05 112.22 113.29 114.32 115.36 115.77 116.08 116.17 114.18 112.18 110.8 111.04 111.3 112.14 113.64 115.12 116.07 116.74 117.39 116.14 114.61 113.05 111.06 109.08 107.48 106.92 106.37 106.03 105.94 105.84 105.8 105.78 105.75 105.74 105.73 105.72 105.85 105.97 106.08 106.14 106.2 106.29 106.41 106.53 106.9 107.43 107.98 109.19 110.56 111.9 113.04 114.17 115.03 114.84 114.67 114.73 115.15 115.57 115.97 116.36 116.76 116.67 116.44 116.21 116.15 116.09 115.93 115.29 114.64 114.57 115.55 116.54 117.33 117.97 118.61 116.61 113.71 110.8 9999 9999 9999 9999 9999 9999 9999 9999 109.2 110.02 110.82 112.31 114.05 115.77 116.03 116.13 116.21 116.08 115.96 115.77 115.36 114.95 115.08 115.77 116.46 116.44 116.1 115.75 115.73 115.76 115.82 116.31 116.79 117.44 118.57 119.7 120.37 120.49 120.61 120.06 119.16 118.27 118.05 117.97 117.9 118.22 118.55 118.62 117.87 117.11
110.27 109.15 109.32 9999 9999 9999 9999 9999 9999 9999 9999 109.16 109.75 110.39 111.04 111.69 112.1 112.48 112.91 113.52 114.15 114.67 114.98 115.3 114.87 113.85 112.81 112.2 111.72 111.23 110.87 110.5 110.1 109.55 109.01 108.65 108.63 108.63 109.03 109.79 110.56 111.37 112.19 113.02 114 114.98 115.68 114.07 112.46 111.24 111 110.78 111.31 112.61 113.92 115.01 116 116.97 116.33 115.44 114.45 112.41 110.38 108.68 107.9 107.13 106.61 106.36 106.12 106 105.95 105.91 105.83 105.74 105.67 105.79 105.91 106.02 106.09 106.16 106.22 106.25 106.29 106.44 106.66 106.89 108.13 109.6 111.09 112.54 113.98 115.06 114.8 114.52 114.51 114.9 115.3 115.6 115.83 116.07 115.94 115.71 115.48 115.52 115.57 115.55 115.2 114.85 114.97 115.87 116.8 117.55 118.17 118.77 116.75 113.89 111.03 109.67 9999 9999 9999 9999 9999 9999 9999 9999 9999 110.25 112.24 114.57 116.88 117.19 117.32 117.35 116.61 115.9 115.29 114.9 114.51 114.67 115.36 116.05 116.12 115.93 115.73 115.87 116.04 116.25 116.87 117.49 118.31 119.62 120.93 121.78 122.12 122.45 121.79 120.64 119.5 119.05 118.72 118.42 118.57 118.73 118.7 118.07 117.43
110.65 109.57 109.85 110.12 110.23 9999 9999 9999 9999 9999 108.57 109.22 109.87 110.4 110.91 111.42 112.06 112.69 113.29 113.73 114.18 114.56 114.84 115.12 114.76 113.92 113.07 112.85 112.83 112.79 112.76 112.71 112.51 111.49 110.49 109.6 108.93 108.27 108.16 108.52 108.9 109.45 110.06 110.67 112.26 113.9 115.19 113.97 112.75 111.67 110.95 110.25 110.45 111.54 112.63 113.81 115.03 116.24 116.23 116.05 115.7 113.71 111.73 110.02 109.04 108.07 107.35 106.92 106.49 106.3 106.23 106.15 105.99 105.81 105.65 105.73 105.82 105.9 105.97 106.03 106.08 106.12 106.15 106.28 106.45 106.63 107.46 108.44 109.45 111 112.55 113.84 114.19 114.53 114.84 115.14 115.44 115.67 115.86 116.05 115.85 115.55 115.25 115.29 115.33 115.34 115.22 115.1 115.19 115.65 116.12 116.82 117.66 118.49 116.72 114.18 111.63 110.09 9999 9999 9999 9999 9999 9999 9999 9999 9999 109.38 111.14 113.24 115.35 116.21 116.96 117.52 116.99 116.44 115.92 115.51 115.1 115.14 115.59 116.06 116.08 115.91 115.75 115.86 116 116.2 116.85 117.5 118.48 120.25 121.98 123.14 123.69 124.24 123.53 122.23 120.94 120.23 119.61 119.04 118.98 118.93 118.76 118.23 117.69
111.17 110.35 110.72 111.09 111.28 110.88 110.47 109.96 109.35 108.76 108.95 109.64 110.34 110.77 111.15 111.53 112.21 112.89 113.51 113.83 114.15 114.42 114.62 114.82 114.56 113.95 113.32 113.36 113.6 113.85 114.15 114.44 114.47 113.18 111.89 110.58 109.3 108.02 107.42 107.37 107.33 107.6 107.98 108.36 110.54 112.84 114.71 113.89 113.05 112.08 110.88 109.7 109.59 110.45 111.33 112.62 114.07 115.52 116.15 116.69 116.95 115.02 113.08 111.36 110.18 109 108.09 107.47 106.85 106.59 106.5 106.4 106.14 105.87 105.63 105.68 105.73 105.79 105.84 105.9 105.95 105.98 106.01 106.11 106.24 106.37 106.78 107.26 107.8 109.47 111.13 112.63 113.6 114.56 115.17 115.37 115.58 115.74 115.89 116.03 115.75 115.38 115.02 115.06 115.09 115.14 115.25 115.35 115.4 115.41 115.43 116.09 117.16 118.22 116.69 114.47 112.24 110.51 9999 9999 9999 9999 9999 9999 9999 9999 9999 9999 109.77 111.39 113.02 114.57 116.08 117.34 117.31 117.26 117.08 116.66 116.25 116.11 116.23 116.36 116.23 116.01 115.79 115.72 115.68 115.7 116.21 116.72 117.85 120.35 122.82 124.42 125.19 125.95 125.3 124.04 122.78 121.79 120.84 119.95 119.54 119.15 118.73 118.22 117.71
111.77 111.33 111.8 112.27 112.6 112.5 112.38 111.83 110.72 109.63 109.7 110.44 111.17 111.55 111.85 112.15 112.61 113.08 113.51 113.77 114.02 114.19 114.23 114.27 114.14 113.87 113.59 113.4 113.25 113.11 113.63 114.16 114.45 113.68 112.9 111.84 110.34 108.85 108.01 107.69 107.38 107.51 107.79 108.08 109.91 111.82 113.44 113.29 113.12 112.65 111.63 110.61 110.25 110.5 110.76 111.84 113.22 114.6 115.53 116.41 116.99 115.38 113.75 112.2 110.81 109.44 108.42 107.74 107.07 106.79 106.68 106.57 106.28 105.98 105.7 105.7 105.7 105.72 105.76 105.81 105.85 105.89 105.93 106 106.09 106.18 106.31 106.44 106.66 108.27 109.9 111.49 112.96 114.42 115.3 115.47 115.63 115.74 115.81 115.9 115.55 115.12 114.71 114.76 114.81 114.92 115.23 115.55 115.57 115.16 114.73 115.37 116.66 117.96 116.68 114.78 112.86 110.92 9999 9999 9999 9999 9999 9999 9999 9999 9999 9999 9999 109.53 110.69 112.95 115.22 117.18 117.65 118.1 118.23 117.81 117.39 117.08 116.86 116.65 116.39 116.1 115.82 115.58 115.34 115.19 115.56 115.93 117.24 120.47 123.68 125.72 126.7 127.67 127.07 125.84 124.62 123.34 122.06 120.85 120.09 119.35 118.7 118.21 117.72
112.39 112.31 112.88 113.46 113.94 114.12 114.3 113.67 112.08 110.5 110.44 111.23 112.01 112.32 112.54 112.76 113.01 113.26 113.5 113.7 113.9 113.96 113.84 113.71 113.72 113.8 113.86 113.43 112.88 112.35 113.12 113.89 114.45 114.2 113.94 113.1 111.38 109.67 108.61 108.01 107.42 107.43 107.61 107.79 109.27 110.79 112.17 112.69 113.2 113.24 112.47 111.69 111.11 110.7 110.3 111.14 112.38 113.63 114.75 115.86 116.65 115.42 114.19 112.83 111.24 109.65 108.54 107.87 107.19 106.92 106.81 106.69 106.41 106.12 105.85 105.79 105.73 105.7 105.73 105.75 105.8 105.85 105.91 105.98 106.05 106.12 106.22 106.32 106.51 107.79 109.08 110.47 112.12 113.76 114.78 115.08 115.37 115.4 115.29 115.19 114.76 114.27 113.81 113.97 114.13 114.25 114.32 114.39 114.51 114.65 114.78 115.52 116.64 117.77 116.63 115 113.35 111.22 9999 9999 9999 9999 9999 9999 9999 9999 9999 9999 9999 9999 109.39 111.78 114.2 116.31 116.98 117.65 117.9 117.43 116.96 116.67 116.51 116.33 116.21 116.09 115.96 115.63 115.3 115.04 115.23 115.42 116.73 120.2 123.68 125.98 127.24 128.49 128.03 126.94 125.85 124.38 122.88 121.45 120.48 119.49 118.66 118.18 117.71
112.3 112.37 112.9 113.43 113.96 114.45 114.93 114.44 112.82 111.18 111.05 111.73 112.42 112.66 112.84 113.01 113.14 113.27 113.41 113.59 113.77 113.77 113.53 113.29 113.42 113.77 114.12 113.51 112.69 111.88 112.79 113.72 114.49 114.7 114.91 114.29 112.4 110.49 109.19 108.31 107.45 107.33 107.42 107.51 108.62 109.75 110.91 112.11 113.29 113.83 113.31 112.78 111.94 110.87 109.83 110.43 111.54 112.66 113.99 115.32 116.32 115.48 114.64 113.45 111.65 109.85 108.66 107.99 107.32 107.05 106.93 106.81 106.54 106.26 106 105.87 105.75 105.67 105.69 105.7 105.75 105.82 105.89 105.95 106 106.06 106.13 106.2 106.35 107.29 108.25 109.46 111.29 113.11 114.27 114.69 115.12 115.06 114.77 114.49 113.97 113.42 112.92 113.18 113.44 113.58 113.4 113.23 113.46 114.16 114.85 115.7 116.63 117.58 116.59 115.22 113.82 111.49 109.16 9999 9999 9999 9999 9999 9999 9999 9999 9999 9999 9999 9999 110.83 113.08 115.02 115.68 116.35 116.5 115.87 115.25 115.1 115.27 115.44 115.69 115.96 116.22 115.95 115.66 115.41 115.38 115.36 116.33 119.1 121.88 123.98 125.51 127.03 126.78 125.93 125.07 123.64 122.17 120.81 120.06 119.31 118.61 118.04 117.46
111.64 111.66 111.95 112.24 112.66 113.38 114.11 113.94 112.8 111.64 111.46 111.77 112.1 112.25 112.38 112.52 112.71 112.9 113.12 113.38 113.65 113.72 113.55 113.37 113.53 113.87 114.21 113.95 113.56 113.18 113.78 114.4 114.85 114.75 114.65 114.15 113.04 111.92 110.97 110.14 109.31 109.27 109.43 109.59 110.54 111.5 112.45 113.4 114.35 114.76 114.3 113.84 112.99 111.86 110.73 111.03 111.74 112.47 113.74 115.03 116.02 115.5 114.97 114.15 112.8 111.43 110.25 109.26 108.29 107.81 107.51 107.22 106.86 106.5 106.17 106 105.84 105.72 105.69 105.67 105.71 105.79 105.87 105.91 105.94 105.97 106.03 106.09 106.21 106.89 107.56 108.63 110.6 112.57 113.81 114.32 114.83 114.7 114.28 113.84 113.24 112.61 112.06 112.4 112.75 112.9 112.47 112.05 112.42 113.69 114.94 115.86 116.62 117.38 116.56 115.45 114.28 111.75 109.23 9999 9999 9999 9999 9999 9999 9999 9999 9999 9999 9999 9999 109.88 111.95 113.73 114.38 115.04 115.1 114.31 113.53 113.53 114.05 114.55 115.19 115.85 116.5 116.27 116.02 115.78 115.53 115.29 115.91 117.97 120.06 121.99 123.79 125.57 125.53 124.92 124.3 122.9 121.47 120.17 119.66 119.14 118.56 117.88 117.21
110.98 110.95 110.99 111.03 111.36 112.33 113.29 113.45 112.79 112.12 111.86 111.81 111.77 111.84 111.93 112.04 112.29 112.54 112.82 113.18 113.53 113.67 113.56 113.45 113.63 113.97 114.3 114.4 114.44 114.48 114.77 115.07 115.2 114.79 114.38 114.02 113.71 113.37 112.76 112 111.23 111.32 111.6 111.88 112.73 113.58 114.38 114.97 115.57 115.76 115.33 114.89 114.12 113.1 112.09 112.07 112.32 112.59 113.71 114.86 115.75 115.5 115.24 114.91 114.46 113.98 112.91 111.43 109.96 109.13 108.51 107.9 107.36 106.84 106.37 106.19 106.01 105.86 105.78 105.69 9999 105.75 105.82 105.83 105.83 105.83 105.93 106.04 106.21 106.85 107.5 108.57 110.58 112.59 113.71 114 114.28 114.32 114.23 114.13 113.62 113.07 112.58 112.76 112.95 112.97 112.57 112.17 112.48 113.56 114.64 115.39 115.98 116.58 115.75 114.71 113.59 111.32 109.03 9999 9999 9999 9999 9999 9999 9999 9999 9999 9999 9999 9999 109.72 111.39 112.84 113.49 114.14 114.2 113.45 112.69 112.77 113.39 114.01 114.76 115.54 116.33 116.18 116.02 115.82 115.48 115.14 115.48 116.89 118.32 120.04 121.96 123.9 124.05 123.68 123.31 122.03 120.7 119.53 119.24 118.95 118.48 117.72 116.96
110.1 110.05 109.96 109.87 110.11 111.09 112.07 112.44 112.19 111.94 111.71 111.49 111.26 111.34 111.45 111.58 111.87 112.17 112.51 112.97 113.42 113.63 113.58 113.52 113.71 114.02 114.34 114.78 115.25 115.69 115.71 115.72 115.54 114.81 114.1 113.92 114.39 114.84 114.55 113.85 113.16 113.38 113.77 114.17 114.92 115.66 116.3 116.53 116.78 116.76 116.35 115.95 115.24 114.35 113.45 113.1 112.89 112.69 113.68 114.68 115.49 115.51 115.51 115.69 116.14 116.56 115.56 113.58 111.61 110.44 109.5 108.57 107.87 107.17 106.57 106.37 106.18 106 105.85 105.71 105.67 9999 9999 9999 9999 105.68 105.83 105.98 106.2 106.81 107.43 108.52 110.56 112.61 113.61 113.67 113.73 113.94 114.19 114.43 114.01 113.53 113.09 113.12 113.14 113.06 112.72 112.37 112.61 113.45 114.29 114.84 115.25 115.66 114.79 113.75 112.64 110.71 9999 9999 9999 9999 9999 9999 9999 9999 9999 9999 9999 9999 109.08 110.17 111.28 112.29 112.97 113.65 113.83 113.37 112.9 113.02 113.47 113.94 114.41 114.9 115.38 115.32 115.26 115.18 115 114.81 115.06 115.96 116.88 118.16 119.69 121.23 121.38 121.18 120.97 120.24 119.48 118.82 118.61 118.4 118.01 117.33 116.64
108.94 108.94 108.85 108.76 108.91 109.54 110.18 110.48 110.45 110.41 110.39 110.37 110.34 110.61 110.91 111.2 111.48 111.76 112.14 112.74 113.34 113.62 113.58 113.54 113.58 113.68 113.78 114.08 114.42 114.74 114.89 115.03 115.01 114.52 114.03 113.99 114.47 114.95 114.8 114.33 113.85 113.97 114.21 114.47 115.21 115.96 116.56 116.74 116.91 116.89 116.6 116.31 115.44 114.23 113.04 112.79 112.73 112.68 113.74 114.79 115.63 115.68 115.73 116.05 116.77 117.5 116.69 114.81 112.92 111.65 110.54 109.44 108.51 107.59 106.82 106.69 106.56 106.38 106.13 105.89 105.8 105.83 9999 9999 9999 9999 105.85 106.01 106.24 106.82 107.41 108.51 110.57 112.64 113.5 113.34 113.18 113.57 114.16 114.74 114.4 113.99 113.61 113.47 113.33 113.15 112.86 112.57 112.73 113.33 113.93 114.27 114.5 114.74 113.83 112.79 111.7 110.11 9999 9999 9999 9999 9999 9999 9999 9999 9999 107.34 108.19 109.15 110.06 110.59 111.14 111.75 112.45 113.16 113.47 113.3 113.13 113.26 113.56 113.86 114.06 114.24 114.43 114.47 114.51 114.54 114.51 114.48 114.62 115.02 115.43 116.28 117.41 118.55 118.73 118.68 118.63 118.47 118.29 118.1 117.98 117.85 117.53 116.93 116.33
107.79 107.83 107.74 107.66 107.7 107.99 108.28 108.52 108.71 108.88 109.07 109.25 109.42 109.88 110.36 110.81 111.08 111.36 111.78 112.52 113.26 113.61 113.58 113.55 113.45 113.32 113.21 113.38 113.59 113.8 114.08 114.35 114.47 114.23 113.99 114.06 114.49 114.92 114.89 114.63 114.36 114.31 114.3 114.35 115.07 115.79 116.37 116.52 116.68 116.7 116.55 116.39 115.2 113.44 111.7 111.77 112.18 112.6 113.86 115.12 116.07 115.98 115.9 116 116.37 116.74 116.18 115.02 113.83 112.74 111.67 110.6 109.36 108.13 107.17 107.28 107.38 107.28 106.89 106.5 106.35 106.35 106.35 106.38 9999 9999 106.45 106.45 106.55 107.17 107.78 108.89 110.89 112.88 113.59 113.27 112.96 113.16 113.54 113.93 114.01 114.07 114.11 114.14 114.18 114.1 113.81 113.52 113.59 114 114.41 114.26 113.91 113.58 112.59 111.54 110.48 109.33 9999 9999 9999 9999 9999 9999 9999 9999 107.51 107.67 108.7 109.84 110.92 111.26 111.59 111.95 112.43 112.92 113.18 113.16 113.14 113.26 113.45 113.64 113.67 113.66 113.66 113.73 113.8 113.89 114.04 114.18 114.25 114.24 114.23 114.66 115.37 116.08 116.25 116.31 116.38 116.74 117.11 117.39 117.35 117.3 117.06 116.54 116.01
107.07 107.08 106.99 106.91 106.86 106.87 106.89 107.07 107.38 107.69 108 108.3 108.61 109.22 109.85 110.42 110.68 110.94 111.4 112.28 113.16 113.58 113.57 113.56 113.31 112.96 112.63 112.67 112.75 112.87 113.27 113.67 113.95 113.95 113.95 114.13 114.51 114.89 114.98 114.93 114.87 114.64 114.39 114.22 114.92 115.62 116.17 116.31 116.45 116.52 116.5 116.48 114.94 112.64 110.35 110.77 111.64 112.52 113.99 115.45 116.5 116.28 116.06 115.94 115.95 115.97 115.7 115.25 114.77 113.83 112.8 111.76 110.21 108.67 107.54 107.87 108.2 108.17 107.64 107.12 106.89 106.87 106.84 106.95 107.09 107.22 107.05 106.88 106.86 107.51 108.16 109.28 111.2 113.11 113.66 113.2 112.73 112.74 112.91 113.07 113.61 114.14 114.61 114.86 115.1 115.16 114.88 114.6 114.6 114.84 115.09 114.37 113.34 112.32 111.25 110.17 109.15 9999 9999 9999 9999 9999 9999 9999 9999 9999 107.9 108.25 109.35 110.54 111.66 112.2 112.73 113.1 113.06 113.04 112.97 112.86 112.75 112.81 112.95 113.1 113.2 113.29 113.37 113.28 113.19 113.22 113.6 113.97 114.26 114.47 114.67 115.02 115.45 115.88 115.91 115.85 115.81 116.07 116.33 116.51 116.39 116.28 116.19 116.13 116.05
107.09 107.02 106.95 106.89 106.85 106.86 106.87 107.03 107.3 9999 9999 9999 108.23 108.82 109.43 109.99 110.22 110.46 110.92 111.79 112.67 113.17 113.34 113.51 113.3 112.95 112.6 112.56 112.55 112.57 112.78 112.99 113.19 113.35 113.49 113.67 113.88 114.09 114.17 114.18 114.2 113.98 113.73 113.57 114.28 114.99 115.58 115.83 116.08 116.29 116.45 116.6 115.03 112.63 110.21 110.56 111.35 112.21 113.79 115.38 116.52 116.39 116.25 116.02 115.7 115.38 115.1 114.86 114.64 113.83 112.89 111.94 110.36 108.78 107.65 108.14 108.63 108.68 108.11 107.53 107.31 107.3 107.29 107.5 107.76 108 107.69 107.36 107.23 107.88 108.54 109.66 111.5 113.34 113.74 113.12 112.5 112.32 112.26 112.22 113.21 114.22 115.13 115.58 116.03 116.22 115.95 115.68 115.6 115.68 115.76 114.47 112.74 111.04 109.91 108.8 9999 9999 9999 9999 9999 9999 9999 9999 9999 9999 9999 108.84 110.01 111.24 112.41 113.15 113.89 114.22 113.67 113.14 112.77 112.56 112.35 112.36 112.45 112.55 112.74 112.93 113.08 112.82 112.57 112.56 113.17 113.77 114.28 114.71 115.13 115.36 115.52 115.68 115.56 115.39 115.24 115.39 115.55 115.62 115.43 115.23 115.31 115.73 116.12
107.1 106.95 106.91 106.87 106.85 106.85 106.85 106.98 107.22 9999 9999 9999 9999 108.43 109.02 109.55 109.77 109.98 110.43 111.3 112.18 112.76 113.11 113.46 113.28 112.93 112.58 112.47 112.38 112.3 112.3 112.31 112.42 112.7 112.98 113.11 113.11 113.12 113.13 113.15 113.17 113 112.81 112.72 113.44 114.17 114.81 115.23 115.65 116.03 116.4 116.75 115.37 113.2 111.03 111 111.27 111.66 113.27 114.87 116.09 116.3 116.5 116.31 115.69 115.08 114.28 113.39 112.52 111.66 110.79 109.92 108.86 107.8 107.06 107.39 107.74 107.79 107.46 107.12 107.1 107.28 107.45 107.94 108.48 109.01 108.84 108.66 108.58 108.91 109.25 109.98 111.27 112.58 112.91 112.59 112.25 111.77 111.25 110.76 111.62 112.5 113.34 113.96 114.58 115.04 115.25 115.44 115.54 115.57 115.61 114.04 112 109.97 109.02 9999 9999 9999 9999 9999 9999 9999 9999 9999 9999 9999 9999 109.3 110.4 111.53 112.63 113.43 114.23 114.55 113.8 113.04 112.53 112.27 112.01 112 112.1 112.19 112.39 112.61 112.77 112.4 112.03 111.98 112.76 113.55 114.27 114.9 115.54 115.68 115.57 115.47 115.21 114.92 114.66 114.71 114.76 114.73 114.46 114.19 114.45 115.34 116.22
107.22 107.03 106.99 106.95 106.93 106.94 106.94 107.03 107.19 9999 9999 9999 9999 108.04 108.61 109.11 109.3 109.49 109.94 110.81 111.69 112.36 112.89 113.41 113.27 112.91 112.56 112.38 112.2 112.02 111.82 111.63 111.64 112.06 112.47 112.54 112.33 112.13 112.1 112.12 112.15 112.03 111.89 111.86 112.61 113.35 114.04 114.63 115.21 115.78 116.35 116.91 115.72 113.79 111.85 111.42 111.18 111.12 112.74 114.36 115.68 116.23 116.76 116.6 115.68 114.78 113.44 111.9 110.37 109.49 108.69 107.91 107.38 106.83 106.46 106.64 106.84 106.9 106.81 106.71 106.9 107.26 107.61 108.38 109.22 110.02 109.99 109.96 109.93 109.94 109.96 110.28 111.01 111.77 112.06 112.04 112.01 111.19 110.19 109.21 109.82 110.44 111.08 111.8 112.52 113.26 114.03 114.79 115.1 115.11 115.11 113.39 111.19 109 9999 9999 9999 9999 9999 9999 9999 9999 9999 9999 9999 9999 108.92 109.61 110.41 111.23 112.02 112.57 113.13 113.37 112.97 112.55 112.24 112.02 111.81 111.96 112.24 112.51 112.49 112.46 112.42 112.2 111.97 111.98 112.54 113.11 113.7 114.31 114.92 114.98 114.79 114.61 114.36 114.11 113.89 114.03 114.17 114.2 113.99 113.77 114.01 114.76 115.53
107.66 107.5 107.43 107.36 107.36 107.47 107.56 107.53 107.42 9999 9999 9999 9999 9999 9999 108.52 108.62 108.73 109.04 109.68 110.32 110.99 111.67 112.34 112.57 112.67 112.74 112.64 112.53 112.38 112.09 111.79 111.62 111.7 111.79 111.85 111.88 111.89 112.13 112.43 112.72 112.57 112.39 112.3 112.8 113.3 113.83 114.38 114.93 115.58 116.3 117.02 116.12 114.57 113 112.44 111.97 111.69 113.11 114.53 115.72 116.33 116.95 116.62 115.31 114.02 112.32 110.43 108.53 107.68 106.97 106.29 106.16 106.03 105.94 105.99 106.04 106.12 106.22 106.33 106.71 107.23 107.75 108.81 109.95 111.03 111.15 111.26 111.26 110.95 110.65 110.56 110.74 110.94 111.21 111.5 111.78 110.59 109.1 107.67 108.02 108.37 108.83 109.65 110.46 111.5 112.84 114.16 114.66 114.64 114.62 112.73 110.38 108.03 107.78 9999 9999 9999 9999 9999 9999 9999 9999 9999 9999 108.47 109.19 109.91 110.42 110.92 111.4 111.71 112.02 112.21 112.14 112.07 111.94 111.78 111.61 111.92 112.38 112.83 112.59 112.31 112.06 112 111.92 111.98 112.31 112.66 113.13 113.72 114.31 114.28 114 113.73 113.51 113.28 113.1 113.35 113.59 113.72 113.59 113.46 113.63 114.14 114.65
108.09 107.98 107.88 107.77 107.8 108 108.19 108.02 107.65 107.28 9999 9999 9999 9999 9999 9999 9999 107.97 108.13 108.52 108.92 109.57 110.39 111.2 111.83 112.41 112.96 112.96 112.94 112.86 112.5 112.15 111.78 111.4 111.04 111.13 111.54 111.94 112.61 113.34 114.07 113.88 113.65 113.47 113.61 113.75 113.99 114.37 114.76 115.4 116.25 117.09 116.57 115.55 114.51 114.19 113.91 113.78 114.75 115.74 116.49 116.74 116.99 116.11 114.14 112.2 110.59 109.09 107.58 106.99 106.5 106.04 105.99 105.93 105.9 105.94 105.98 106.02 106.09 106.15 106.46 106.88 107.31 108.41 109.59 110.72 111.03 111.33 111.59 111.7 111.79 111.87 111.94 112.02 112.16 112.35 112.54 111.15 109.47 107.85 107.83 107.81 107.95 108.57 109.2 110.12 111.45 112.79 113.32 113.35 113.38 111.7 109.62 107.53 107.59 107.64 107.69 9999 9999 9999 9999 9999 107.71 107.99 108.28 108.84 109.49 110.14 110.46 110.76 111.03 111.16 111.28 111.41 111.54 111.68 111.66 111.52 111.38 111.83 112.47 113.11 112.66 112.15 111.73 111.81 111.88 111.97 112.08 112.2 112.56 113.13 113.69 113.58 113.22 112.86 112.65 112.45 112.32 112.67 113.02 113.24 113.19 113.14 113.25 113.5 113.76
108.5 108.47 108.38 108.29 108.38 108.69 108.99 108.66 108 107.33 107.2 9999 9999 9999 9999 9999 9999 107.2 107.22 107.37 107.52 108.16 109.12 110.07 111.11 112.16 113.2 113.28 113.35 113.33 112.92 112.5 111.92 111.1 110.28 110.42 111.22 112.01 113.1 114.27 115.42 115.18 114.9 114.63 114.41 114.19 114.14 114.36 114.59 115.23 116.2 117.16 117.04 116.55 116.04 115.94 115.86 115.86 116.39 116.93 117.26 117.13 117.01 115.58 112.96 110.37 108.86 107.76 106.65 106.31 106.04 105.79 105.81 105.83 105.85 105.88 105.91 105.93 105.95 105.96 106.2 106.53 106.87 108 109.24 110.41 110.89 111.37 111.87 112.43 112.98 113.29 113.33 113.37 113.41 113.45 113.49 111.98 110.2 108.51 108.12 107.75 107.56 107.9 108.25 108.91 109.97 111.03 111.48 111.58 111.68 110.44 108.91 107.41 107.74 108.05 108.36 108.7 109.03 109.23 109.25 109.27 109.24 109.2 109.16 109.45 109.84 110.23 110.58 110.93 111.25 111.42 111.59 111.68 111.64 111.6 111.44 111.18 110.93 111.47 112.23 113 112.53 112.02 111.62 111.77 111.92 112.1 112.33 112.55 112.81 113.12 113.44 113.33 113.08 112.82 112.51 112.19 111.95 112.11 112.28 112.36 112.23 112.11 112.18 112.4 112.62
108.79 109.01 109.26 109.51 110 110.79 111.56 111.31 110.52 109.73 108.98 108.26 107.59 9999 9999 9999 9999 107.1 107.1 107.2 107.31 107.79 108.5 109.23 110.14 111.1 112.06 112.55 113.03 113.3 112.77 112.25 111.49 110.37 109.26 109.3 110.12 110.95 112.29 113.77 115.25 115.15 115.02 114.87 114.6 114.33 114.15 114.15 114.15 114.78 115.89 116.98 117.19 117.12 117.04 117.07 117.11 117.18 117.44 117.7 117.72 117.31 116.89 115.03 111.93 108.82 107.44 106.67 105.89 105.75 105.66 105.59 105.67 105.75 105.81 105.82 105.84 105.83 105.81 105.78 105.94 106.18 106.43 107.6 108.88 110.1 110.76 111.41 112.17 113.19 114.19 114.7 114.71 114.72 114.65 114.54 114.44 112.8 110.94 109.15 108.41 107.67 107.16 107.22 107.3 107.7 108.47 109.25 109.64 109.82 109.99 109.2 108.23 107.3 107.89 108.47 109.05 109.64 110.22 110.62 110.79 110.95 110.77 110.39 110.03 110.05 110.18 110.31 110.71 111.11 111.46 111.68 111.9 111.95 111.73 111.52 111.21 110.84 110.48 111.11 112 112.89 112.4 111.89 111.51 111.74 111.97 112.24 112.57 112.9 113.07 113.13 113.2 113.13 113.01 112.88 112.45 112.02 111.64 111.56 111.5 111.38 111.12 110.87 110.89 111.13 111.37
109.09 109.56 110.15 110.74 111.64 112.9 114.15 113.95 113.04 112.12 110.74 109.31 107.96 9999 9999 9999 9999 107.05 107.05 107.15 107.25 107.56 108 108.44 109.11 109.83 110.57 111.54 112.5 113.08 112.42 111.77 110.82 109.46 108.11 107.96 108.58 109.21 110.67 112.33 113.98 114.11 114.24 114.32 114.26 114.19 114.02 113.71 113.4 114 115.23 116.46 116.86 117.01 117.15 117.08 117.01 116.99 117.24 117.48 117.45 116.91 116.39 114.48 111.47 108.45 107.23 106.6 105.97 105.85 105.77 105.7 105.72 105.75 105.77 105.79 105.81 105.81 105.79 105.77 105.9 106.09 106.29 107.37 108.53 109.67 110.65 111.61 112.54 113.42 114.31 114.83 114.98 115.12 115.06 114.91 114.75 113.48 112.05 110.63 109.66 108.69 107.88 107.49 107.12 107.19 107.74 108.3 108.81 109.28 109.74 109.05 108.18 107.4 108.04 108.68 109.37 110.17 110.97 111.57 111.9 112.23 111.99 111.42 110.85 110.65 110.52 110.42 110.82 111.23 111.62 111.95 112.26 112.28 111.91 111.53 111.08 110.59 110.1 110.79 111.78 112.78 112.27 111.76 111.41 111.71 112.02 112.38 112.82 113.26 113.32 113.13 112.95 112.92 112.94 112.95 112.4 111.84 111.32 111.01 110.72 110.39 110 109.62 109.6 109.86 110.12
109.36 110.07 111.01 111.94 113.26 115.02 116.75 116.59 115.55 114.51 112.48 110.33 108.33 107.9 107.47 107.15 107.07 107 107.01 107.1 107.2 107.33 9999 9999 9999 9999 109.09 110.54 111.97 112.87 112.07 111.27 110.13 108.54 106.95 106.62 107.04 107.47 109.06 110.89 112.7 113.08 113.46 113.78 113.92 114.06 113.88 113.26 112.64 113.22 114.58 115.95 116.53 116.9 117.27 117.09 116.91 116.81 117.04 117.27 117.17 116.52 115.87 113.93 111.01 108.08 107.03 106.54 106.05 105.95 105.88 105.81 105.78 105.75 105.74 105.76 105.78 105.79 105.77 105.75 105.86 106.01 106.16 107.14 108.17 109.25 110.54 111.83 112.91 113.54 114.19 114.66 114.97 115.26 115.21 115.02 114.83 114.12 113.33 112.5 111.38 110.27 109.22 108.32 107.43 107.18 107.58 107.98 108.83 109.86 110.87 109.96 108.78 107.73 108.16 108.6 109.17 110.1 111.03 111.76 112.26 112.75 112.59 112.09 111.59 111.23 110.9 110.61 110.89 111.17 111.55 112.21 112.86 113.05 112.67 112.28 111.8 111.25 110.71 111.09 111.68 112.27 111.57 110.86 110.38 110.69 111.01 111.44 112.04 112.63 112.72 112.46 112.21 112.26 112.4 112.52 112.2 111.85 111.5 111.18 110.86 110.47 110.01 109.54 109.47 109.71 109.95
109.19 109.93 111.01 112.08 113.27 114.57 115.89 115.72 114.9 114.07 112.62 111.06 109.55 108.66 107.79 107.14 107.06 106.97 106.96 107.03 107.1 107.19 107.28 9999 9999 9999 108.25 109.72 111.19 112.21 111.85 111.46 110.38 108.47 106.58 106.04 106.28 106.51 107.88 109.49 111.08 111.55 112.03 112.51 113.01 113.5 113.55 113.02 112.47 113.02 114.28 115.56 116.21 116.7 117.19 116.94 116.69 116.49 116.51 116.56 116.32 115.61 114.9 113.04 110.35 107.63 106.79 106.46 106.13 106.07 106.02 105.94 105.84 105.75 105.71 105.73 105.76 105.76 105.75 105.74 105.82 105.93 106.04 106.9 107.81 108.83 110.45 112.07 113.27 113.66 114.06 114.5 114.95 115.4 115.36 115.14 114.91 114.78 114.64 114.36 113.1 111.85 110.55 109.13 107.73 107.16 107.41 107.67 108.86 110.45 112.02 110.86 109.38 108.05 108.28 108.51 108.98 110.04 111.1 111.97 112.62 113.27 113.2 112.76 112.33 111.8 111.27 110.79 110.95 111.11 111.49 112.48 113.46 113.82 113.43 113.03 112.51 111.91 111.31 111.37 111.57 111.76 110.85 109.96 109.33 109.64 109.94 110.43 111.17 111.9 111.99 111.69 111.38 111.51 111.75 111.98 111.97 111.94 111.86 111.61 111.35 111 110.51 110.02 109.95 110.18 110.41
109.02 109.8 111.02 112.23 113.25 114.11 114.97 114.77 114.13 113.48 112.65 111.79 110.85 109.48 108.12 107.15 107.05 106.95 106.91 106.94 106.98 107.07 107.18 9999 9999 9999 9999 108.98 110.28 111.34 111.72 112.07 111.21 108.99 106.77 106.06 106.15 106.25 107.1 108.1 109.1 109.45 109.81 110.33 111.34 112.33 112.97 113.16 113.34 113.88 114.65 115.44 115.88 116.24 116.59 116.34 116.09 115.69 114.77 113.87 113.03 112.27 111.5 110.14 108.37 106.57 106.21 106.2 106.19 106.53 106.86 107.07 106.81 106.56 106.42 106.44 106.47 106.61 106.84 107.07 107.4 107.76 108.11 108.83 109.56 110.39 111.66 112.94 113.82 113.93 114.06 114.35 114.77 115.2 115.22 115.1 114.97 115.04 115.13 115.08 114.1 113.1 111.92 110.36 108.8 107.97 107.83 107.72 108.89 110.58 112.29 111.06 109.52 108.14 108.2 108.26 108.61 109.65 110.69 111.61 112.38 113.16 113.23 112.97 112.69 112.16 111.57 111.02 111.11 111.18 111.56 112.78 114.03 114.52 114.14 113.75 113.2 112.56 111.91 111.64 111.45 111.23 110.13 109.04 108.29 108.58 108.87 109.42 110.3 111.18 111.27 110.91 110.55 110.77 111.11 111.45 111.75 112.03 112.21 112.03 111.85 111.53 111.01 110.49 110.42 110.64 110.87
108.85 109.68 111.03 112.39 113.23 113.63 114.05 113.83 113.36 112.89 112.71 112.53 112.14 110.29 108.45 107.15 107.03 106.92 106.86 106.86 106.85 106.95 107.08 9999 9999 9999 107.11 108.23 109.36 110.49 111.61 112.7 112.04 109.49 106.95 106.08 106.02 105.97 106.3 106.7 107.11 107.35 107.6 108.17 109.68 111.17 112.41 113.33 114.23 114.72 115.01 115.31 115.54 115.77 115.98 115.74 115.49 114.87 113 111.15 109.75 108.92 108.09 107.27 106.41 105.53 105.63 105.96 106.27 107 107.72 108.2 107.78 107.38 107.15 107.18 107.22 107.54 108.05 108.55 109.21 109.9 110.58 111.17 111.77 112.4 113.19 113.98 114.43 114.25 114.09 114.2 114.51 114.84 114.95 114.98 115.01 115.04 115.07 115.03 114.57 114.1 113.33 111.98 110.63 109.61 108.89 108.18 108.87 110.09 111.32 110.24 108.97 107.83 107.77 9999 9999 108.5 109.14 109.79 110.44 111.09 111.37 111.47 111.56 111.57 111.56 111.56 111.9 112.24 112.65 113.26 113.9 114.07 113.71 113.34 112.84 112.26 111.69 111.48 111.33 111.13 110.13 109.13 108.44 108.65 108.87 109.39 110.27 111.16 111.25 110.89 110.54 110.61 110.78 110.96 111.26 111.56 111.81 111.85 111.88 111.79 111.53 111.25 111.21 111.33 111.45
108.98 109.35 110.24 111.14 111.89 112.49 113.09 113.22 113.19 113.14 113.14 113.14 112.94 111.39 109.82 108.61 108.16 107.72 107.48 107.4 107.33 107.36 107.43 9999 9999 107.25 107.24 108.33 109.42 110.57 111.86 113.17 112.55 109.95 107.34 106.34 106.09 105.84 105.84 105.88 105.92 106.03 106.15 106.67 108.3 109.94 111.5 112.92 114.35 114.96 115.11 115.23 115.25 115.27 115.28 114.92 114.58 113.72 111.14 108.55 106.69 105.8 104.9 104.56 104.55 104.54 105.07 105.72 106.37 107.48 108.58 109.32 108.75 108.18 107.88 107.92 107.97 108.48 109.27 110.05 111.03 112.05 113.05 113.51 113.98 114.41 114.7 115.01 115.03 114.56 114.11 114.04 114.25 114.47 114.67 114.87 115.06 115.04 115.01 115 115.07 115.12 114.74 113.61 112.47 111.23 109.92 108.63 108.84 109.58 110.33 109.44 108.42 107.51 107.33 9999 9999 9999 9999 9999 9999 109.02 109.52 109.98 110.44 111 111.56 112.11 112.71 113.3 113.71 113.73 113.76 113.62 113.27 112.93 112.48 111.97 111.46 111.31 111.22 111.06 110.2 109.34 108.75 108.9 109.05 109.54 110.43 111.31 111.41 111.1 110.79 110.66 110.56 110.49 110.65 110.82 111.02 111.34 111.64 111.89 112.06 112.22 112.23 112.18 112.13
109.09 109.01 109.39 109.79 110.44 111.29 112.13 112.68 113.11 113.54 113.64 113.73 113.64 112.59 111.52 110.51 109.66 108.82 108.35 108.21 108.08 108.03 108.01 108 107.9 107.78 107.83 109.02 110.22 111.36 112.41 113.46 112.77 110.38 107.97 106.9 106.39 105.89 105.87 105.91 105.95 105.99 106.04 106.37 107.44 108.52 109.73 111.06 112.4 113.5 114.47 115.41 115.11 114.62 114.12 113 111.91 110.67 108.92 107.14 105.94 105.45 104.95 104.71 104.62 104.53 104.93 105.43 105.96 107.18 108.41 109.26 108.88 108.5 108.38 108.6 108.83 109.5 110.46 111.42 112.31 113.19 114.07 114.37 114.68 114.94 114.99 115.05 114.9 114.42 113.95 113.8 113.89 113.98 114.15 114.34 114.54 114.61 114.68 114.77 114.99 115.23 115.1 114.32 113.53 112.41 111.03 109.63 109.62 110.06 110.49 109.41 108.28 107.31 107.01 9999 9999 9999 9999 9999 9999 9999 107.86 108.6 109.34 110.4 111.49 112.56 113.44 114.32 114.74 114.17 113.6 113.16 112.84 112.52 112.11 111.67 111.23 111.15 111.1 110.99 110.27 109.55 109.06 109.14 109.23 109.7 110.58 111.46 111.57 111.31 111.05 110.7 110.34 110.01 110.04 110.07 110.25 110.83 111.41 112 112.61 113.2 113.25 113.03 112.81
109.19 108.65 108.53 108.42 109.01 110.1 111.18 112.14 113.06 113.96 114.15 114.31 114.36 113.8 113.23 112.41 111.15 109.9 109.23 109.02 108.82 108.69 108.59 108.49 108.41 108.32 108.42 109.72 111.01 112.14 112.94 113.75 113 110.81 108.61 107.44 106.68 105.93 105.9 105.95 105.99 105.96 105.93 106.06 106.56 107.07 107.95 109.2 110.45 112.08 113.86 115.62 114.94 113.97 112.93 111.06 109.22 107.64 106.71 105.76 105.21 105.12 105.02 104.87 104.69 104.52 104.79 105.14 105.54 106.85 108.16 109.11 108.94 108.77 108.86 109.28 109.7 110.56 111.66 112.76 113.43 114.03 114.62 114.71 114.81 114.87 114.75 114.63 114.41 114.05 113.68 113.5 113.45 113.4 113.43 113.47 113.52 113.81 114.1 114.32 114.29 114.27 114.15 113.84 113.52 112.99 112.32 111.62 111.91 112.48 113.05 111.1 109.09 107.38 107.04 9999 9999 9999 9999 9999 9999 9999 9999 107.86 108.35 109.31 110.3 111.31 112.39 113.47 114.02 113.54 113.06 112.73 112.53 112.33 112.02 111.68 111.32 111.24 111.18 111.05 110.35 109.66 109.21 109.29 109.36 109.79 110.55 111.33 111.49 111.37 111.25 110.92 110.56 110.22 110.04 109.88 109.9 110.42 110.94 111.58 112.35 113.13 113.23 112.99 112.74
110.09 109.67 109.53 109.38 109.81 110.64 111.48 112.36 113.25 114.15 114.23 114.3 114.32 114.05 113.78 113.05 111.54 110.04 109.3 109.13 108.96 109.01 109.12 109.22 109.51 109.8 110.17 111.19 112.22 113.09 113.63 114.18 113.25 111.05 108.86 107.65 106.8 105.94 105.92 105.97 106.01 105.95 105.89 105.88 106 106.11 106.74 107.88 109.03 111.04 113.42 115.82 114.74 113.28 111.72 109.19 106.63 104.76 104.59 104.42 104.49 104.8 105.1 105.02 104.76 104.5 104.64 104.84 105.12 106.52 107.93 108.97 109.01 109.04 109.34 109.96 110.58 111.61 112.86 114.1 114.54 114.85 115.15 115.05 114.94 114.8 114.49 114.2 113.92 113.67 113.42 113.2 113.01 112.82 112.7 112.6 112.5 113.02 113.52 113.86 113.58 113.31 113.22 113.38 113.52 113.6 113.62 113.63 114.19 114.91 115.62 112.76 109.87 107.46 107.06 9999 9999 9999 9999 9999 9999 9999 9999 9999 107.34 108.21 109.11 110.06 111.34 112.62 113.31 112.91 112.51 112.3 112.23 112.16 111.96 111.72 111.47 111.37 111.28 111.12 110.44 109.75 109.32 109.4 109.49 109.84 110.45 111.07 111.3 111.36 111.42 111.26 111.07 110.85 110.46 110.08 109.87 110.06 110.25 110.66 111.29 111.93 112.03 111.88 111.73
111.1 110.89 110.84 110.79 111.06 111.56 112.07 112.77 113.52 114.28 114.17 114.06 113.97 113.88 113.78 113.06 111.36 109.65 108.88 108.79 108.69 109.09 109.63 110.16 111.15 112.14 113.02 113.43 113.87 114.25 114.51 114.78 113.51 110.99 108.47 107.31 106.61 105.91 105.91 105.96 106.01 106.03 106.05 106.18 106.53 106.87 107.67 108.88 110.1 111.85 113.82 115.81 114.27 112.4 110.52 108.37 106.21 104.68 104.6 104.52 104.54 104.68 104.82 104.75 104.59 104.42 104.56 104.73 104.98 105.96 106.96 107.74 107.94 108.13 108.65 109.53 110.41 111.55 112.81 114.09 114.61 115.01 115.37 115.14 114.91 114.66 114.32 113.99 113.72 113.54 113.36 112.96 112.43 111.93 111.67 111.47 111.29 111.96 112.63 113.1 112.86 112.61 112.62 113.01 113.41 113.88 114.39 114.91 115.7 116.57 117.42 113.93 110.44 107.55 9999 9999 9999 9999 9999 9999 9999 9999 9999 9999 106.35 107.11 107.91 108.82 110.3 111.78 112.6 112.29 111.97 111.87 111.93 111.99 111.9 111.76 111.61 111.5 111.39 111.2 110.52 109.84 109.42 109.52 109.61 109.9 110.35 110.8 111.11 111.36 111.6 111.6 111.57 111.48 110.88 110.28 109.83 109.69 109.55 109.73 110.23 110.73 110.84 110.78 110.72
112.12 112.11 112.15 112.19 112.31 112.48 112.66 113.18 113.78 114.39 114.1 113.82 113.62 113.71 113.79 113.07 111.17 109.26 108.47 108.45 108.42 109.18 110.15 111.11 112.81 114.51 115.85 115.66 115.49 115.39 115.38 115.38 113.76 110.91 108.07 106.98 106.43 105.88 105.9 105.95 106.01 106.11 106.22 106.48 107.06 107.64 108.59 109.88 111.17 112.65 114.21 115.79 113.78 111.51 109.32 107.57 105.8 104.6 104.6 104.61 104.59 104.56 104.53 104.47 104.4 104.33 104.48 104.66 104.86 105.34 105.84 106.29 106.61 106.93 107.64 108.78 109.9 111.08 112.3 113.51 114.22 114.86 115.43 115.1 114.78 114.48 114.21 113.93 113.73 113.61 113.48 112.75 111.72 110.7 110.31 110.04 109.81 110.55 111.29 111.91 112.15 112.38 112.6 112.81 113.03 113.38 113.8 114.23 114.99 115.83 116.59 113.43 110.25 107.72 9999 107.56 107.34 106.95 9999 9999 9999 9999 9999 106.89 107.14 107.84 108.55 109.33 110.47 111.62 112.25 112.02 111.78 111.73 111.8 111.88 111.81 111.69 111.57 111.48 111.39 111.24 110.77 110.29 110.01 110.09 110.18 110.39 110.71 111.03 111.39 111.77 112.14 112 111.84 111.64 111.08 110.51 110.01 109.65 109.3 109.32 109.69 110.06 110.18 110.19 110.2
112.72 112.8 112.8 112.79 112.85 112.93 113.01 113.47 113.99 114.5 114.13 113.76 113.49 113.58 113.68 112.95 111.04 109.13 108.31 9999 9999 108.93 109.96 111.01 113.19 115.37 117.07 116.77 116.45 116.19 116.01 115.84 113.97 110.87 107.77 106.75 106.32 105.89 105.92 105.96 106.03 106.19 106.35 106.73 107.52 108.31 109.44 110.84 112.22 113.44 114.61 115.78 113.3 110.62 108.13 106.78 105.41 104.52 104.61 104.71 104.64 104.43 104.23 104.2 104.22 104.24 104.4 104.58 104.73 104.71 104.71 104.85 105.29 105.73 106.64 108.02 109.4 110.62 111.77 112.93 113.84 114.72 115.48 115.06 114.65 114.3 114.09 113.88 113.74 113.67 113.6 112.53 110.98 109.45 108.95 108.61 108.34 109.14 109.94 110.73 111.45 112.17 112.57 112.61 112.65 112.88 113.21 113.54 114.27 115.09 115.78 112.93 110.07 107.91 108.14 108.36 108.17 107.46 106.75 9999 9999 9999 106.83 107.39 107.95 108.59 109.23 109.9 110.7 111.51 111.94 111.79 111.64 111.63 111.7 111.77 111.71 111.6 111.49 111.43 111.37 111.28 111.1 110.9 110.8 110.89 110.97 111.13 111.35 111.57 111.99 112.47 112.94 112.43 111.89 111.4 111.09 110.78 110.44 110.04 109.64 109.62 109.93 110.24 110.4 110.5 110.6
113.21 113.34 113.23 113.12 113.13 113.21 113.28 113.7 114.17 114.62 114.21 113.8 113.49 113.48 113.47 112.72 110.97 109.22 9999 9999 9999 9999 9999 109.64 111.9 114.16 115.99 116.18 116.37 116.4 116.23 116.06 114.1 110.92 107.74 106.77 106.38 105.98 106.02 106.07 106.12 106.21 106.3 106.65 107.46 108.26 109.6 111.35 113.09 114.25 115.25 116.25 113.33 110.26 107.49 106.37 105.24 104.53 104.63 104.73 104.66 104.46 104.26 104.23 104.26 104.3 104.48 104.67 104.82 104.67 104.52 104.53 104.86 105.2 105.94 107.07 108.21 109.23 110.2 111.18 112.16 113.14 114.02 113.9 113.77 113.69 113.76 113.82 113.81 113.76 113.71 112.42 110.57 108.71 108.12 107.7 107.37 108.13 108.89 109.72 110.73 111.75 112.27 112.2 112.14 112.28 112.54 112.79 113.53 114.35 115 112.45 109.89 108.08 108.62 109.14 108.99 107.97 106.93 9999 106.42 106.35 107.05 107.91 108.75 109.33 109.91 110.46 110.91 111.38 111.63 111.57 111.51 111.53 111.6 111.67 111.6 111.5 111.41 111.37 111.34 111.33 111.43 111.52 111.6 111.68 111.76 111.86 111.98 112.11 112.59 113.17 113.75 112.85 111.93 111.16 111.11 111.06 110.86 110.42 109.98 109.92 110.16 110.41 110.62 110.81 111
113.71 113.87 113.66 113.44 113.41 113.48 113.55 113.93 114.36 114.74 114.29 113.85 113.48 113.37 113.26 112.5 110.91 109.32 108.43 9999 9999 9999 9999 9999 110.61 112.95 114.92 115.62 116.3 116.62 116.45 116.28 114.22 110.97 107.71 106.79 106.43 9999 9999 9999 9999 9999 9999 106.58 107.39 108.2 109.77 111.87 113.96 115.06 115.88 116.71 113.34 109.88 106.86 105.98 105.09 104.55 104.65 104.74 104.68 104.51 104.33 104.32 104.35 104.38 104.59 104.82 104.98 104.82 104.66 104.6 104.77 104.95 105.36 106 106.65 107.31 107.99 108.68 109.59 110.53 111.41 111.84 112.24 112.68 113.22 113.75 113.96 113.87 113.79 112.47 110.62 108.76 108.15 107.69 107.31 107.88 108.45 109.1 109.92 110.76 111.19 111.19 111.18 111.33 111.56 111.79 112.68 113.67 114.43 112.05 109.67 108.08 108.8 109.51 109.61 108.95 108.28 108 107.94 107.87 108.58 109.43 110.25 110.57 110.89 111.17 111.28 111.4 111.38 111.16 110.95 111.04 111.31 111.57 111.63 111.63 111.64 111.7 111.76 111.81 111.87 111.94 112.02 112.13 112.23 112.26 112.25 112.24 112.74 113.38 114.02 113.03 112 111.18 111.3 111.41 111.3 110.81 110.33 110.29 110.59 110.88 111.08 111.25 111.43
113.98 113.91 113.36 112.83 112.66 112.67 112.68 113.15 113.7 114.18 114 113.8 113.58 113.3 113.03 112.23 110.79 109.35 108.46 9999 9999 9999 9999 9999 109.44 111.61 113.53 114.62 115.7 116.27 116.16 116.06 114.02 110.82 107.6 106.79 106.5 106.21 9999 9999 9999 9999 106.36 106.64 107.43 108.21 109.98 112.41 114.85 115.86 116.51 117.16 113.35 109.49 106.24 105.6 104.95 104.57 104.66 104.75 104.71 104.56 104.41 104.4 104.43 104.46 104.71 104.96 105.14 104.97 104.79 104.67 104.68 104.69 104.77 104.91 105.07 105.39 105.77 106.17 107.03 107.92 108.82 109.79 110.74 111.7 112.7 113.69 114.1 113.99 113.87 112.52 110.67 108.82 108.18 107.67 107.25 107.63 108 108.46 109.11 109.76 110.12 110.17 110.22 110.38 110.58 110.78 111.83 112.99 113.87 111.66 109.44 108.08 108.99 109.89 110.23 109.95 109.65 109.52 109.49 109.46 110.18 111.02 111.81 111.86 111.91 111.9 111.67 111.44 111.13 110.69 110.27 110.45 110.97 111.48 111.7 111.86 112.01 112.21 112.4 112.51 112.37 112.23 112.21 112.34 112.47 112.39 112.18 111.98 112.45 113.07 113.7 112.93 112.15 111.55 111.71 111.87 111.76 111.23 110.7 110.85 111.47 112.09 112.13 112.01 111.91
114.14 113.7 112.7 111.72 111.33 111.19 111.07 111.7 112.43 113.12 113.42 113.7 113.75 113.26 112.77 111.91 110.6 109.29 108.45 9999 9999 9999 9999 9999 9999 9999 111.42 112.59 113.75 114.4 114.42 114.43 112.69 109.96 107.22 106.7 106.62 106.54 106.96 9999 9999 108.11 108.45 108.9 109.5 110.1 111.45 113.29 115.14 115.77 116.12 116.47 112.69 108.91 105.79 105.3 104.81 104.54 104.61 104.68 104.66 104.58 104.5 104.49 104.51 104.52 104.73 104.94 105.1 104.97 104.84 104.75 104.7 104.66 104.6 104.53 104.46 104.58 104.76 104.95 105.59 106.27 107 108.06 109.13 110.29 111.62 112.94 113.62 113.74 113.84 112.58 110.8 109.02 108.42 107.9 107.47 107.73 107.99 108.3 108.74 109.19 109.44 109.5 109.56 109.67 109.81 109.95 111.1 112.37 113.33 111.29 109.24 108.09 109.18 110.27 110.87 110.95 111.02 111.04 111.05 111.05 111.78 112.61 113.37 113.14 112.93 112.62 112.04 111.47 110.87 110.22 109.58 109.87 110.64 111.41 111.78 112.09 112.39 112.72 113.05 113.21 112.86 112.51 112.39 112.55 112.7 112.51 112.11 111.72 112.16 112.77 113.36 112.84 112.31 111.93 112.13 112.33 112.21 111.64 111.06 111.41 112.36 113.3 113.17 112.77 112.38
114.3 113.48 112.03 110.6 109.99 109.72 109.45 110.26 111.17 112.07 112.84 113.6 113.92 113.21 112.51 111.59 110.42 109.25 108.45 107.82 9999 106.95 9999 9999 9999 9999 9999 110.56 111.8 112.54 112.68 112.81 111.38 109.12 106.85 106.61 106.73 106.88 107.62 108.35 109.08 109.82 110.56 111.14 111.56 111.98 112.91 114.14 115.39 115.64 115.68 115.66 111.99 108.31 105.35 105.02 104.68 104.5 104.54 104.58 104.6 104.6 104.6 104.59 104.58 104.58 104.71 104.85 104.95 104.91 104.86 104.82 104.8 104.77 104.73 104.67 104.61 104.69 104.82 104.95 105.28 105.62 106.02 106.69 107.37 108.31 109.7 111.08 112.13 112.89 113.62 112.67 111.13 109.59 109.16 108.79 108.53 109.01 109.48 109.91 110.27 110.63 110.79 110.78 110.78 110.81 110.87 110.92 111.74 112.64 113.29 111.84 110.37 109.47 109.9 110.36 110.69 110.88 111.07 111.14 111.16 111.18 111.74 112.37 112.96 112.9 112.84 112.66 112.17 111.68 111.16 110.62 110.08 110.3 110.93 111.56 112.04 112.5 112.93 113.05 113.19 113.12 112.42 111.74 111.48 111.71 111.95 111.82 111.48 111.13 111.52 112.06 112.58 112.3 112.01 111.84 112.09 112.34 112.28 111.8 111.3 111.82 112.98 114.14 113.87 113.27 112.66
114.18 113.34 111.96 110.57 109.9 109.51 109.12 109.78 110.55 111.35 112.27 113.19 113.59 112.77 111.96 111.04 110.03 109.01 108.32 107.76 107.19 106.9 106.64 9999 9999 9999 9999 9999 110.02 110.77 111 111.23 110.15 108.39 106.62 106.65 106.96 107.31 108.33 109.36 110.42 111.55 112.67 113.39 113.62 113.86 114.35 114.98 115.64 115.51 115.23 114.85 111.29 107.72 104.92 104.74 104.56 104.46 104.47 9999 9999 9999 104.69 104.69 104.66 104.63 104.69 104.75 104.81 104.85 104.88 104.9 104.89 104.89 104.85 104.8 104.75 104.8 104.88 104.95 104.95 104.96 105.03 105.31 105.6 106.33 107.78 109.23 110.66 112.05 113.42 112.76 111.47 110.17 109.9 109.68 109.6 110.3 110.99 111.52 111.79 112.06 112.14 112.07 112 111.96 111.93 111.9 112.38 112.91 113.27 112.41 111.52 110.84 110.61 110.41 110.46 110.73 111 111.07 111.07 111.07 111.4 111.77 112.12 112.3 112.47 112.51 112.23 111.95 111.67 111.39 111.1 111.21 111.51 111.83 112.41 113.02 113.56 113.24 112.93 112.39 111.17 109.97 109.48 109.77 110.07 110.16 110.14 110.1 110.39 110.74 111.07 110.96 110.84 110.81 111.04 111.27 111.36 111.26 111.15 111.66 112.56 113.46 113.11 112.51 111.9
113.88 113.27 112.35 111.42 110.86 110.43 110.01 110.27 110.6 110.98 111.67 112.35 112.57 111.77 110.96 110.14 109.3 9999 9999 9999 9999 9999 9999 9999 9999 9999 9999 9999 9999 109.43 109.65 109.86 109.33 108.45 107.55 107.96 108.54 109.13 109.93 110.73 111.53 112.29 113.07 113.43 113.32 113.22 113.35 113.61 113.88 113.48 112.98 112.38 109.67 106.94 104.82 104.68 104.54 104.46 104.46 9999 9999 9999 9999 9999 9999 9999 9999 104.67 104.71 104.76 104.82 104.86 104.89 104.92 104.89 104.84 104.79 104.82 104.88 104.93 104.76 104.59 104.45 104.45 104.45 104.96 106.29 107.63 109.32 111.25 113.17 112.81 111.8 110.77 110.59 110.45 110.48 111.33 112.19 112.84 113.09 113.33 113.37 113.27 113.16 113.07 112.98 112.87 113 113.16 113.26 112.99 112.7 112.19 111.3 110.44 110.23 110.58 110.92 111 110.98 110.97 111.05 111.15 111.29 111.7 112.11 112.36 112.3 112.23 112.18 112.17 112.14 112.11 112.09 112.08 112.78 113.55 114.17 113.41 112.66 111.63 109.9 108.19 107.48 107.84 108.2 108.52 108.8 109.08 109.25 109.41 109.57 109.62 109.68 109.77 109.99 110.21 110.46 110.74 111.01 111.5 112.12 112.76 112.36 111.76 111.13
113.58 113.22 112.76 112.29 111.82 111.35 110.89 110.75 110.63 110.61 111.06 111.51 111.55 110.76 109.97 9999 9999 9999 9999 9999 9999 9999 9999 9999 9999 9999 9999 9999 9999 108.1 108.29 108.48 108.55 108.54 108.51 109.27 110.12 110.94 111.52 112.1 112.63 113.01 113.41 113.38 112.88 112.4 112.14 111.99 111.86 111.18 110.43 109.62 107.9 106.15 104.8 104.68 104.56 104.49 104.47 9999 9999 9999 9999 9999 9999 9999 9999 9999 9999 104.66 104.69 104.74 104.8 104.87 104.84 104.77 104.7 104.75 104.81 104.88 104.77 104.67 104.58 104.54 104.5 104.83 105.71 106.61 108.3 110.52 112.73 112.69 112.06 111.42 111 110.58 110.33 110.82 111.32 111.83 112.33 112.82 113 112.95 112.89 112.8 112.71 112.62 112.64 112.66 112.68 112.63 112.57 112.36 111.87 111.37 111.27 111.52 111.77 111.26 110.49 109.76 109.69 109.67 109.71 110.15 110.59 110.92 111.03 111.14 111.33 111.59 111.85 111.95 111.98 112 112.64 113.36 113.91 112.91 111.92 110.71 108.99 107.24 106.45 106.66 106.88 107.23 107.63 108.05 108.11 108.13 108.16 108.32 108.49 108.67 108.87 109.07 109.44 110.03 110.61 111.08 111.48 111.89 111.48 110.93 110.3
