9999 9999 9999 9999 9999 9999 9999 9999 9999 9999 9999 9999 9999 9999 9999 9999 9999 9999 9999 9999 9999 9999 9999 9999 9999 9999 9999 9999 9999 9999 9999 9999 9999 9999 9999 9999 9999 9999 9999 9999 9999 9999 9999 9999 9999 9999 9999 9999 9999 9999 9999 9999 9999 9999 9999 9999 9999 9999 9999 9999 9999 9999 9999 9999 9999 9999 9999 9999 9999 9999 9999 9999 9999 9999 9999 9999 9999 9999 9999 9999 9999 9999 9999 9999 9999 9999 9999 9999 9999 9999 9999 9999 9999 9999 9999 9999 9999 9999 9999 9999 9999 9999 9999 9999 9999 447.24 454.73 463.58 467.29 468.69 469.29 480.53 483.26 483.47 480.49 480.98 483.31 489.11 494.78 502.47 507.77 513.89 516.31 514.53 513.93 514.43 517.34 521.65 526.19 529.75 534.46 542.62 549.5 555.48 561.48 566.85 571.15 575.62 582.86 587.73 593.16 601.3 605.48 611.33 617.04 621.54 626.08 629.72 634 637.84 641.14 645.11 648.51 652.11 656.04 659.47 663.88 666.04 668.88 670.73 673.93 680.24 683.09 686.41 685.92 685.4 685.5 685.83 686 686.53 687.49 689.94 691.74 694.18 696.36 698.57 701.33 702.62 705.09 705.44 706.55 707.45 707.67 708.29 708.72 708.2 707.17 706.62 705.83 704.69 703.81 701.87 700.49 698.1 696.46 694.79 693.03 691.18 689.75 688.05 685.35 683.17 680.4 678.53 675.86 673.79 672.16 669.38 667.63 666.33 664.92 664.54 663.14 661.43 660.01 658.86 657.81 658.85 660.37 662.25 665 668.33 671.25 675.53 679.15 682.18 685.55 688.98 691.85 694.51 697.77 700.6 702.88 706.08 709.04 711.23 713.2 714.16 715.02 716.04 715.57 716.34 716.05 715.62 715.14 713.79 712.27 709.76 707.77 707.12 704.09 701.5 699.28 695.63 692.69 690.27 687.28 683.01 679.5 677.36 672.16 668.4 665.34 662.22 658.32 656.17 651.97 647.94 643.1 639.71 635.76 632.65 629.12 625.94 621.09 616.81 613.57 609.97 607.9 605.29 603.1 601.2 597.13 594.7 592.79 591.37 588.59 587.12 585.6 585.05 587.56 589.14 590.17 591.76 592.13 593.76 595.27 595.95 597.68 598.73 600.73 603.14 604.65 605.9 608.14 610.12 612.1 613.43 616.54 619.09 621.83 625.8 629.2 633.51 637.21 639.94 642.87 645.58 648.65 653.5 657.25 660.74 663.11 665.6 667.8 670.24 673.45 675.89 678.21 680.26 681.67 683.44 685.49 687.83 689.89 691.9 693.26 694.71 697.32 699.39 701.74 704.54 706.8 710.08 712.17 715.29 718.39 720.84 723.51 726.5 730.41 733.21 736.94 739.2 742.47 745.13 747.82 750.12 754.03 756.9 760.45 768.24 774.06 777 778.2 778.42 780.34 779.8 776.96 769.96 764.65 762.84 760.39 756.59 753.58 750.25 746.34 742.38 738.7 734.78 729.36 725.12 721.22 716.55 712.79 707.87 703.78 699.32 694.75 690.99 687.73 683.33 679.07 675.65 672.39 667.31 663.14 658.77 654.68 651.25 647.89 644.59 643.71 640.62 639.51 640.18 640.79 639.93 640 640.19 640.14 640.18 640.42 640.73 643.35 643.33 643.15 643.12 644.81 644.96 645.04 648.88 649.4 648.68 648.04 644.52 642.58 640.72 642.03 641.71 640.13 639.72 637.05 636.45 635.13 636.55 636.15 635.29 635.29 635.56 637.23 640.21 642.97 646.14 649.58 653.07
9999 9999 9999 9999 9999 9999 9999 9999 9999 9999 9999 9999 9999 9999 9999 9999 9999 9999 9999 9999 9999 9999 9999 9999 9999 9999 9999 9999 9999 9999 9999 9999 9999 9999 9999 9999 9999 9999 9999 9999 9999 9999 9999 9999 9999 9999 9999 9999 9999 9999 9999 9999 9999 9999 9999 9999 9999 9999 9999 9999 9999 9999 9999 9999 9999 9999 9999 9999 9999 9999 9999 9999 9999 9999 9999 9999 9999 9999 9999 9999 9999 9999 9999 9999 9999 9999 9999 9999 9999 9999 9999 9999 9999 9999 9999 9999 9999 9999 9999 9999 9999 9999 9999 9999 9999 9999 449.87 455.9 456.97 461.83 471.39 480.79 484.18 483.83 481.88 480.65 480.82 486.86 493.65 499.7 505.58 512.1 515.59 516.81 517.74 516.53 517.39 522.24 526.34 530.24 535.06 9999 9999 553.55 559.83 564.9 569.25 573.21 579.2 584.28 591.74 598 603.06 608.12 613.71 618.28 622.31 628.97 632.6 637.19 640.45 644.42 647.76 651.45 654.38 658.97 661.87 665.95 668.1 670.26 672.5 675.87 681.76 683.92 687.84 687.37 686.93 687.06 687.26 687.5 688.14 688.85 690.52 692.91 695.34 697.04 699.27 701.87 702.95 704.65 705.47 706.37 707.31 706.63 707.02 706.89 706.99 706.13 705.56 704.61 702.19 702.06 698.96 697.36 695.54 694.12 692.39 690.34 689.4 686.76 684.65 682.79 681.23 678.61 676.67 675.09 673.05 670.97 669.96 668.11 666.84 665.96 664.48 663.82 662.16 660.22 660.34 660.48 661.56 663.19 666.27 669.32 673.45 677.18 680.03 683.51 685.58 689.05 692.25 696.08 698.84 700.97 703.15 706.94 709.52 711.42 713.16 714.49 715.28 716.12 716.09 715.75 715.68 715.15 714.15 712.88 711.37 710.05 708.1 706.39 703.39 699.64 696 694.87 692.15 689.36 685.6 682.59 679.14 674.48 672.01 668.86 665.48 661.79 658.8 655.44 651.03 647.15 643.93 639.89 636.5 633.48 630.2 626.56 622.1 618.98 615.67 611.85 609.43 606.58 604.78 600.57 599.43 597.27 595.55 592.92 590.63 588.84 587.18 585.08 586.74 587.92 589.28 589.93 590.85 592.32 594.16 594.89 596.58 598.5 600.05 601.66 602.4 604.29 605.73 607.71 609.62 612.4 614.74 617.49 620.66 626.01 627.73 630.31 635.24 637.69 640.88 644.17 647.06 652.16 655.19 657.89 661.51 664.24 666.46 668.09 672.28 674.06 675.89 678.58 680.98 682.2 684.08 685.94 687.8 689.81 692.63 694.86 696.59 699.78 702.11 705.87 708.48 711.47 713.28 715.92 719.45 722.03 724.95 728.19 731.44 734.13 736.98 739.9 742.94 746.24 749.71 751.87 754.24 756.87 762.49 769.96 774.72 777.1 777.84 780.53 781.96 781.52 776.09 770.91 767.39 762.38 760.65 758.13 754.5 750.85 747.11 743.11 738.92 733.94 729.5 725.39 721.72 717.22 714 709.49 704.69 700.54 695.22 692.66 689.35 685.15 680.77 676.77 672.05 668.22 664.8 660.22 656.49 651.91 648.5 645.04 641.07 638.16 637.33 636.85 636.8 635.85 635.17 637.04 636.86 637.36 637.05 636.96 636.31 636.66 635.09 637.93 639.05 640.1 639.86 640.84 640.26 639.69 639.76 638.62 638.71 637.9 637.85 636.71 635.81 635.49 634.35 632.82 632.5 631.87 631.77 628.29 631.28 633.31 635.5 639.14 641.13 645.54 649.27 653.19
9999 9999 9999 9999 9999 9999 9999 9999 9999 9999 9999 9999 9999 9999 9999 9999 9999 9999 9999 9999 9999 9999 9999 9999 9999 9999 9999 9999 9999 9999 9999 9999 9999 9999 9999 9999 9999 9999 9999 9999 9999 9999 9999 9999 9999 9999 9999 9999 9999 9999 9999 9999 9999 9999 9999 9999 9999 9999 9999 9999 9999 9999 9999 9999 9999 9999 9999 9999 9999 9999 9999 9999 9999 9999 9999 9999 9999 9999 9999 9999 9999 9999 9999 9999 9999 9999 9999 9999 9999 9999 9999 9999 9999 9999 9999 9999 9999 9999 9999 9999 9999 9999 9999 9999 9999 9999 9999 448.5 9999 465 470.31 476.71 482.17 484.78 484.56 481.7 481.49 485.49 490.09 494.39 500.53 505.99 512.71 515.54 517.71 516.68 517.54 519.89 523.17 527.91 9999 537.24 544.63 550.54 555.35 561.82 566.25 571.76 578.03 583.75 587.99 592.75 597.57 602.87 607.93 615.06 622.13 626.85 631.67 635.55 639.73 643.78 647.76 651.89 655.16 658.83 661.45 664.27 666.92 669.36 671.53 674.73 677.76 681.86 684.47 689.4 691.16 688.95 689.06 688.48 688.92 689.17 689.88 692.12 693.94 696.07 699.15 699.51 700.94 702.55 703.5 704.35 704.54 706.19 706.69 706.76 706.32 705.99 704.48 703.73 702.41 700.89 698.98 697.26 695.29 693.18 692.04 690.01 688.22 686.25 684.41 682.91 681.06 679.87 677.38 675.16 673.63 672.51 671.28 670.2 669.45 668.96 667.66 665.04 663.77 662.17 662.35 662.82 663.59 665.46 668.01 671.15 674.6 678.08 680.68 683.93 686.58 690.69 693.67 696.95 699.66 701.68 704.34 706.71 709.38 711.63 713.01 714.41 715.06 714.92 715.13 715.69 715.03 714.98 713.79 712.23 710.92 709.15 706.43 704.74 702.7 699.69 695.83 693.23 690.38 687.93 684.68 681.51 677.52 675.03 670.79 667.74 664.89 661.02 658.8 654.29 651.17 647.42 643.86 640.5 637.27 634.05 630.98 626.44 623.03 619.81 616.79 614.23 611.75 608.83 605.32 603.09 600.48 598.97 597.04 595.18 592.46 591.05 588.52 586.49 586.79 588.54 589.05 589.97 590.13 591.84 592.37 594.44 595.99 596.62 598.87 599.66 601.12 602.63 604.73 606.55 608.47 611.07 613.94 616.34 620.54 623.22 626.15 628.7 631.9 635.21 638.39 643.9 647.07 650.13 653.41 656.67 659.31 661.51 663.83 668.41 670.52 672.31 674.26 676.48 678.34 680.08 683.49 684.91 687.27 689.89 692.31 695.05 696.94 698.8 703.5 707.17 709.56 712.84 715.22 718.06 720.62 724.31 727.09 729.46 732.95 734.89 738.05 741.57 743.66 747.87 750.62 752.42 755.52 759.56 766.83 771.11 776.13 778.65 779.36 779.98 780.67 778.64 774.99 771.81 767.47 763.18 761.18 758.6 756.14 751.98 747.61 742.07 739.06 734.51 730.53 726.44 722.84 718.95 714.81 710.36 706.66 702 698.41 696.27 692.49 688.4 682.76 678.21 673.4 669.93 666.95 663.86 657.53 653.54 648.03 644.49 642.02 639.17 635.98 633.34 632.92 633.11 632.61 632.62 632.34 632.49 633.95 632.61 633.18 632.21 632.11 631.89 632.18 632.49 635.22 636.17 635.66 634.77 634.76 635.42 634.62 635.75 634.52 634.08 632.18 631.44 630.17 629.03 629.66 629.33 628.29 624.95 627.42 629.97 634.39 637.56 641.5 645.43 649.58 655.02
9999 9999 9999 9999 9999 9999 9999 9999 9999 9999 9999 9999 9999 9999 9999 9999 9999 9999 9999 9999 9999 9999 9999 9999 9999 9999 9999 9999 9999 9999 9999 9999 9999 9999 9999 9999 9999 9999 9999 9999 9999 9999 9999 9999 9999 9999 9999 9999 9999 9999 9999 9999 9999 9999 9999 9999 9999 9999 9999 9999 9999 9999 9999 9999 9999 9999 9999 9999 9999 9999 9999 9999 9999 9999 9999 9999 9999 9999 9999 9999 9999 9999 9999 9999 9999 9999 9999 9999 9999 9999 9999 9999 9999 9999 9999 9999 9999 9999 9999 9999 9999 9999 9999 9999 9999 9999 9999 9999 454.19 463.8 467.67 472.85 477.24 482.92 484.31 483.77 483.45 484.82 487.95 491.03 496.42 500.73 506.62 509.88 513.22 516.14 517.19 519.06 521.49 525.05 529.34 533.31 540.6 547.42 554.02 559.25 564.32 569.44 573.29 578.84 585.59 589.8 595.07 600.14 606.03 613.73 618.72 623.26 629.75 634.88 639.11 642.33 648.08 652.08 655.02 658.42 660.05 663.47 666.11 668.34 670.71 672.87 675.57 680.09 682.77 686.44 692.88 692.57 691.81 691.1 690.63 689.9 690.82 691.92 694.22 695.57 696.2 697.28 699.43 700.61 701.6 702.76 704.06 704.83 704.62 705.25 705.11 704.58 704.45 702.83 701.35 699.41 697.48 696.61 694.7 692.46 691.28 689.34 687.48 686.1 684.17 683.21 681.32 680.37 677.94 677.12 675.19 674.49 673.2 671.41 671.25 669.51 668.54 667.17 666.25 664.95 663.96 663.34 665.14 667.82 669.59 672.72 675.75 678.9 680.92 684.43 687.65 691.59 694.59 697.95 700.35 702.37 704.7 707.32 709.16 711.23 712.79 713.85 714.3 715.1 715.49 715.32 714.31 714 712.82 710.77 710.41 708.48 706.6 703.57 701.31 699.05 695.38 692.38 690.41 686.55 682.77 679.61 677.24 674.19 671.42 667.77 665.17 661.62 657.43 653.44 650.88 647.63 644.71 641.01 638.03 633.74 631.19 627.37 624.86 621.77 618.26 615.9 613 610.01 607.64 604.66 603.11 600.45 598.36 596.65 593.8 591.45 589.61 588.35 587.59 588.71 589.53 590.17 590.68 591.68 592.59 593.33 594.53 595.52 597 598.95 599.68 601.33 602.91 604.69 607.66 609.73 612.52 615.13 617.42 619.76 622.76 626.83 630.85 633.51 637.82 641.27 644.37 647.95 651.77 654.63 656.61 660.46 662.85 664.6 667.39 669.82 672.68 674.25 676.28 679.9 681.98 684.98 687.51 689.61 691.89 695.4 697.95 701.68 705.77 709.45 711.69 714.37 716.58 719.45 722.58 725.21 728.06 730.93 733.56 736.41 739.55 742.25 746.67 749.42 752.36 753.95 755.95 761.4 768.78 774.07 776.05 778.19 779.1 780.01 781.21 778.76 775.03 771.94 769.29 765.6 761.51 759.01 756.75 752.92 748.35 744.23 740.04 734.55 730.39 727.13 723.65 720.72 715.85 712.72 708.43 703.9 701.52 697.38 694.47 690.02 686.68 681.96 676.14 672.65 669.79 665.46 660.8 654.71 651.17 646 641.69 638.41 636.3 633.18 629.84 627.48 630.7 629.69 629.6 629.41 629.47 628.72 628.05 629.41 629.71 627.91 627.95 628.04 628.67 630.09 630.29 631.86 631.98 632.59 632.24 631.67 630.64 630.03 629.63 628.75 628.07 627.24 625.44 624.01 621.6 622.78 627.38 629.72 633.44 636.72 640.32 646.17 653.42 659.17
9999 9999 9999 9999 9999 9999 9999 9999 9999 9999 9999 9999 9999 9999 9999 9999 9999 9999 9999 9999 9999 9999 9999 9999 9999 9999 9999 9999 9999 9999 9999 9999 9999 9999 9999 9999 9999 9999 9999 9999 9999 9999 9999 9999 9999 9999 9999 9999 9999 9999 9999 9999 9999 9999 9999 9999 9999 9999 9999 9999 9999 9999 9999 9999 9999 9999 9999 9999 9999 9999 9999 9999 9999 9999 9999 9999 9999 9999 9999 9999 9999 9999 9999 9999 9999 9999 9999 9999 9999 9999 9999 9999 9999 9999 9999 9999 9999 9999 9999 9999 9999 9999 9999 9999 9999 9999 9999 9999 450.99 459.73 463.71 469.12 474.32 479.44 485.01 484.27 484 484.51 485.2 487.56 491.96 496.54 500.54 505.48 507.85 511.5 514.35 517.38 520.38 523.16 525.85 529.86 534.51 539.84 546.96 552.97 561.66 566.15 570.2 575.05 581.68 587.27 592.96 600.75 606.07 611.55 616.34 622.4 627.67 633.08 638.21 643.29 648.32 651.41 655.37 657.56 660.43 662.77 666.22 668.02 669.47 671.9 674.81 677.62 682.14 684.63 693.13 695.09 694.39 693.01 692.33 692.53 692.66 693.28 693.32 694.2 694.73 694.97 695.43 696.63 697.91 701.09 702.34 702.66 704.03 704.24 704.16 703.68 702.93 701.98 700.18 698.99 697.39 696.12 694.4 691.81 690.36 688.71 687.84 686 684.46 683.96 681.21 680.97 678.68 677.89 676.42 675.22 674.29 673.69 672.25 671.27 669.29 668.7 667.32 666.59 665.87 665.91 667.18 668.83 671.16 673.99 676.12 680.08 682.7 686.33 689.99 692.38 695.41 698.07 700.57 703.54 705.09 708.15 710.1 711.55 712.91 713.91 714.71 714.9 714.95 714.06 714.2 713.21 712 711.33 709.39 707.2 704.73 703.82 701.21 697.65 694.75 692.2 689.8 685.54 683.09 680.03 677.53 674.52 671.05 668.01 664.23 660.19 657.32 654.13 650.64 647.41 643.88 641.96 637.56 634.84 631.19 628.27 625.48 622.54 620.17 616.6 614.17 611.22 608.96 606.51 604.89 602.95 600.96 598.41 595.2 592.32 590.64 589.9 589.65 590.3 590.43 590.53 590.6 592.31 593.11 592.94 593.62 594.48 596.6 598.15 598.71 599.51 601.38 603.4 604.84 608.35 609.58 612.75 615.36 618.8 621.1 624.4 627.8 631.97 636.39 639.38 642.84 645.93 648.88 651.13 653.9 656.42 660.52 662.24 665.33 668.03 670.2 673.11 676.29 679.77 682 685.11 687.92 690.04 692.37 696.78 698.98 703.07 706.49 710.28 713.09 714.79 717.42 720.93 723.44 726.22 729.01 732.04 735.31 738.06 742.64 745.03 747.68 750.97 753.64 756.12 759.02 764.45 771.39 773.85 775.99 778 778.73 781.12 780.9 777 775.57 772.84 769.17 766.82 764.07 760.24 758.04 752.06 748.46 745.02 740.24 736.73 732.26 727.71 723.7 719.67 717.06 713.09 709.84 706.87 702.88 698.38 694.29 691.14 688.17 684.99 679.78 675.81 672.52 667.34 662.1 657.92 653.21 648.91 644.54 640.03 636.23 633.01 630.29 627.62 625.61 625.78 625.32 626.42 625.74 625.63 625.34 625.31 625.26 624.51 625.99 625.72 626.22 626.9 627.13 628.49 628.41 628.42 630.09 629.7 628.79 628.3 627.34 625.62 624.68 624.6 623.06 620.18 619.34 622.7 625.59 629.29 632.95 635.89 643.19 651.91 660.12 666.04
9999 9999 9999 9999 9999 9999 9999 9999 9999 9999 9999 9999 9999 9999 9999 9999 9999 9999 9999 9999 9999 9999 9999 9999 9999 9999 9999 9999 9999 9999 9999 9999 9999 9999 9999 9999 9999 9999 9999 9999 9999 9999 9999 9999 9999 9999 9999 9999 9999 9999 9999 9999 9999 9999 9999 9999 9999 9999 9999 9999 9999 9999 9999 9999 9999 9999 9999 9999 9999 9999 9999 9999 9999 9999 9999 9999 9999 9999 9999 9999 9999 9999 9999 9999 9999 9999 9999 9999 9999 9999 9999 9999 9999 9999 9999 9999 9999 9999 9999 9999 9999 9999 9999 9999 9999 9999 9999 9999 444.86 455.94 461.94 468.83 473.26 478.22 482.58 484.14 484.51 484.01 484.2 485.24 487.49 489.8 494.31 497.8 504.13 508.08 511.6 515.33 516.86 518.21 520.97 527.06 532.01 537.18 541.97 549.57 555.22 561.19 567.13 571.71 577.32 584.59 593.58 598.99 603.82 608.98 615.89 622.15 627.99 632.3 638.98 642.48 646.86 650.79 654.55 658.18 660.73 664.09 666.52 668.19 670.1 672.81 675.55 678.08 682.84 685.14 687.77 689.84 693.89 696.78 695.62 694.72 694.19 693.97 693.92 693.44 693.14 693.76 693.29 694.94 696.39 697.83 699.18 700.83 702.03 703.28 703.78 702.64 701.68 700.96 699.74 698.05 697.02 695.4 692.91 691.17 689.51 688.76 687.1 685.7 684.4 682.94 682.05 680.74 680.03 678.73 678.06 676.09 675.21 674.23 673.02 672.3 671.55 669.6 669 667.58 667.65 667.1 668.26 670.37 672.62 675.42 677.78 680.75 684.31 687.08 689.84 693.38 696.67 699.41 701.63 704.24 706.6 708.54 710.11 711.96 712.83 713.67 714.54 714.3 714.62 713.97 713.4 712.75 711.97 710.34 708.25 706.12 704.13 702.63 699.8 697.55 694.07 691.66 687.42 684.35 682.05 679.12 676.27 673.31 670.48 666.14 663.59 659.69 657.82 654.14 651.18 647.76 644.62 641.06 638.1 635.06 632.08 629.08 626.86 623.77 619.34 617.73 615.3 613.22 610.86 608.83 606.42 604.59 601.41 599.93 596.78 594.13 592.1 590.95 590.29 590.37 590.24 591.42 591.77 593.3 592.8 593.34 594.4 595.65 595.96 596.85 598.38 599.02 599.97 602.08 604.66 606.52 607.35 610.37 613.13 615.91 619.94 623.02 626.67 630.19 633.53 636.38 639.28 644.41 646.85 649.88 651.88 653.79 657.58 660.05 663.1 666.41 670.27 673.72 676.26 678.84 681.84 685.14 688.03 690.65 693.78 698.04 701.09 704.64 707.99 710.97 714.44 716.71 719.37 722.03 725.02 727.08 731.07 733.6 737.3 742.19 745.42 747.63 751.27 753.76 755.99 757.52 762 766.92 770.75 774.05 775.91 777.87 779.33 779.5 779.88 777.89 775.68 774.01 770.73 768.27 764.83 760.94 758.01 754.02 749.64 745.82 742.05 738.19 733.94 728.36 724.25 719.98 716.97 713.87 710.73 707.85 702.82 699.67 695.82 692.76 688.91 685.88 681.84 677.87 672.86 669.5 664.88 661.26 654.43 650.75 646.03 641.04 637.82 634.93 631.49 628.45 625.19 623.87 623.14 622.35 622.79 620.94 623.49 622.21 622.17 622.21 622.3 622.36 622.51 624.24 625.1 625.99 625.82 626.93 626.41 626.8 625.69 626.25 625.1 623.49 622.62 620.9 619.09 616.7 618.13 621.84 624.43 628.5 632.12 639.46 648.63 655.5 663.09 668.99
9999 9999 9999 9999 9999 9999 9999 9999 9999 9999 9999 9999 9999 9999 9999 9999 9999 9999 9999 9999 9999 9999 9999 9999 9999 9999 9999 9999 9999 9999 9999 9999 9999 9999 9999 9999 9999 9999 9999 9999 9999 9999 9999 9999 9999 9999 9999 9999 9999 9999 9999 9999 9999 9999 9999 9999 9999 9999 9999 9999 9999 9999 9999 9999 9999 9999 9999 9999 9999 9999 9999 9999 9999 9999 9999 9999 9999 9999 9999 9999 9999 9999 9999 9999 9999 9999 9999 9999 9999 9999 9999 9999 9999 9999 9999 9999 9999 9999 9999 9999 9999 9999 9999 9999 9999 9999 9999 9999 9999 444.67 452.1 464.84 470.4 475.23 479.59 482.75 485.09 484.85 484.28 483.97 485.33 487.4 491.57 494.41 498.42 502.09 507.67 512.96 514.79 516.03 518.23 523.74 528.57 535.42 541.19 546.68 551.83 557.4 563.07 570.13 574.04 584.78 591.21 596.58 602.54 607.29 613.68 620.84 627.36 632.53 637.36 641.57 645.49 649.61 653.29 657.35 661.2 664.35 666.6 668.91 671.01 673.31 676.24 680.13 682.66 685.17 686.98 688.9 690.85 695.45 697.71 697.28 698.65 695.6 694.94 693.62 692.02 690.5 690.73 690.76 693.63 695.12 697.96 699.52 701.01 702.6 702.58 702.16 701.68 700.65 698.77 697.71 695.69 693.95 692.07 691.18 689.34 688.46 687.4 686.16 684.28 683.04 682.29 681.64 680.35 679.54 677.91 677.82 676.62 675.61 674.16 673.37 672.76 671.14 669.88 668.57 668.52 669.43 669.88 671.47 674.15 675.99 679.32 682.99 685.3 687.31 690.03 694.67 697.33 699.51 703.04 704.63 706.07 708.43 709.42 711.47 712.17 712.66 713.28 713.6 714.17 713.34 713.45 712.08 710.72 708.93 708.12 705.63 703.9 702.53 699.35 697.06 693.4 690.2 687.97 684.29 681.88 679.43 676.35 672.98 668.75 666.27 663.22 660.2 657.22 653.62 651.31 647.35 644.19 641.76 637.85 636.12 632.53 629.51 627.74 623.74 622.26 619.48 616.22 613.44 612.35 610.13 607.09 605.77 603.93 600.16 597.74 595.54 593.7 592.14 591.04 591.16 590.93 591.39 592.45 593.12 593.43 594.88 595.88 596.54 596.82 598.07 599.01 599.94 600.38 602.17 603.45 604.98 607.64 609.14 611.45 615.16 618.35 621.78 624.59 628.54 631.43 634.63 637.45 640.14 644.27 645.79 649.13 652.19 655.68 659.04 661.73 666.12 669.03 671.86 675.01 678.83 681.92 684.81 688.23 692.57 695.68 699.01 701.82 705.22 708.61 711.18 715.21 718.31 720.54 722.88 725.86 729.44 734.02 738.63 743.46 746.28 748.09 749.3 753.6 755.77 757.49 760.93 762.93 766.53 770.39 773.72 775.46 777.93 779.65 779.92 778.93 778.45 776.73 774.12 771.89 768.92 765.49 761.72 758.21 754.84 750.78 746.77 742.93 739.25 733.49 729.08 724.71 721.18 717.01 714.3 711.3 707.15 703.43 700.58 697.2 694.07 690.63 687.34 683.22 677.76 674.24 670.67 666.84 662.58 657.13 652.99 646.99 642.95 639.41 635.96 633.04 629.68 626.51 622.03 621.01 620.36 619.22 619.35 619.19 619 618.35 619.39 619.69 619.57 620.16 620.12 621.41 621.8 623.75 624.22 623.45 623.75 623.43 622.29 620.81 620.4 620.05 618.41 616.37 614.2 617.26 619.89 623.67 628.42 634.35 642.88 652.02 659.67 666.22 671.74
9999 9999 9999 9999 9999 9999 9999 9999 9999 9999 9999 9999 9999 9999 9999 9999 9999 9999 9999 9999 9999 9999 9999 9999 9999 9999 9999 9999 9999 9999 9999 9999 9999 9999 9999 9999 9999 9999 9999 9999 9999 9999 9999 9999 9999 9999 9999 9999 9999 9999 9999 9999 9999 9999 9999 9999 9999 9999 9999 9999 9999 9999 9999 9999 9999 9999 9999 9999 9999 9999 9999 9999 9999 9999 9999 9999 9999 9999 9999 9999 9999 9999 9999 9999 9999 9999 9999 9999 9999 9999 9999 9999 9999 9999 9999 9999 9999 9999 9999 9999 9999 9999 9999 9999 9999 9999 9999 9999 429.73 9999 447.98 454.69 462.88 469.19 473.89 480.59 482.81 483.38 482.8 484.15 484.48 485.22 489.47 492.41 495.14 500.17 504.12 507.64 510.91 513.44 516.98 520.97 527.74 533.11 538.11 541.73 546.9 552.68 559.55 567.24 574.11 581.32 587.16 593.36 599.37 604.48 611.51 620.36 625.18 630.47 634.12 638.88 642.98 647.99 653.69 657.2 660.75 663.91 666.1 668.5 671.25 673.7 677.11 679.57 682.42 684.62 687 688.17 690.29 692.35 693.76 694.33 698.14 698.27 695.11 693.37 691.1 689.24 688.4 688.92 691 693.08 695.27 698.69 700.68 702.15 702.09 701.27 701.02 699.44 698.25 697.49 694.79 693.38 692.22 690.66 688.9 687.5 686.74 685.2 684.15 683.42 682.37 681.6 680.5 680.12 678.21 677.81 677.03 676.69 675.36 674.57 673.31 671.97 670.41 669.55 669.12 670.1 670.85 673.13 675.14 678.13 680.27 683.43 685.93 689.35 691.56 694.9 697.45 700.88 703.48 704.77 707.29 708.48 709.38 710.86 712.05 712.74 712.9 713.37 713.39 712.87 712.77 711.85 710.42 708.76 707.65 704.57 703.43 701.21 698.91 695.39 692.54 689.96 687.27 684.79 681.23 678.64 676.03 671.78 669.17 665.62 662.77 660.46 657.17 654.68 650.26 647.84 644.69 641.63 639.15 635.87 634.08 631.31 627.74 625.39 622.62 620.72 617.75 615.34 613.28 610.53 608.66 606.85 603.97 602.06 599.95 597.34 594.24 593.2 591.51 591.07 591.3 591.88 592.63 593.27 593.99 594.34 595.76 596.69 597.48 597.49 598.48 599.61 599.99 601.37 602.18 604.16 605.6 607.38 609.21 613.13 617.47 620 622.42 624.78 627.64 630.45 636.06 639.26 640.79 641.89 644.61 649.56 653.42 657.82 662.56 665.23 668.64 671.7 674.98 678.32 681.28 686.59 689.73 693.29 696.32 699.61 702.48 706.2 709.28 713.01 715.89 718.88 721.72 725.92 730.95 733.5 739.39 743.11 745.17 747.64 750.27 752.63 755.36 756.92 760.3 761.96 764.65 768.57 771.61 773.37 774.98 778.57 779.38 779.95 779.67 779.5 778.27 776.18 772.86 768.26 765.46 761.71 759.2 755.41 752.38 748 742.51 737.7 734.3 730.26 726.56 721.96 717.67 713.92 711.06 707.28 704.32 700.52 696.9 694.23 691.06 686.09 683.24 679.16 676.22 671.93 668.35 663.97 659.36 653.21 648.26 644.28 640.85 637.99 634.37 630.94 626.63 623.77 621.23 618 617.32 617.26 616.38 616.33 616.44 616.22 615.84 616.53 618.31 618.79 618.92 620 620.29 620.44 620.92 621.22 620.65 619.67 619.05 617.23 615.59 614.69 612.11 612.35 616.22 618.48 624.68 630.76 638.64 646.7 653.63 659.81 665.01 671.07
9999 9999 9999 9999 9999 9999 9999 9999 9999 9999 9999 9999 9999 9999 9999 9999 9999 9999 9999 9999 9999 9999 9999 9999 9999 9999 9999 9999 9999 9999 9999 9999 9999 9999 9999 9999 9999 9999 9999 9999 9999 9999 9999 9999 9999 9999 9999 9999 9999 9999 9999 9999 9999 9999 9999 9999 9999 9999 9999 9999 9999 9999 9999 9999 9999 9999 9999 9999 9999 9999 9999 9999 9999 9999 9999 9999 9999 9999 9999 9999 9999 9999 9999 9999 9999 9999 9999 9999 9999 9999 9999 9999 9999 9999 9999 9999 9999 9999 9999 9999 9999 9999 9999 9999 9999 9999 9999 9999 9999 428.79 9999 448.26 457.15 464.23 470.37 473.97 479.01 479.78 480.72 481.91 482.98 482.63 484.83 489.46 490.78 496.27 500.51 504.41 507.76 511.12 514.26 519.39 523.92 530.57 535.89 540.68 545.51 549.09 558.2 564.95 571.19 577.51 583.51 589.39 596.98 602.04 610.23 616.22 622.24 628.08 632.98 637.26 641.17 646.4 652.07 655.6 659.47 663.18 665.91 667.9 670.42 673.51 675.93 679.07 681.25 684.32 686.07 688.94 690.77 691.53 693.88 694.21 694.19 696.97 695.54 691.59 688.11 686.96 685.91 687.39 689.7 692.15 694.76 698.28 700.56 701.48 701.51 701.36 700.23 699.28 697.92 695.76 694.49 693.25 691.21 690.31 688.88 687 685.48 684.85 683.84 682.57 681.96 681.47 680.97 679.67 679.4 678.33 678.1 677.01 676.44 674.9 673.96 671.99 670.89 670.47 670.59 670.43 672.27 673.61 676.65 679.28 681.71 684.08 686.98 689.9 692.23 694.93 698.21 700.16 703.08 705.28 706.81 707.92 709.65 711.48 711.9 711.87 712.37 713.46 712.99 712.11 711.53 710.22 709.28 707.74 705.63 704.28 702.61 700.85 697.35 694.69 691.99 689.2 687.19 684.16 681.12 677.45 674.51 671.67 668.98 666.21 663.14 659.84 656.54 653.09 650.84 647.99 644.9 641.48 639.26 637.34 633.83 631.33 628.57 626.62 624.25 621.31 618.88 616.6 614.12 612.52 610.96 608.55 605.31 603.21 601.1 597.76 595.4 594.09 592.21 591.14 591.51 592.82 593.73 594.58 594.83 596.18 595.82 596.45 596.96 597.8 598.78 599.59 601.12 601.88 601.93 603.58 603.89 606.55 609.71 611.72 614.24 617.2 620.96 622.67 625.88 629.4 632.26 633.91 635.36 638.25 642.6 648.9 652.9 657.16 660.47 664.64 668 672.08 674.76 677.99 682.49 686.38 691.09 694.35 697.48 699.75 703.43 708.06 710.96 713.79 718.8 720.95 725.44 728.67 734.07 738.92 742.6 745.04 746.13 749.22 752.37 754.51 757.17 760.23 762.28 764.27 766.12 768.88 771.52 773.37 775.83 777.93 778.72 780.13 780.65 780.67 780.13 777.27 773.95 771.15 767.65 763.16 759.87 755.94 752.23 746.06 742.54 738.16 734.52 730.47 726.41 722.56 717.1 713.36 710.09 707.37 704.34 701.1 697.57 694.37 689.69 686.72 683.84 679.9 676.8 672.96 669.05 663.54 658.7 655.18 649.58 645.19 642.48 639.17 636.01 631.39 628.58 624.83 622.47 618.88 616.04 614.35 613.15 612.55 613.88 614.41 614.12 614.17 614.25 614.87 615.76 617.57 617.7 618.16 618.1 618.51 617.41 616.22 616.39 614.97 612.73 612.16 609.31 610.94 613.33 618.14 623.48 630.56 639.04 646.98 654.73 661.07 665.37 669.8
9999 9999 9999 9999 9999 9999 9999 9999 9999 9999 9999 9999 9999 9999 9999 9999 9999 9999 9999 9999 9999 9999 9999 9999 9999 9999 9999 9999 9999 9999 9999 9999 9999 9999 9999 9999 9999 9999 9999 9999 9999 9999 9999 9999 9999 9999 9999 9999 9999 9999 9999 9999 9999 9999 9999 9999 9999 9999 9999 9999 9999 9999 9999 9999 9999 9999 9999 9999 9999 9999 9999 9999 9999 9999 9999 9999 9999 9999 9999 9999 9999 9999 9999 9999 9999 9999 9999 9999 9999 9999 9999 9999 9999 9999 9999 9999 9999 9999 9999 9999 9999 9999 9999 9999 9999 9999 9999 9999 9999 9999 9999 9999 445.98 459.65 465.31 470.47 473.07 476.33 478.8 479.23 478.91 480.48 482.77 485.86 487.25 489.19 494.11 499.19 503.6 508.41 513.67 517.19 520.58 525.49 529.45 535.75 541.72 550.57 557.38 563.87 568.99 574.29 579.46 583.82 594.63 601.72 607.86 613.99 618.42 623.38 628.15 633.32 640.62 645.32 649.89 653.7 657.1 660.69 663.81 667.74 669.83 671.55 674.9 678.2 680.01 681.57 683.6 687.63 689.85 691.52 692.39 692.75 693.39 692.88 692.33 690.36 686.62 685.12 685.2 686.27 689.64 692.76 696.08 699.02 700.25 700.81 701.06 700.53 699.52 697.65 697.23 695.6 694.52 692.77 691.34 689.54 688.26 686.66 685.51 684.04 683.5 682.94 681.71 680.71 680.31 679.89 678.68 678.49 678.22 677.67 676.78 674.68 673.17 672.61 670.82 671.14 670.82 671.11 673.06 675.52 677.78 680.05 682.43 685.41 687.92 690.42 693.91 695.78 698.38 700.75 702.85 704.78 706.67 708.3 709.58 710.43 711.46 712.11 711.67 712.14 711.61 711.18 711.08 709.69 708.36 706.74 705.44 703.2 702.11 698.98 696.54 694.42 691.75 689.07 686.07 683.44 679.25 677.1 674.4 671.46 668.59 665.88 663.4 660.21 656.51 653.83 651 648.53 645.49 642.92 640.17 636.75 634.63 632.42 629.68 626.68 624.45 622.35 619.81 617.46 615.1 613.31 611.53 609.49 606.84 605.05 601.02 598.12 596.81 594.55 593.32 591.93 592.51 594.01 594.64 595.16 595.71 595.68 596.72 597.57 597.82 599.64 599.54 601.24 602.29 603.17 604.77 605.54 606.25 605.75 608.79 611.2 613.33 615.28 618.38 620 623.23 626.71 628.73 631.03 634.06 636.79 642.42 648.67 653.78 657.05 660.87 664.01 668.44 671.33 674.78 679.01 682.75 687.95 692.2 695.96 698.4 700.99 705.07 708.71 712.3 716.68 721.97 725.72 729.48 732.72 737.04 740.58 743 745.43 748.56 752.28 754.45 756.84 758.07 761.37 763.18 765.17 767.13 769.65 771.73 773.7 776.21 777.37 778.36 779.42 781.78 785.63 784.35 781.41 776.64 773.81 769.13 764.99 761.62 758 752.17 747.57 742.99 738.93 733.36 729.69 726.26 720.79 717.47 713.94 710.21 707.9 704.31 700.8 696.66 692.48 689.95 686.75 683.45 680.66 677.32 673.66 668.43 664.88 660.39 655.35 651.7 648.18 643.58 639.03 635.77 632.4 629.21 626.54 623.45 620.51 617.29 613.89 611.73 611.01 610 610.44 610.83 611.57 612.67 612.52 613.06 613.56 613.05 614.46 615.65 615.53 614.31 613.98 613.03 611.8 609.73 607.22 606.43 610.13 613.33 616.78 621.56 628.32 636.79 646.84 654.41 662.59 665.68 668.32
9999 9999 9999 9999 9999 9999 9999 9999 9999 9999 9999 9999 9999 9999 9999 9999 9999 9999 9999 9999 9999 9999 9999 9999 9999 9999 9999 9999 9999 9999 9999 9999 9999 9999 9999 9999 9999 9999 9999 9999 9999 9999 9999 9999 9999 9999 9999 9999 9999 9999 9999 9999 9999 9999 9999 9999 9999 9999 9999 9999 9999 9999 9999 9999 9999 9999 9999 9999 9999 9999 9999 9999 9999 9999 9999 9999 9999 9999 9999 9999 9999 9999 9999 9999 9999 9999 9999 9999 9999 9999 9999 9999 9999 9999 9999 9999 9999 9999 9999 9999 9999 9999 9999 9999 9999 9999 9999 9999 9999 9999 9999 9999 9999 9999 457.46 461.54 467 474.34 478.38 477.29 476.31 476.89 480.47 481.19 483.89 485.29 490.44 496.35 503.67 507.34 509.47 512.96 518.17 522.16 525.97 9999 536.51 544.3 552.54 557.85 566.48 570.7 576.18 583.25 589.38 596.89 603.47 610.89 617.21 621.06 626.15 632.99 638.28 642.2 646.28 652.05 655.3 658.52 662.1 665.14 667.16 669.26 672.92 675.28 678.06 681.23 682.92 685.12 687.05 689.14 690.51 691.69 692.43 691.53 690.01 687.21 684.87 684.77 685.82 688.06 692.27 695.02 697.06 698.38 699.26 699.77 700.16 699.32 698.56 698.34 696.39 695.19 694.03 692.06 690.98 689.07 687.78 686.51 684.93 683.94 683.18 682.12 681.49 680.12 680.19 679.16 678.56 677.38 677.72 676.81 675.91 674.24 673 671.62 670.98 670.83 670.47 672.07 674 675.84 678.27 680.64 683.43 686.08 688.79 692.13 694.1 696.83 699.09 701.05 702.85 704.72 706.73 708.87 709.36 710.51 711.32 711.53 712.03 711.04 711.51 710.36 709.74 708.39 707.32 706.27 704.42 702.35 700.6 698.89 696.11 693.74 690.75 688.3 686.31 682.6 679.1 677.27 674.04 671.25 668.65 665.46 662.28 659.23 656.99 653.83 650.91 648.61 646.06 643.32 640.24 637.68 635.89 632.86 630.54 627.32 625.2 622.36 620.15 618.38 616.28 614.35 612.48 610.49 608.36 604.2 602.31 599.28 597.21 595.49 593.51 593.09 593.5 595.1 595.21 595.84 596.83 597.02 597.29 597.79 598.53 599.85 600.9 602 603.33 604.38 605.58 607.02 608.3 608.91 610 611.24 613.57 614.9 618.04 620.67 622.28 622.72 626.39 630.71 634.43 637.92 643.93 648.66 652.58 656.58 659.77 664.52 668.21 673.27 676.03 679.59 683.8 688.71 693.97 696.45 699.47 701.9 706.8 711.12 715.54 719.38 723.65 727.51 731.42 735.4 739.29 742.06 744.27 747.06 750.07 752.5 755.46 758.16 759.97 762.22 764.5 765.71 767.78 770.74 772.17 774.61 775.51 776.4 777.8 778.91 782.1 787.13 786.53 782.49 778.05 775.08 770.8 765.37 761.73 757.52 753.81 749.3 744.63 739.24 734.1 729.02 724.07 720.26 717 714.02 710.65 707.47 704.31 699.41 696.11 693.22 689.97 687.17 684.16 680.98 677.35 672.74 669.46 666.34 661.36 657.03 652.93 648.82 643.72 640.18 637.36 633.86 630.06 627.42 624.07 621.85 617.73 614.74 611.91 608.71 607.95 608.42 607.98 608.02 608.38 608.63 611.19 610.77 610.73 611.78 611.84 611.12 610.18 611.36 609.8 608.46 606.88 604.31 606.76 608.94 611.11 616.08 621.49 628.24 635.74 643.61 654.01 660.78 665.9 667.1
9999 9999 9999 9999 9999 9999 9999 9999 9999 9999 9999 9999 9999 9999 9999 9999 9999 9999 9999 9999 9999 9999 9999 9999 9999 9999 9999 9999 9999 9999 9999 9999 9999 9999 9999 9999 9999 9999 9999 9999 9999 9999 9999 9999 9999 9999 9999 9999 9999 9999 9999 9999 9999 9999 9999 9999 9999 9999 9999 9999 9999 9999 9999 9999 9999 9999 9999 9999 9999 9999 9999 9999 9999 9999 9999 9999 9999 9999 9999 9999 9999 9999 9999 9999 9999 9999 9999 9999 9999 9999 9999 9999 9999 9999 9999 9999 9999 9999 9999 9999 9999 9999 9999 9999 9999 9999 9999 9999 9999 9999 9999 9999 9999 9999 448.35 457.01 463.16 467.47 472.69 476.25 474.68 474.01 477.54 482.91 483.51 484.39 485.88 494.8 501 507.46 510.29 512.62 514.1 517.06 519.37 523.46 531.22 539.13 546.79 553.17 558.6 563.23 572.46 580.92 587.39 594.56 600.58 606.12 612.37 618.5 625.58 630.39 635.4 640.08 643.78 647.56 652.02 655.46 659.7 662.42 664.64 667.52 670 672.45 675.93 677.6 681.02 683.3 685.42 686.73 688.15 689.54 689.64 690.11 688.33 685.78 684.89 685.33 687.04 690.91 695.12 697.55 697.9 697.52 696.89 697.73 697.88 696.5 697.58 697.3 695.79 694.85 693.06 691.5 690.2 688.68 687.16 685.84 684.6 683.62 682.57 681.33 680.6 679.89 679.33 678.45 677.72 676.99 675.41 674.34 673.44 673.71 672.47 671.69 671.43 670.85 671.49 673.16 674.73 676.14 678.67 681.72 684.12 686.95 690.41 692.61 695.42 696.85 698.44 700.97 702.77 705.38 706.42 708.51 709.1 709.38 710.47 710.76 710.68 710.42 710.04 709.85 709.95 708.44 706.98 705.48 704.09 701.87 700.26 698.12 696.33 693.08 691.02 687.26 684.94 682.3 679.54 676.2 674.23 671.84 668.78 665.61 663.12 660.07 657.37 654.35 651.83 649.14 645.74 643.29 641.51 637.5 635.77 633.2 630.89 628.63 626.19 623.28 621.37 619.18 617.1 614.58 612.58 610.55 607.58 605.42 602.49 600.84 598.8 596.41 595.26 594.9 595.66 594.74 595.44 596.33 596.5 597.12 598.6 598.29 599.61 601.1 601.71 602.6 604.21 605.07 607.6 608.57 609.36 610.21 610.88 613.31 615.24 616.77 616.75 619.45 621.17 624.54 627.14 632.18 636.08 642.06 647.61 649.82 654.43 657.87 661.98 665.15 670.57 674.67 677.34 680.85 685.28 689.3 693.67 697.22 700.39 704.66 709.05 714.9 718.03 721.77 725.99 730.47 734.07 736.91 740.36 742.69 745.84 748.47 751.81 754.23 756.22 758.56 759.8 763 764.67 766.88 769.29 770.89 772.33 774.54 775.58 776.67 776.72 777.63 779.35 783.41 783.21 780.66 776.7 773.99 770.81 765.72 762.11 757.48 754.47 749.49 745.78 740.51 732.83 727.47 722.52 719.71 717.3 713.81 710.33 707.02 702.65 698.71 696.01 693.38 690.08 686.82 684.31 680.23 675.94 672.74 669.99 666.34 662.58 658.7 654.51 648.52 644.54 641.05 637.61 634.93 631.73 629.08 624.95 621.11 618.65 615.5 612.64 609.83 607.08 604.46 605.82 605.83 605.93 605.83 606.14 606.39 606.65 607.8 607.93 607.92 607.41 606.95 605.88 604.06 603.8 603.69 605.41 608.07 611.39 615.61 621.66 626.89 636.53 643.62 650.77 656.99 660.65 663.22
9999 9999 9999 9999 9999 9999 9999 9999 9999 9999 9999 9999 9999 9999 9999 9999 9999 9999 9999 9999 9999 9999 9999 9999 9999 9999 9999 9999 9999 9999 9999 9999 9999 9999 9999 9999 9999 9999 9999 9999 9999 9999 9999 9999 9999 9999 9999 9999 9999 9999 9999 9999 9999 9999 9999 9999 9999 9999 9999 9999 9999 9999 9999 9999 9999 9999 9999 9999 9999 9999 9999 9999 9999 9999 9999 9999 9999 9999 9999 9999 9999 9999 9999 9999 9999 9999 9999 9999 9999 9999 9999 9999 9999 9999 9999 9999 9999 9999 9999 9999 9999 9999 9999 9999 9999 9999 9999 9999 9999 9999 9999 9999 9999 9999 9999 9999 459.36 464.04 468.02 471.51 472.93 472.07 474.01 482.09 483.84 484.55 485.48 489.15 496.09 502.16 507.33 510.17 510.26 513.77 515.37 519.83 526 532.52 542.28 546.87 553.61 561.33 567.88 575.11 583.53 589.77 596.88 602.34 609.42 616.02 620.71 625.19 629.94 635.26 641.03 645.33 649.47 653.09 655.66 658.44 661.02 664.91 667.71 670.64 673.12 675.95 677.65 679.53 681.39 685.18 686.76 688.13 688.15 687.67 686.46 685.15 684.59 685.2 688.28 690.26 692.57 695.33 695.61 696.12 695.71 694.71 695.32 695.23 695.3 695.27 694.31 693.53 693.87 691.45 690.08 688.26 686.61 685.71 684.31 683.72 682.29 681.62 680.52 679.5 678.07 677.55 676.41 676.2 674.29 673.8 672.85 672.36 671.76 671.56 670.87 671.04 672.32 673.36 675.6 677.25 679.42 682.55 685.99 687.86 690.5 692.78 694.86 697.38 699.29 701.18 703.12 704.81 706.08 706.76 707.95 708.4 709.48 709.91 710.09 709.57 709.54 709.11 707.55 707.28 706.41 704.46 702.77 701.54 699.6 696.88 695.49 693.14 690.11 687.16 684.91 682.48 679.87 677.17 674.77 671.75 668.37 666.02 663.17 660.52 657.92 654.93 651.74 648.42 646.9 643.9 641.32 638.86 636.41 634.02 631.47 628.2 625.83 623.75 622.13 620.38 618.88 616.86 611.33 610.35 608.01 605.46 602.84 601.27 598.87 596.8 595.97 596.45 596.82 596.32 597.08 597.21 597.52 597.84 598.31 599.28 600.29 601.46 602.72 604.41 605.42 605.82 607.41 608.86 610.53 611.75 613.32 614.02 616.83 619.02 618.81 620.07 623.29 626.31 629.47 634.45 639.52 645.19 649.85 654.37 658.16 661.47 663.36 667.57 671.88 676.75 679.38 683.31 687.02 689.28 694.86 698.87 702.33 706.41 711.76 717.09 721.49 724.64 729.93 732.31 735.08 738.24 741.25 744.02 746.44 749.64 752.15 754.97 756.49 758.59 761.27 763.58 765.22 767.62 769.44 771.13 773.04 773.64 775.1 776.02 776.54 776.61 776.51 776.35 776.18 776.2 775.64 773.55 768.78 764.47 760.65 756.67 753.09 749.25 745.51 738.92 733.17 728.41 723.1 719.11 716.97 713.86 708.65 705.04 701.76 698.99 695.68 693.24 690.41 686.83 683.16 680.25 676.78 674.16 670.73 666.4 663.66 657.25 654.01 650.82 646.79 642.64 639.25 636.17 632.97 628.61 625.78 623 619.61 616.89 613.56 610.81 606.88 604.66 601.64 600.12 601.06 603.13 603.4 603.98 603.78 603.33 602.48 602.91 604.54 604.36 603.1 600.73 600.43 601.74 603.24 606.53 609.74 615.18 621.2 628 634.15 638.73 644.85 651.93 656.09 659.7
9999 9999 9999 9999 9999 9999 9999 9999 9999 9999 9999 9999 9999 9999 9999 9999 9999 9999 9999 9999 9999 9999 9999 9999 9999 9999 9999 9999 9999 9999 9999 9999 9999 9999 9999 9999 9999 9999 9999 9999 9999 9999 9999 9999 9999 9999 9999 9999 9999 9999 9999 9999 9999 9999 9999 9999 9999 9999 9999 9999 9999 9999 9999 9999 9999 9999 9999 9999 9999 9999 9999 9999 9999 9999 9999 9999 9999 9999 9999 9999 9999 9999 9999 9999 9999 9999 9999 9999 9999 9999 9999 9999 9999 9999 9999 9999 9999 9999 9999 9999 9999 9999 9999 9999 9999 9999 9999 9999 9999 9999 9999 9999 9999 9999 9999 9999 9999 9999 465.58 469.77 470.53 470.06 469.43 471.51 477.11 484.2 484.85 486.77 491.52 497.68 502.85 505.13 507.69 509.71 511.87 516.68 521.24 527.19 534.8 542.75 549.16 557.84 565.48 571.65 580.55 586.61 591.97 599.43 604.56 612.73 617.65 621.7 626.48 631.38 637.18 641.07 645.18 649.93 652.52 656.41 658.09 660.81 664.16 666.82 670.31 672.31 675.33 677.1 677.94 680.89 682.73 684.02 686.64 686.07 684.51 683.63 683.3 685.9 687.13 689.08 690.47 691.51 692.15 692.52 691.88 691.08 692.39 692.8 693.09 693.27 693.11 693.23 691.43 690.6 689.7 688.39 687.12 685.51 684.48 682.87 682.02 681.25 679.98 679.36 677.64 677.27 675.4 673.98 672.54 672.14 671.6 671.13 671.39 671.17 671.3 671.85 673.11 674.42 676.03 677.51 680.36 683.71 685.93 688.47 690.44 693.14 695.11 697.67 699.03 701.56 703.13 703.68 705.55 706.44 707.71 708.16 708.81 708.33 708.52 708.81 708.4 707.95 707.16 705.53 704.82 703.44 701.58 701.2 699.16 696.58 695.01 692.27 689.92 687.24 685.17 682.65 680.16 677.11 673.64 671.4 668.39 666.09 663.28 660.68 657.85 655.55 652.03 648.89 646.79 644.12 641.94 639.34 636.59 633.82 631.39 629.18 626.52 625.09 622.46 620.78 619.01 615.43 612.33 610.56 608.59 606.08 603 601.27 598.93 598 596.83 597.94 597.75 597.2 598.07 598.29 598.81 599.46 599.77 600.19 601.02 601.92 604.05 605.64 606.43 607.58 609.32 610.48 611.66 612.54 615.53 616.22 618.74 621.02 621.34 622.3 624.32 627.2 632.04 635.44 641.72 645.48 650.51 654.24 658.72 663.5 668.01 672.41 677.24 679.67 682.57 685.16 688.53 694.34 697.79 701.5 704.71 708.14 712.85 718.07 725.16 728.45 730.69 733.49 736.02 738.91 742 743.95 747.46 750.06 752.65 754.92 757.19 759.41 761.66 764.18 766.15 768.32 769.76 771.49 772.83 773.81 774.49 775 774.8 774.63 775.41 774.36 774.39 774.31 771.85 768.74 764.67 762.48 760.02 755.24 750.81 748.08 741.47 737.36 731.79 727.23 723.11 719.19 716.49 712.24 708.68 704.7 701.31 699.3 696.31 692.65 690.26 685.93 682.54 680.53 677.19 674.21 670.58 666.72 661.72 657.56 654.9 651.36 647.54 644.1 640.82 637.53 633.3 629.99 626.02 623.63 620.27 617.35 614.9 611.16 607.76 605.63 603.1 600.46 598.85 598.57 599.88 600.34 600.64 599.62 600.29 599.98 600.25 600.26 598.33 600.07 599.17 600.84 603.21 605.94 609.19 614.18 621.39 627.16 632.92 637.27 642.86 647.65 652.06 657.34
9999 9999 9999 9999 9999 9999 9999 9999 9999 9999 9999 9999 9999 9999 9999 9999 9999 9999 9999 9999 9999 9999 9999 9999 9999 9999 9999 9999 9999 9999 9999 9999 9999 9999 9999 9999 9999 9999 9999 9999 9999 9999 9999 9999 9999 9999 9999 9999 9999 9999 9999 9999 9999 9999 9999 9999 9999 9999 9999 9999 9999 9999 9999 9999 9999 9999 9999 9999 9999 9999 9999 9999 9999 9999 9999 9999 9999 9999 9999 9999 9999 9999 9999 9999 9999 9999 9999 9999 9999 9999 9999 9999 9999 9999 9999 9999 9999 9999 9999 9999 9999 9999 9999 9999 9999 9999 9999 9999 9999 9999 9999 9999 9999 9999 9999 9999 9999 9999 460.01 467.69 470.42 469.7 467.58 471.57 473.91 478.35 482.49 484.69 488.09 491.98 496.57 500.78 504.98 506.29 509.27 511.25 513.85 521.18 531.77 537.88 546.2 553.43 562.06 567.07 575.22 582.36 590.88 595.97 600.19 605.78 610.4 615.15 622.53 629.44 633.78 638.24 642.25 645.26 648.6 651.39 656.61 658.97 661.97 663.76 665.77 667.2 669.72 672.49 675.84 677.79 679.62 681.27 682.11 682.08 681.71 682.22 682.14 684.51 685.91 686.73 687.42 687.29 688.62 689.92 689.53 689.91 689.34 690.12 689.72 690.58 691.79 691.53 691.09 690.11 689.31 687.84 686.68 685.79 683.58 682.65 681.42 680.27 679.47 678.6 677.08 675.49 674.99 672.94 672.41 671.93 671.24 671.53 671.38 671.48 671.38 672.51 672.83 674.54 676.23 678.86 681.67 683.82 686.24 688.03 691.46 693.28 695.39 698.18 699.9 701.43 702.78 703.66 704.62 705.83 706.08 707.71 707.45 707.62 707.49 707.03 707.29 706.18 705.65 704.79 703.78 702.24 701.56 700.1 697.76 696.27 693.67 691.66 689.1 686.66 685.55 682.28 680.03 676.54 673.82 671.58 668.02 666.81 663.76 661.66 657.78 655.24 652.39 649.57 646.74 645.28 643.05 639.87 636.45 633.79 631.61 629.69 627.27 625.32 623.43 620.67 617.84 614.21 613.02 610.5 608.26 606.06 603.88 601.3 599.76 599.19 599.02 599.2 599.19 599.09 600.26 599.66 599.53 600.26 600.37 601.03 601.61 603.16 604.99 606.78 608.51 609.24 610.67 612.13 613.79 615.18 616.25 617.77 619.83 622.3 623.67 625.19 626.62 629.58 633.66 637.48 641.37 645.29 649.85 654.17 660.76 665.27 670.29 674.95 678.96 683.94 689.19 693.16 693.92 696.57 700.22 703.52 706.45 709.94 713.39 719.07 724.04 727.69 730.3 733.55 736.27 738.7 743.06 744.99 747.81 750.35 752.32 755.92 757.39 760.13 762.51 764.23 766.41 768.45 769.76 770.81 771.81 772.71 773.59 773.54 773.35 773.14 772.61 771.81 770.74 768.92 767.39 764.46 761.28 758.84 755.49 751.98 747.78 743.36 739.32 735.05 730.05 727.12 723.41 719.34 715.38 711.58 707.34 705.33 701.48 698.2 695.17 691.14 688.24 685.05 682.3 679.8 676.71 673.45 670.75 665.76 662.29 658.47 655.21 651.33 648.05 644.87 640.4 636.65 633.46 630.67 627.12 624.6 621.09 618.7 614.23 611.48 608.72 606.31 603.55 601.12 598.49 596.29 597.28 597.67 596.44 596.41 595.83 597.65 597.65 596.81 596.02 597.14 597.31 599.21 602.26 605.79 610.39 615.29 620.31 625.98 630.66 636.29 640.92 645.25 651.2 654.65
9999 9999 9999 9999 9999 9999 9999 9999 9999 9999 9999 9999 9999 9999 9999 9999 9999 9999 9999 9999 9999 9999 9999 9999 9999 9999 9999 9999 9999 9999 9999 9999 9999 9999 9999 9999 9999 9999 9999 9999 9999 9999 9999 9999 9999 9999 9999 9999 9999 9999 9999 9999 9999 9999 9999 9999 9999 9999 9999 9999 9999 9999 9999 9999 9999 9999 9999 9999 9999 9999 9999 9999 9999 9999 9999 9999 9999 9999 9999 9999 9999 9999 9999 9999 9999 9999 9999 9999 9999 9999 9999 9999 9999 9999 9999 9999 9999 9999 9999 9999 9999 9999 9999 9999 9999 9999 9999 9999 9999 9999 9999 9999 9999 9999 9999 9999 9999 9999 452.81 463.46 468.55 471.39 466.84 469.12 472.53 475.2 478.12 479.49 482.44 486.34 490.78 495.3 499.33 504.15 506.15 508.77 511.84 518.31 524.36 530.84 541.63 548.8 557.32 564.01 572.2 579.06 584.48 589.79 596.98 601.48 605.62 611.16 618.63 623.61 627.8 632.8 638.94 642.49 646.11 649.03 651.18 653.85 656.5 660.5 662.84 664.1 665.52 669.34 672.3 673.67 674.99 678.6 678.78 679.44 679.23 678.87 679.14 680.63 683.29 683.84 684.16 684.98 685.89 686.44 686.84 686.37 687.89 687.99 688.13 688.37 689.26 689.36 689.95 689.88 688.68 688.03 686.08 684.37 683.5 682.42 680.85 680.42 679.37 678.08 676.22 675 673.86 672.34 671.86 671.7 671.62 671.69 671.7 671.65 671.73 672.91 673.58 675.31 677.06 679.79 681.91 684.37 685.96 689.28 691.63 693.06 695.42 697.69 699.15 700.71 702.47 703.03 704.2 705.66 705.96 707 706.13 705.95 706.76 706.6 706.05 704.55 704.06 703.78 702.78 701.74 700.79 698.94 696.45 694.74 692.75 690.75 688.57 686.69 684.49 682.22 679.72 676.5 674.26 671.6 668.58 666.84 663.74 661.03 657.96 655.6 653.28 650.93 647.66 645.02 642.42 639.35 637.29 634.55 632.48 629.79 627.37 624.98 622.37 620.61 616.95 614.32 612.8 610.74 607.73 605.68 603.68 602.04 601.95 601.15 601.17 600.29 600.28 599.73 600.64 600.92 600.87 602.15 601.48 601.87 603.25 604.58 606.21 608.16 609.59 610.79 612.04 613.66 615.51 617.44 618.76 620.4 622.35 624.09 625.3 628.16 629.83 632.17 635.61 639.55 642.36 646.34 650.26 657.16 663.79 670.44 675.5 680.89 682.3 688.2 694.59 698.63 701.36 703.53 705.29 705.58 708.62 711.65 715.57 719.18 722.46 726.42 729.69 732.94 736 739.79 742.71 745.37 748 750.38 752.62 755.48 757.95 761.13 763.43 764.72 766.16 767.47 769.87 771.58 771.52 771.88 771.71 771.46 771.25 771.56 771.04 770.07 768.32 766.65 765.24 763.11 760.94 757.5 752.99 749.19 745.18 742.04 738.17 735.21 730.94 727.67 722.7 718.74 715.43 711.33 707.75 704.85 701.11 697.83 693.1 690.27 687.41 683.89 682.33 679.54 676.32 672.44 669.3 666 662.87 658.67 655.76 652.65 649.24 645.19 641.45 637.96 633.95 630.71 628.06 625.1 620.9 617.95 615.31 612.73 609.68 606.84 604.4 601.27 598.51 596.42 594.5 595.19 593.59 592.94 592.78 592.98 593.63 593.79 594.88 595.22 596.63 598.78 601.31 607.01 610.92 614.8 619.57 624.44 629.13 634.18 639.27 643.08 648.47 652.59
9999 9999 9999 9999 9999 9999 9999 9999 9999 9999 9999 9999 9999 9999 9999 9999 9999 9999 9999 9999 9999 9999 9999 9999 9999 9999 9999 9999 9999 9999 9999 9999 9999 9999 9999 9999 9999 9999 9999 9999 9999 9999 9999 9999 9999 9999 9999 9999 9999 9999 9999 9999 9999 9999 9999 9999 9999 9999 9999 9999 9999 9999 9999 9999 9999 9999 9999 9999 9999 9999 9999 9999 9999 9999 9999 9999 9999 9999 9999 9999 9999 9999 9999 9999 9999 9999 9999 9999 9999 9999 9999 9999 9999 9999 9999 9999 9999 9999 9999 9999 9999 9999 9999 9999 9999 9999 9999 9999 9999 9999 9999 9999 9999 9999 9999 9999 9999 9999 9999 9999 464.73 470.61 469.66 470.02 470.21 472.03 474.75 475.8 481.3 484.73 488.3 492.78 496.11 500.34 504.65 507.67 512.22 517.13 521.24 527.57 534.89 542.52 549.24 562.23 566.49 573.85 580.4 585.12 591.69 596.2 600.88 609.03 614.57 618.66 623.08 628.21 632.39 636.81 641.25 645.44 648.08 650.31 653.11 655.04 657.6 659.94 663.71 665.33 667.77 670.15 671.14 672.36 673.6 674.41 676.63 676.66 676.88 677.86 679.2 679.54 679.68 680.03 682.86 683.63 684.63 684.21 684.58 684.96 685.65 686.61 687.7 687.81 688.12 688.97 688.91 687.08 685.85 684.09 683.22 682.18 680.86 679.74 678.33 677.74 676.02 674.48 674.01 672.27 671.67 671.58 671.43 671.52 671.86 671.64 671.77 673.16 673.65 676.46 678.42 679.88 682.36 684.84 686.78 688.72 690.65 693.18 695.45 697.7 698.95 700.3 701.77 702.17 703.65 704.58 705.36 706.1 705.5 705.23 705.64 704.9 703.87 703.27 702.8 702.41 701.49 700.31 698.81 697.45 695.65 694.76 692.9 690.59 688.41 686.34 683.98 680.99 678.92 676.77 674.26 672.07 668.72 666.88 663.41 661.01 658.49 655.65 652.99 650.33 648.1 644.38 642.24 639.4 636.51 635.06 632.32 630.58 628.11 624.46 621.57 619.82 617.23 614.33 612.07 609.9 607.24 606.7 605.4 604.16 602.67 602.83 602.07 601.5 601.66 601.78 601.64 601.78 602.35 602.28 602.81 603.58 605.36 605.97 607.7 609.46 611.35 612.45 613.81 616.93 617.82 619.58 620.75 622.2 624.3 626.02 628.67 630.88 631.45 634.48 637.42 641.27 645.49 650.04 654.55 660.7 667.57 673.5 678.6 684.12 687.4 693.95 699.17 700.91 703.74 705.27 707.41 709.65 712.43 715.14 717 720.37 723.33 726.9 730.06 732.83 737.66 740.12 743.03 745.31 747.98 750.48 753.26 756.69 759 760.93 762.88 764.68 766.06 766.1 769.72 769.25 769.81 769.71 770.66 770.07 769.06 768.4 766.37 765.55 765.12 764.74 763.4 760.43 757.44 754.19 749.75 747.37 744.08 740.7 738.07 733.95 730.69 725.41 722.2 718.28 714.62 711.1 707.44 703.72 700.47 695.98 692.97 689.86 687.14 683.64 681.56 678.28 674.73 671.78 668.82 666.07 662.38 659.49 656.98 653.47 647.61 644.67 641.76 637.81 634.55 631.94 628.57 624.6 621.49 619.25 615.84 613.82 610.73 608.03 604.91 600.98 599.05 595.99 594.31 592.43 591.12 590.07 590.39 591.04 591.1 591.44 591.98 592.43 594.65 598.65 602 605.25 609.9 614.09 619.03 623.01 627.96 633.59 637.94 641.33 644.84 649.51
9999 9999 9999 9999 9999 9999 9999 9999 9999 9999 9999 9999 9999 9999 9999 9999 9999 9999 9999 9999 9999 9999 9999 9999 9999 9999 9999 9999 9999 9999 9999 9999 9999 9999 9999 9999 9999 9999 9999 9999 9999 9999 9999 9999 9999 9999 9999 9999 9999 9999 9999 9999 9999 9999 9999 9999 9999 9999 9999 9999 9999 9999 9999 9999 9999 9999 9999 9999 9999 9999 9999 9999 9999 9999 9999 9999 9999 9999 9999 9999 9999 9999 9999 9999 9999 9999 9999 9999 9999 9999 9999 9999 9999 9999 9999 9999 9999 9999 9999 9999 9999 9999 9999 9999 9999 9999 9999 9999 9999 9999 9999 9999 9999 9999 9999 9999 9999 9999 9999 9999 9999 9999 463.32 470.97 469.9 469.56 471.23 474.95 477.94 480.59 482.88 488.31 493.94 498.93 504.17 508.66 511.84 515.91 520.34 524.97 531.22 537.93 547.46 554.69 560.73 567.05 572.35 580.12 587.48 594.73 599.23 604.43 607.73 611.75 618.46 623.73 627.99 633.07 636.8 640.45 643.21 645.48 649.26 652.05 654.13 656.51 658.74 660.45 662.21 665.35 667.39 669.31 670.23 670.27 671.18 671.7 672.26 675.24 675.06 675.83 675.5 676.91 678.15 679.05 679.19 681.56 681.23 682.69 682.98 683.29 684.22 685.89 686.86 688.36 688.34 686.28 685.34 684.57 682.91 681.77 680.51 678.67 677.8 677.33 675.71 674.82 673.48 672.57 671.85 671.52 671.45 671.56 671.53 671.87 672.76 673.22 675.23 676.78 678.82 680.81 682.19 684.29 686.33 688.87 691.37 693.27 695.37 696.85 697.96 699.16 701.11 702.6 703.04 703.41 703.65 704.33 703.86 704.32 704.4 703.64 703.34 702.13 701.89 700.58 699.97 699.22 697.31 696.43 694.93 692.73 691.27 689.93 688.01 684.92 682.99 680.93 678.42 676.37 674.11 672.22 669.21 665.53 663.35 661.17 659.18 656.01 653.71 651.19 647.33 644.62 641.75 639.41 637.14 634.6 632.1 628.72 626.94 624.24 622.12 618.99 616.94 614.4 611.8 608.96 608.21 607.8 607.07 606.55 605.53 604.61 603.01 603.07 602.79 602.44 602.17 603.03 602.95 603.5 605.08 605.46 606.64 607.63 609.61 611.77 613.02 614.72 616.49 618.64 620.37 621.68 624 625.45 626.38 629.18 631.18 633.57 635.69 638.05 641.04 643.09 649.28 653.06 656.84 662.92 670.93 676.72 681.1 684.81 691.18 695.41 699.45 702.27 704.76 707.29 709.55 711.75 714.17 716.64 718.83 721.79 725.62 727.74 730.62 734.8 737.87 740.39 743.62 745.9 748.57 750.82 754.36 756.99 759.16 761.12 763.12 764.4 765.19 765.63 766.31 766.18 766.92 767.84 767.47 767.33 766.71 764.81 763.22 762.44 760.62 759.19 757.19 756.74 752.33 749.71 746.87 744.02 740.03 738.61 736.87 733.31 728.07 725.59 721.66 717.4 713.79 711.05 707.34 702.31 698.59 695.31 691.13 688.71 685.44 683.71 680.55 677.01 674.33 671.58 668.78 665.83 662.86 659.66 655.51 652.18 649.03 645.26 641.41 638.44 635.43 632.25 628.18 625.25 622.45 620.58 617.15 614.66 611.18 607.4 605.08 602.31 599.54 597.45 594.01 592.63 590.6 588.89 588.48 588.95 588.68 589.77 591.33 591.31 594.52 597.52 600.55 604.73 609.65 614.26 617.76 621.91 627.34 630.98 635.37 639.63 644.08 646.81
9999 9999 9999 9999 9999 9999 9999 9999 9999 9999 9999 9999 9999 9999 9999 9999 9999 9999 9999 9999 9999 9999 9999 9999 9999 9999 9999 9999 9999 9999 9999 9999 9999 9999 9999 9999 9999 9999 9999 9999 9999 9999 9999 9999 9999 9999 9999 9999 9999 9999 9999 9999 9999 9999 9999 9999 9999 9999 9999 9999 9999 9999 9999 9999 9999 9999 9999 9999 9999 9999 9999 9999 9999 9999 9999 9999 9999 9999 9999 9999 9999 9999 9999 9999 9999 9999 9999 9999 9999 9999 9999 9999 9999 9999 9999 9999 9999 9999 9999 9999 9999 9999 9999 9999 9999 9999 9999 9999 9999 9999 9999 9999 9999 9999 9999 9999 9999 9999 9999 9999 9999 9999 9999 466.45 470.45 470.22 468.42 474.43 476.19 478.51 479.38 482.13 487.28 495.04 499.74 506.55 511.01 515.12 520.15 523.37 528.32 535.73 542.68 549.41 556.03 562.72 570.04 574.29 581.46 587.61 594.85 600.14 605.07 607.96 611.7 618.05 623.33 629.76 633.08 636.51 638.47 640.74 643.99 647.5 650.16 653.95 655.64 657.02 659.09 660.92 662.56 663.62 664.78 666.84 667.89 668.37 668.49 668.48 669.13 669.54 671.71 672.71 673.82 674.92 675.79 675.41 677.32 678.1 680.33 680.83 682.25 682.75 684.17 684.06 685.27 686.12 684.24 683.14 682.16 681.15 679.36 677.99 677.26 677.32 676.29 675.16 673.77 672.75 672.72 672.14 671.97 671.75 672.04 672.33 673.2 674.87 675.8 677.67 678.98 680.46 683.32 684.45 686.36 688.81 690.36 692.3 694.3 696.15 697.99 699.63 700.56 701.25 702.14 702.21 702.17 703.29 702.69 703.18 702.59 702.54 701.75 700.65 700.59 700.29 698.84 697.11 696.41 695.47 693.87 692.35 690.61 688.85 685.85 684.35 682.59 680.58 678.31 676.09 673.56 670.39 668.96 666.4 663.52 660.64 658.99 656.32 652.94 649.54 647.56 644.61 641.45 640.02 637.11 634.57 630.93 628.31 625.52 623.35 621.25 619.5 615.85 614.27 611.33 611.44 610.46 609.51 608.85 608.8 607.72 606.52 605.43 604.89 604.3 603.83 604.49 604.19 604.78 605.65 606.61 607.55 608.35 610.14 611.41 613.35 616.64 618.18 619.74 621.94 622.81 625.02 626.55 629.08 630.69 632.95 634.26 635.71 638.51 640.25 643.37 647.92 652.6 656.14 658.58 664.97 671.72 677.89 683.54 689.16 693.58 697.52 700.27 703.17 705.79 708.37 712.25 714.85 717.28 718.24 721.12 723.14 725.81 730.96 733.61 736.16 737.79 741.5 743.56 746.37 749.42 752.41 754.97 756.67 758.27 761.38 762.62 763.54 764.23 764.35 763.44 764.35 765.31 765.49 764.05 762.72 760.2 758.98 759.87 758.65 757.7 756.67 754.01 750.91 747.14 743.56 743.62 739.53 737.35 736.26 734.04 729.51 726.54 724.41 721.06 717.64 713.65 709.99 704.96 701.36 697.52 693.7 690.6 688.48 685.28 681.68 679.74 676.51 674.27 671.2 668.73 666.13 663.26 658.47 655.43 651.95 649.53 645.68 642.28 639.86 635.51 631.66 628.19 624.88 622.62 620.01 617.15 614.83 611.28 607.92 604.94 602.98 600.66 597.85 595.51 592.87 590.53 588.55 587.12 587.45 587.16 587.65 588.36 590.6 593.49 595.66 600.32 605.13 609.6 613.35 617.77 622 625.46 629.77 633.25 636.18 640.13 642.97
9999 9999 9999 9999 9999 9999 9999 9999 9999 9999 9999 9999 9999 9999 9999 9999 9999 9999 9999 9999 9999 9999 9999 9999 9999 9999 9999 9999 9999 9999 9999 9999 9999 9999 9999 9999 9999 9999 9999 9999 9999 9999 9999 9999 9999 9999 9999 9999 9999 9999 9999 9999 9999 9999 9999 9999 9999 9999 9999 9999 9999 9999 9999 9999 9999 9999 9999 9999 9999 9999 9999 9999 9999 9999 9999 9999 9999 9999 9999 9999 9999 9999 9999 9999 9999 9999 9999 9999 9999 9999 9999 9999 9999 9999 9999 9999 9999 9999 9999 9999 9999 9999 9999 9999 9999 9999 9999 9999 9999 9999 9999 9999 9999 9999 9999 9999 9999 9999 9999 9999 9999 9999 9999 9999 465.64 466.5 464.14 467.47 468.59 471.35 476.94 479.08 484.49 489.84 495.65 500.85 505.82 511.73 518.98 525.6 529.74 534.02 538.91 544.36 550.4 557.59 564.59 571.15 577.38 582.81 586.42 592.47 597.46 603.61 609.52 614.19 619.41 623.9 627.17 630.32 632.98 637.12 641.03 644.32 646.54 648.98 650.86 651.58 655.99 657.37 658.35 659.38 660.41 661.31 661.88 661.95 663.79 663.96 664.63 665.55 666.2 666.92 667.02 670.71 671.51 672.41 673.11 674.69 675.53 677.43 678.84 681.46 682.41 682.91 683.59 682.84 682.97 682.4 680.51 679.24 677.7 676.47 676.83 676.58 676.55 676.22 674.85 674.17 673.01 672.9 672.91 672.65 673.96 674.95 674.63 675.97 677.35 678.43 679.45 680.66 682.61 685.11 687.27 688.04 689.92 692.03 693.39 695.08 696.87 698.82 700.03 700.3 700.95 701.23 701.4 701.78 701.97 701.54 702.1 701.64 700.15 699.97 699.45 698.32 697.48 696.53 695.4 694.53 692.11 691.57 689.06 687.46 685.05 683.48 681.71 680.23 677.73 675.36 672.43 670.77 668.39 665.55 663.34 660.73 658.47 655.37 652.89 649.82 647.13 644.61 642.58 639.43 636.73 633.87 630.85 628.39 626.08 623.27 620.76 618.46 615.88 613.39 612.74 613.16 612.35 612.03 611.81 611.57 609.42 608.47 607.84 606.79 605.98 605.68 605.73 605.79 605.85 606.92 607.71 609.54 610.96 612.95 614.52 616.97 619.13 620.62 621.91 623.84 625.99 628.11 631.08 631.81 633.64 635.01 637.24 639.52 642.06 644.21 647.37 650.36 653.86 658.72 662.18 668.36 674.04 681.15 685.35 690.84 693.78 697.47 701.26 705.24 709.47 711.54 713.78 716.5 719.37 721.29 724.12 727.09 729.42 732.35 734.94 737.41 739.75 742.04 744.38 748.01 750.64 752.78 754.16 756.44 758.36 759.94 761.24 763.07 763.44 762.7 761.49 759.43 757.77 756.65 757.89 757.23 756.3 754.49 753.32 751.65 750.54 751.56 749.06 746.93 743.47 739.28 734.74 732.31 732.02 731.62 729.79 727.1 723.89 720.74 717.61 714.44 711.95 706.53 702.59 698.6 694.64 690.89 689.41 687.4 683.55 681.32 678.61 675.81 672.45 670.91 668.16 665.73 661.63 658.17 655.3 652.08 648.4 645.43 642.33 639.32 635.88 631.89 628.24 625.41 622.3 620.57 617.38 614.11 610.93 608.87 606.25 603.87 601.12 599.49 595.86 593.64 591.08 588.67 586.54 584.98 585.4 585.48 587.73 588.88 591.61 595.38 599.62 604.57 609.13 612.91 616.28 619.25 621.98 625.7 631.11 633.18 637.38 640.28
9999 9999 9999 9999 9999 9999 9999 9999 9999 9999 9999 9999 9999 9999 9999 9999 9999 9999 9999 9999 9999 9999 9999 9999 9999 9999 9999 9999 9999 9999 9999 9999 9999 9999 9999 9999 9999 9999 9999 9999 9999 9999 9999 9999 9999 9999 9999 9999 9999 9999 9999 9999 9999 9999 9999 9999 9999 9999 9999 9999 9999 9999 9999 9999 9999 9999 9999 9999 9999 9999 9999 9999 9999 9999 9999 9999 9999 9999 9999 9999 9999 9999 9999 9999 9999 9999 9999 9999 9999 9999 9999 9999 9999 9999 9999 9999 9999 9999 9999 9999 9999 9999 9999 9999 9999 9999 9999 9999 9999 9999 9999 9999 9999 9999 9999 9999 9999 9999 9999 9999 9999 9999 9999 9999 9999 9999 461.11 465.23 465.91 467.72 471.13 474.02 479.37 485.87 490.49 496.32 502.42 507.91 515.2 520.91 526.15 532.43 537.4 542.37 546.95 552.53 557.82 562.7 568.44 576.8 581.16 586.53 591.99 598.7 603.37 608.16 615.39 619.2 623 625.91 630.06 631.99 634.81 637.81 642.87 644.99 647.15 648.6 649.63 651.53 652.59 655.07 656.09 656.75 657.87 657.68 657.39 658.06 659.51 661.31 661.97 662.74 662.92 664.3 665.34 666.51 667.44 670.68 671.95 674.05 677.15 678.37 680.15 680.06 682.2 681.7 681.18 680.34 679.02 677.35 675.74 675.44 676.34 676.57 676.98 676.21 676.67 675.46 675.39 674.08 674.45 675.01 675.14 675.59 676.59 677.95 678.32 678.92 680.04 681.71 683.89 684.87 686.18 687.51 689.3 691.66 692.61 694.18 695.98 697.53 698.41 698.98 700.72 700.02 699.76 700.29 699.79 699.82 698.97 700.88 699.92 698.98 697.73 696.65 696.19 694.8 693.43 692.72 691.78 689.54 688.12 686.37 684.26 683.22 680.63 679.05 677.25 674.18 671.37 669.46 667.31 665.79 662.76 660.55 657.61 655.89 652.45 649.54 646.93 644.6 641.91 639.6 636.08 633.66 630.79 627.78 625.27 623.12 620.54 618.07 616.71 615.43 615.11 615.55 614.41 614.69 614.1 613.52 613.12 611.71 610.37 609.31 607.04 607.05 607.29 607.38 607.34 608.47 610.28 610.91 613.48 615.39 617.25 620.48 622.71 624.7 625.07 626.24 628.28 631.32 633.38 636.01 637.74 640.05 640.5 642.41 646.08 647.95 650.53 654.07 657.24 660.54 664.8 669.66 678.46 683.09 687.89 692.67 696.41 699.51 703.71 708.27 710.18 714.07 716.35 719.56 720.71 723.45 726.12 729.41 731.85 734.03 736.44 738.08 740.26 743.45 746.53 748.49 750.79 752.75 755.05 756.33 757.26 759.23 761.23 761.81 759.58 757.43 757.99 756.42 754.17 751.92 751.05 751.05 750.53 750.28 749.27 747 743.83 741.66 740.52 738.49 738.76 734.52 731.74 729.5 727.43 725.3 723.1 722.09 720.53 717.4 714.98 710.36 707.29 703.54 699.92 697 692.17 690.1 688.7 684.72 682.59 679.29 677.96 675.36 672.97 669.5 666.84 663.66 661.4 658.23 654.63 651.39 647.97 645.08 641.19 638.78 634.83 631.44 629.03 624.95 622.02 619.27 616.38 614.19 611.86 609.19 606.15 603.56 601.66 598.76 596.45 593.62 591.28 588.53 587.46 584.59 582.77 583.28 585.23 587.77 590.07 594.36 598.84 602.79 607.76 610.01 613.76 616.36 619.59 622.5 625.78 627.93 630.36 635.74
9999 9999 9999 9999 9999 9999 9999 9999 9999 9999 9999 9999 9999 9999 9999 9999 9999 9999 9999 9999 9999 9999 9999 9999 9999 9999 9999 9999 9999 9999 9999 9999 9999 9999 9999 9999 9999 9999 9999 9999 9999 9999 9999 9999 9999 9999 9999 9999 9999 9999 9999 9999 9999 9999 9999 9999 9999 9999 9999 9999 9999 9999 9999 9999 9999 9999 9999 9999 9999 9999 9999 9999 9999 9999 9999 9999 9999 9999 9999 9999 9999 9999 9999 9999 9999 9999 9999 9999 9999 9999 9999 9999 9999 9999 9999 9999 9999 9999 9999 9999 9999 9999 9999 9999 9999 9999 9999 9999 9999 9999 9999 9999 9999 9999 9999 9999 9999 9999 9999 9999 9999 9999 433.34 435.98 9999 9999 9999 459.38 460.28 465.19 467.86 472.15 475.56 480.39 485.51 490.46 498.38 504.83 510.3 516.06 521.68 527.5 532.61 537.82 544.27 548.77 553.53 558.32 564.06 569.14 574.45 580.26 587.93 593.25 597.58 602.7 606.65 611.8 616.15 623.27 625.61 628.23 631.05 633.82 636.88 639.76 641.61 645.17 646.58 647.48 648.6 649.99 651.09 650.92 651.97 653.46 653.9 654.64 655.47 655.78 656.54 656.7 659.35 660.59 660.84 662.46 664.14 665.41 668.04 670.94 674.14 675.68 677.62 678.18 678.86 679.34 678.97 678.42 677.22 675.64 674.57 674.64 675.38 676.34 677.34 677.21 677.5 676.93 676.28 676.36 676.72 677.27 676.62 677.49 677.76 679.15 679.41 680.59 681.42 682.28 683.31 684.78 686.05 687.03 688.5 690.1 691.06 692.56 694.95 695.28 697.15 698.13 698.21 698.84 698.71 699.16 698.7 698.96 698.08 698.26 697.35 697.39 696.4 695.77 694.84 693.66 692.53 691.13 689.46 687.67 686.81 685.43 683.03 682.33 680.28 677.55 675.96 673.13 671.36 668.85 666.81 664.71 662.42 659.25 657.51 654.54 652.49 649.59 647.43 644.6 640.75 637.61 635.79 633.35 630.39 628.11 625.43 623.09 620.06 618.53 616.05 617 616.71 617.07 617.05 618.07 617.83 615.83 614.9 613.72 612.44 611.2 610.02 608.97 608.35 608.35 609.3 610.35 611.68 613.39 616.79 618.75 619.34 622.62 625.14 627.09 628.35 630.62 632.3 633.6 636.53 638.97 640.22 641.67 643.76 647.26 649.95 650.93 653.54 656.4 660.23 664 669.02 673.51 679.38 684.87 689.97 694.35 697.83 701.6 705.98 709.93 712.07 715.57 718 720.47 723.53 726.71 728.72 730.35 733.1 735.25 737.1 738.92 740.95 744.68 747.47 748.89 751.15 751.69 754.68 755.96 755.78 755.9 758 756.86 754.49 753.51 750.97 749.91 748.3 747.32 745.78 745.94 745.35 744.35 744.09 740.1 739.18 737.65 735.44 732.17 729.26 727.6 726.59 724.28 723.99 721.65 718.71 716.47 713.74 711.7 708.27 705.98 702.91 699.83 696.52 693.02 689.66 687.71 686.43 684.82 681.59 679.29 676.72 674.72 671.2 668.37 665.97 663.48 661.11 656.31 652.81 648.91 645.9 642.94 640.78 637.47 633.48 630.16 627.81 625.16 621.6 618.32 615.47 614.56 611.61 609.34 606.4 603.45 600.94 598.43 596.87 594.23 591.46 589.25 587.01 584.57 582.25 582.15 582.95 585.03 587.54 591.57 597.96 602.26 605.93 608.35 610.82 613.14 616.34 619.97 623.16 624.92 626.83 628.8
9999 9999 9999 9999 9999 9999 9999 9999 9999 9999 9999 9999 9999 9999 9999 9999 9999 9999 9999 9999 9999 9999 9999 9999 9999 9999 9999 9999 9999 9999 9999 9999 9999 9999 9999 9999 9999 9999 9999 9999 9999 9999 9999 9999 9999 9999 9999 9999 9999 9999 9999 9999 9999 9999 9999 9999 9999 9999 9999 9999 9999 9999 9999 9999 9999 9999 9999 9999 9999 9999 9999 9999 9999 9999 9999 9999 9999 9999 9999 9999 9999 9999 9999 9999 9999 9999 9999 9999 9999 9999 9999 9999 9999 9999 9999 9999 9999 9999 9999 9999 9999 9999 9999 9999 9999 9999 9999 9999 9999 9999 9999 9999 9999 9999 9999 9999 9999 9999 9999 9999 9999 429.45 432.71 435.51 438.79 442.33 447.04 451.21 457.44 460.56 464.17 468.75 473.96 477.8 483.24 487.32 494.66 499.99 505.75 510.85 518.4 523.49 529.79 534.48 539.52 544.28 548.77 555.73 560.15 565 571.43 576.35 581.91 586.21 591.03 597.65 602.93 607.54 612.9 616.63 619.46 623.09 625.58 630.65 633.47 636.74 637.61 638.91 639.88 641.09 644.26 646.03 647.15 647.52 647.19 647.63 647.95 648.63 651.38 652.7 652.03 652.25 652.65 654.49 656.02 658.91 660.85 663.91 665.45 667.72 670.01 672.12 673.65 676.16 676.57 677.39 676.89 676.28 674.42 674.26 673.94 674.07 674.98 676.07 677.43 678.05 678.3 678.68 677.84 678.64 678.89 678.91 679.85 680.11 679.78 680.88 680.38 681.32 682.22 683.13 684.11 684.24 685.52 686.89 687.95 689.34 690.1 691.14 692.71 694.05 694.94 696.99 696.61 697.55 697.3 697.22 696.49 697.13 697.08 696.6 695.96 695.02 694.48 692.89 692.39 692.28 691.08 689.37 687.89 686.05 684.61 683.14 682.29 681.05 678.6 676.64 674.72 672.51 670.75 667.9 666.28 663.92 661.19 658.53 656.61 654.26 651.03 649.29 647.36 642.9 640.39 637.39 635.21 632.82 629.81 627.72 624.42 621.98 620.51 618.52 618.91 618.72 619.75 618.71 619.29 619.91 620.03 619.5 618.11 617.23 613.72 612.65 611.07 610.26 609.97 609.52 611.21 613.05 613.34 616.88 618.69 620.53 622.67 624.68 628.03 628.78 631.54 632.98 635.32 637.33 639.44 641.33 643.85 644.21 647.64 649.95 652.04 654.08 657.06 660.41 662.91 667.57 671.75 675.47 679.15 685.12 691.53 695.15 698.99 703.91 707.62 710.75 714.28 717.38 720.44 722.54 725.06 727.92 730.03 732.32 734.07 735.78 738.03 740.64 743.07 745.38 747.58 749.56 751.54 752.41 753.44 754.27 754.7 753.67 751.56 748.94 747.43 747.08 745.95 745.77 744.63 743.44 741.58 739.51 741.48 741.12 738.03 735.53 731.92 729.97 727.78 727.63 725.34 723.22 722.71 721.02 718.07 715.09 711.68 710.26 708.44 706.31 703.96 700.8 696.89 693.65 692.84 689.49 687.7 686.71 684.39 682.86 680.11 678.44 676.48 673.24 669.39 666.38 664.67 661.07 659.36 655.89 652.34 647.19 644.68 642.2 639.19 635.22 631.78 629.9 627.5 622.59 620.56 618.07 615.33 613.19 611.12 608.31 605.87 602.88 600.79 598.57 596.48 594.21 591.4 588.67 586.72 584.11 582.92 580.49 581.55 583.61 586.19 591.35 594.81 598.21 601.46 606.29 608.41 611.05 614.16 615.28 617.95 619.05 621.35 622.85
9999 9999 9999 9999 9999 9999 9999 9999 9999 9999 9999 9999 9999 9999 9999 9999 9999 9999 9999 9999 9999 9999 9999 9999 9999 9999 9999 9999 9999 9999 9999 9999 9999 9999 9999 9999 9999 9999 9999 9999 9999 9999 9999 9999 9999 9999 9999 9999 9999 9999 9999 9999 9999 9999 9999 9999 9999 9999 9999 9999 9999 9999 9999 9999 9999 9999 9999 9999 9999 9999 9999 9999 9999 9999 9999 9999 9999 9999 9999 9999 9999 9999 9999 9999 9999 9999 9999 9999 9999 9999 9999 9999 9999 9999 9999 9999 9999 9999 9999 9999 9999 9999 9999 9999 9999 9999 9999 9999 9999 9999 9999 9999 9999 9999 9999 9999 9999 9999 9999 9999 9999 9999 430.12 433.69 437.25 439.98 443.47 448.72 454.41 457.86 461.33 466.11 469.98 475.36 480.96 487.32 492.41 497.9 502.66 508.49 514.2 518.99 525.68 532 536.83 541.55 546.49 551.92 556.06 561.74 567.32 572.73 576.93 581.58 586.93 590.87 596 601.7 608.54 611.88 615.88 619.08 622.4 625.32 628.49 630.34 633.89 635.79 636.82 638.33 639.32 640.09 641.13 643.89 643.85 643.91 644.62 644.46 645.62 645.74 646.56 648.83 650.4 651.16 652.1 654.86 657.26 659.63 661.22 665.42 667.14 668.89 670.72 672.89 674.1 674.34 675.48 674.24 673.32 673.6 673.48 674.3 675.14 676.57 677.09 678.2 679.15 679.54 680.05 680.22 680.74 680.7 681.45 681.46 681.55 682.42 682.66 683.72 684.17 683.16 683.68 684.16 684.53 686.32 686.46 687.5 689.32 690.07 691.09 691.82 692.81 694.49 695.53 696.05 695.92 694.74 694.98 695.41 695.89 694.66 693.85 693.78 692.44 692.51 691 690.01 689.13 687.56 685.56 684.54 683.49 682.14 680.87 678.76 677.02 675.39 673.54 671.91 669.61 666.99 665.17 662.54 660.14 657.96 655.73 653.23 651.17 648.82 644.98 642.58 640.4 637.28 635.3 632.44 629.22 626.34 624.75 622.83 621.24 619.86 620.17 620.48 621.46 622.23 622.88 623.59 622.1 621.53 620.72 619.04 616.56 615.28 613.54 611.44 611.31 611.32 612.52 615.16 616.94 619.95 622.23 622.83 624.69 626.75 629.13 632.69 634.51 636.64 637.19 639.23 641.2 644.05 646.54 649.02 650.99 653.31 654.07 657.67 659.8 663.72 669.61 674.07 677.22 678.36 682.34 685.73 690.41 697.1 702.17 706.13 709.1 712.84 715.55 718.07 721.34 725.08 727.28 729.72 730.82 733.31 734.81 737.02 739.89 741.29 744.09 745.73 747.95 750.55 751.72 752.06 752.15 752.89 752.69 751.24 750.74 748.48 746.84 743.62 740.89 739.8 740.48 739.08 736.97 735.45 733.65 731.85 729.34 730.01 727.55 726.32 724.18 723.15 721.83 720.33 719.86 717.98 714.65 711.36 708.22 703.51 699.66 697.58 698.28 694.64 691.7 689.49 688.08 686.67 685.69 684.71 683.71 681.32 679.31 677.47 673.83 671.21 668.71 666.61 662.77 658.51 655.9 652.16 647.9 644.35 642.75 640.2 637.34 633.31 630.65 628.18 624.59 622.08 620.56 616.79 614.59 612.68 611.3 607.6 604.8 602.3 600.53 597.49 595.49 593.62 590.76 588.49 586.4 584.61 582.27 580.37 579 580.79 584.78 589.07 592.82 595.88 599.14 601.67 604.13 607.18 609.62 611.44 613.14 613.38 612.85 612.9
9999 9999 9999 9999 9999 9999 9999 9999 9999 9999 9999 9999 9999 9999 9999 9999 9999 9999 9999 9999 9999 9999 9999 9999 9999 9999 9999 9999 9999 9999 9999 9999 9999 9999 9999 9999 9999 9999 9999 9999 9999 9999 9999 9999 9999 9999 9999 9999 9999 9999 9999 9999 9999 9999 9999 9999 9999 9999 9999 9999 9999 9999 9999 9999 9999 9999 9999 9999 9999 9999 9999 9999 9999 9999 9999 9999 9999 9999 9999 9999 9999 9999 9999 9999 9999 9999 9999 9999 9999 9999 9999 9999 9999 9999 9999 9999 9999 9999 9999 9999 9999 9999 9999 9999 9999 9999 9999 9999 9999 9999 9999 9999 9999 9999 9999 9999 9999 9999 9999 9999 9999 9999 428.11 432.14 435.61 439.13 443.78 447 452.32 455.58 458.46 463.95 467.62 473.4 478.54 481.69 488.37 493.99 500.51 507.05 513.42 519.06 524.32 529.75 534.21 538.66 544.94 549.31 555.74 559.68 562.88 566.65 570.77 574.53 581.4 588.41 593.66 598.17 602.66 606.04 610.19 616.25 619.08 622.52 624.5 626.89 629.19 631.22 631.97 634.22 636.98 636.76 637.18 637.23 637.51 638.03 638.48 640.71 641.6 642.01 642.28 642.6 644.3 645.7 649.52 650.69 653.58 656.1 658.35 660.5 662.33 665.01 668.98 670.51 671.93 672.04 671.69 672.06 672.19 672.81 673.33 673.64 674.8 676.76 678.05 679.05 680.11 680.82 681.05 681.48 682.12 682.29 682.79 683.36 682.76 683.49 683.85 683.96 684.2 684.67 684.87 684.04 685.27 685.44 686.08 686.51 686.97 687.79 689.26 690.88 691.47 692.65 693.45 693.78 693.71 693.81 693.12 694.25 693.59 692.92 692.41 692.06 690.6 689.87 689.69 688.01 687.52 685.65 684.55 683.33 681.41 680.11 678.77 677.88 675.82 673.79 672.57 670.17 668.44 665.61 663.86 661.36 659.07 657.12 655.14 653.1 649.57 647.18 645.03 642.31 639.45 636.62 634.53 631.69 628.64 626.22 624.47 622.6 622.07 622.32 622.62 623.85 623.61 624.12 625.35 624.63 625.41 624.98 623.83 620.57 618.5 617.03 615.3 613.54 613.09 613.09 615.03 616.75 618.48 621.44 623.7 625.75 628.07 630.16 632.46 634.55 636.32 638.75 640.48 642.77 645.6 646.83 649.81 651.09 653.7 656.75 661.01 665.03 671.55 670.42 673.52 677.54 680.79 684.85 688.21 691.93 694.18 698.41 702.82 707.34 711 713.58 717.65 720.64 723.52 725.7 728.59 730.91 732.77 734.89 736.54 738.92 740.14 742.43 744.23 747.72 750.68 750.94 751.85 751.77 751.97 751.61 751.34 749.96 748.09 746.57 743.74 740.61 738.88 736.23 733.61 731.42 729.74 730.05 726.21 724.25 723.39 723.35 722.06 721.04 720.72 718.3 717.78 716.09 714.5 712.03 709.31 707.57 703.51 699.85 698.42 694.73 692.41 689.94 687.97 687.44 686.36 684.99 683.68 682.84 681.46 680.66 678.31 675.13 672.62 669.17 666.6 663.51 660.52 657.4 651.97 649.33 646.42 643.08 641.31 638.1 635.24 633.21 628.99 626.2 623.82 621.45 619.16 615.81 612.94 611.38 609.36 607.21 604.08 601.42 599.53 597.26 595.42 592.77 590.19 588.76 585.94 583.91 582.35 579.52 577.68 579.38 581.34 583.83 587.88 592.83 595.9 598.21 601.41 603.25 604.4 605.48 604.81 608.14 606.85 605.38
9999 9999 9999 9999 9999 9999 9999 9999 9999 9999 9999 9999 9999 9999 9999 9999 9999 9999 9999 9999 9999 9999 9999 9999 9999 9999 9999 9999 9999 9999 9999 9999 9999 9999 9999 9999 9999 9999 9999 9999 9999 9999 9999 9999 9999 9999 9999 9999 9999 9999 9999 9999 9999 9999 9999 9999 9999 9999 9999 9999 9999 9999 9999 9999 9999 9999 9999 9999 9999 9999 9999 9999 9999 9999 9999 9999 9999 9999 9999 9999 9999 9999 9999 9999 9999 9999 9999 9999 9999 9999 9999 9999 9999 9999 9999 9999 9999 9999 9999 9999 9999 9999 9999 9999 9999 9999 9999 9999 9999 9999 9999 9999 9999 9999 9999 9999 9999 9999 9999 9999 9999 9999 9999 430.43 435.77 439.57 442.57 446.86 449.91 453.41 455.79 459.56 465.96 470.27 474.96 480.45 485.92 491.36 496.18 504.25 510.37 517.68 523.06 527.22 532.07 537.7 541.92 548.49 552.8 557.34 559.6 563.06 566.41 570.29 576.51 581.53 586.68 594.63 598.88 602.95 606.98 611.48 615.08 618 621.73 624.05 626.86 627.56 628.48 629.98 630.46 631.21 633.42 634.04 634.25 634.29 634.99 635.72 637.03 637.58 639.51 639.51 641.07 642.81 645.7 647.23 649.49 652.6 654.78 657.82 660.33 662.94 664.87 666.15 667.73 669.63 669.65 670.92 671.95 672.83 673.29 673.76 674.99 676.89 678.4 679.45 681.23 681.61 682.17 682.64 682.74 683.51 683.59 684.34 684.54 684.97 685.63 685.11 684.93 685.27 684.91 684.99 684.25 684.52 684.12 686.04 685.92 686.69 687.24 688.73 689.75 690.3 691.22 692.13 691.53 691.76 691.66 690.77 691.38 690.55 691.05 690.68 689.16 688.23 687.26 685.6 684.94 684.36 682.86 681.74 679.73 678.28 677.34 675.49 673.61 672.74 670.93 668.96 666.47 663.91 662.5 659.76 658.5 656.43 654.16 651.02 648.8 646.06 643.76 641.4 639.08 636.42 633.69 630.65 628.08 626.36 624.95 623.82 623.19 623.4 625.14 625.56 625.94 627 628.03 627.91 627.87 627.63 625.49 623.6 621.35 620.09 616.9 615.06 614.51 615.26 616.63 619.11 621.43 623.58 625.3 627.11 630.36 632.47 634.7 637.46 639.86 640.88 642.62 644.89 648.31 650.67 652.71 654.46 656.18 661 666.68 674.37 677.46 680.23 683.32 685 685.25 688.13 692.41 696.66 699.48 703.02 705.64 708.5 712.19 715.12 719.99 722.63 725.37 727.72 730.16 732.21 732.89 736.13 738.2 739.99 742.36 743.38 746.21 749.62 750.6 750.87 750.87 750.79 750.54 751.08 749.19 748.9 746.42 743.24 739.55 736.77 734.39 733.53 731.14 728.47 725.37 723.92 721.57 719.81 720.05 720.76 719.03 716.64 714.22 712.6 711.16 711.31 709.79 707.28 704.16 701.27 698.26 696.13 695.38 692.59 690.38 688.39 685.8 684.34 682.94 681.98 681.84 680.5 679.22 678.31 674.21 672.05 670.01 668.18 663.87 661.46 657.33 651.1 648.01 646.09 644.76 642.16 639.5 636.76 633.76 630.16 627.48 624.84 622.72 619.79 617.3 614.2 611.85 609.99 607.92 606.16 603.95 601.29 598.9 596.45 593.13 591.08 589.41 587.46 585.86 583.68 581.82 578.32 576.74 577.71 579.57 581.83 585.14 588.98 591.58 593.42 598.06 600.03 601.08 600.15 597.61 597.03 595.57 594.43
9999 9999 9999 9999 9999 9999 9999 9999 9999 9999 9999 9999 9999 9999 9999 9999 9999 9999 9999 9999 9999 9999 9999 9999 9999 9999 9999 9999 9999 9999 9999 9999 9999 9999 9999 9999 9999 9999 9999 9999 9999 9999 9999 9999 9999 9999 9999 9999 9999 9999 9999 9999 9999 9999 9999 9999 9999 9999 9999 9999 9999 9999 9999 9999 9999 9999 9999 9999 9999 9999 9999 9999 9999 9999 9999 9999 9999 9999 9999 9999 9999 9999 9999 9999 9999 9999 9999 9999 9999 9999 9999 9999 9999 9999 9999 9999 9999 9999 9999 9999 9999 9999 9999 9999 9999 9999 9999 9999 9999 9999 9999 9999 9999 9999 9999 9999 9999 9999 9999 9999 9999 9999 9999 430.35 435.17 438 441.69 443.62 446.3 450.47 454.58 459.62 464.06 468.13 473.64 477.56 481.77 487.07 495.75 501.91 508.52 513.67 520.03 525.58 530.76 538 542.25 546.54 550.56 553.95 556.45 559.52 563.37 568.01 573.39 577.36 582.21 587.33 591.43 595.51 604.47 608.48 612.17 615.13 616.93 619.2 621.32 622.16 626.16 626.54 626.46 627.63 628.15 627.64 628.33 631.27 631.66 633 634.8 636.57 637.47 637.92 638.33 640.93 642.95 644.63 646.35 648.7 650.7 652.75 657.41 660.15 661.74 663.61 665.22 666.29 667.61 670.18 671.54 672.85 673.93 674.86 675.94 677.71 679.08 681.03 681.15 681.88 682.58 683.29 683.4 683.99 684.09 685.15 685.32 685.86 685.33 686.01 685.95 685.04 684.82 684.15 684.29 683.7 683.02 683.3 683.18 684.28 685.78 686.69 687.69 688.72 689.34 689.32 689.1 688.69 689.76 689.33 689.39 689.01 688.32 687.41 686.37 687.11 685.55 684.2 683.03 681.83 681 678.74 677.66 676.76 675.4 674 672.63 670.6 668.08 666.43 664.79 663.54 661.27 658.86 657.39 654.9 651.66 649.71 648.48 645.97 643.33 641.07 638.41 634.88 632.82 630.18 628.36 626.47 626.16 624.97 625.02 626.31 626.32 627.47 628.13 629.66 630.91 631.62 631.57 631.42 627.48 625.21 623.73 621.83 618.66 617.22 617.84 616.78 617.87 620.98 623.08 625.06 628.05 630.93 633 634.2 636.39 639.19 641.74 644.08 646.25 648.39 650.95 653.56 656.06 659.2 663.92 670.57 678.47 680.05 683.4 686.03 688.47 691.35 691.97 693.97 697.05 699.78 702.95 705.39 708.39 711.45 714.85 718.72 721.33 724.31 726.26 729.15 731.29 733.05 735.46 737.37 739.46 740.71 742.99 744.61 746.68 748.44 749.72 750.77 750.75 750.04 749.26 748.31 746.59 743.38 742.22 738.88 735.98 733.63 730.77 727.79 725.84 723.54 722.87 720.67 718.51 717.61 716.16 715.05 712.28 712.04 710.38 708.73 707.12 705 703.6 698.87 699.83 697.14 695.11 693.06 691.82 688.74 685.49 684.82 683.6 682.1 681.53 680.88 678.71 675.99 672.94 673.86 671.61 667.64 664.73 663.03 660.26 657.26 652.46 649.39 645.74 643.68 641.57 638.62 636.76 633.12 630.11 627.52 624.66 623.27 620.49 617.84 615.6 613.81 611.46 608.4 606.65 604.74 602.35 600.41 597.45 595.21 592.57 590.63 589.21 586.59 584.92 583.45 581.15 578.73 575.7 575.06 576.79 578.46 583.19 586.67 588.23 589 589.75 591.62 592.56 596.3 594.03 592.4 591.48 590.17
9999 9999 9999 9999 9999 9999 9999 9999 9999 9999 9999 9999 9999 9999 9999 9999 9999 9999 9999 9999 9999 9999 9999 9999 9999 9999 9999 9999 9999 9999 9999 9999 9999 9999 9999 9999 9999 9999 9999 9999 9999 9999 9999 9999 9999 9999 9999 9999 9999 9999 9999 9999 9999 9999 9999 9999 9999 9999 9999 9999 9999 9999 9999 9999 9999 9999 9999 9999 9999 9999 9999 9999 9999 9999 9999 9999 9999 9999 9999 9999 9999 9999 9999 9999 9999 9999 9999 9999 9999 9999 9999 9999 9999 9999 9999 9999 9999 9999 9999 9999 9999 9999 9999 9999 9999 9999 9999 9999 9999 9999 9999 9999 9999 9999 9999 9999 9999 9999 9999 9999 9999 9999 9999 9999 431.35 436.4 438.67 442.18 445.14 450.54 454.36 457.94 461.48 466.32 470.26 474.85 480.13 487.36 491.41 497.03 504.93 512.17 518.18 524.55 533.1 537.41 541.26 544.69 548.57 551.53 555.04 558.13 560.46 563.22 567.38 570.99 576.53 581.59 585.96 592.53 597.34 600.98 605.51 611.45 613 615.72 617.58 618.79 619.52 619.73 620.39 623.86 623.16 623.89 625.24 626.37 627.56 629.68 632.94 635.53 636.51 637.08 637.81 638.19 638.78 640.56 643.44 645.77 648.7 650.98 653.11 655.96 657.51 659.64 662.38 665.24 668.27 670.77 672.1 673.15 674.4 674.34 676.31 678.09 680.03 681.32 681.84 682.75 682.89 683.32 684.04 683.66 684.69 685.21 685.67 686.05 685.81 686.39 685.12 684.96 683.63 683.1 682.77 682.62 682.32 682.34 682.25 682.89 683.77 684.07 685.13 686.61 686.67 687.47 687.18 687.26 687.51 686.97 686.56 686.84 686.22 685.58 684.69 684.02 682.89 682.05 681.9 680.56 678.58 677.57 676.51 674.63 673.89 671.65 671.08 667.71 666.84 664.91 663.24 661.46 659.24 657.83 655.67 652.95 650.79 649.01 646.71 644.73 642.07 640.7 636.73 634.46 632.23 630.81 628.82 627.06 626.35 626.1 626.67 627.85 629.02 630.03 631.31 633.08 632.92 633.18 633.55 632.67 631.21 627.76 625.62 622.82 620.19 618.49 619.22 619.34 621.21 622.93 624.48 626.57 630.11 632.44 635.4 637.62 639.64 642.74 643.43 646.21 648.47 651.84 655.11 659.44 662.89 664.7 670.26 678.94 684.47 687.92 691.25 692.3 694.61 694.51 695.39 697.17 700.42 703.85 706.59 709.29 710.63 715.23 717.29 719.92 723.45 726.77 728.89 730.43 731.64 734.94 737.14 739.18 740.67 742.8 744.23 745.15 747.06 748.23 749.19 749.42 749.62 748.68 748.58 747.15 744.25 742.61 739.18 736.81 733.66 730.8 728.17 725.42 722.64 720.36 718.94 716.52 713.73 713.26 711.48 708.03 707.74 706.11 704.9 703 702.84 701.18 697.93 694.88 692.51 690.75 688.88 690.29 688.11 684.33 682.37 680.61 679.29 678.41 679.7 678.36 676.34 672.01 668.82 665.34 662.86 661.08 661.28 658.3 654.51 651.82 647.23 644.4 642.02 641.06 639.22 636.51 632.86 629.25 628 625.58 623.39 621.56 619.38 616.56 614.52 612.07 609.9 607.08 605.93 603.53 602.05 598.18 596.61 593.85 591.87 590.62 588.1 585.99 583.9 581.97 579.98 577.99 575.54 573.5 574.45 575.39 579.28 582.42 583.61 585.47 585.54 586.95 587.98 589.19 588.45 587.24 587.43 586.9
9999 9999 9999 9999 9999 9999 9999 9999 9999 9999 9999 9999 9999 9999 9999 9999 9999 9999 9999 9999 9999 9999 9999 9999 9999 9999 9999 9999 9999 9999 9999 9999 9999 9999 9999 9999 9999 9999 9999 9999 9999 9999 9999 9999 9999 9999 9999 9999 9999 9999 9999 9999 9999 9999 9999 9999 9999 9999 9999 9999 9999 9999 9999 9999 9999 9999 9999 9999 9999 9999 9999 9999 9999 9999 9999 9999 9999 9999 9999 9999 9999 9999 9999 9999 9999 9999 9999 9999 9999 9999 9999 9999 9999 9999 9999 9999 9999 9999 9999 9999 9999 9999 9999 9999 9999 9999 9999 9999 9999 9999 9999 9999 9999 9999 9999 9999 9999 9999 9999 9999 9999 9999 9999 9999 430.49 435.07 437.67 440.77 445.43 449.03 453.01 455.91 459.37 463.59 467.94 473.61 480.01 484.56 489.64 494.55 500.66 507.3 513.86 523.29 531.13 537.19 540.63 544.35 546.01 547.47 552.07 555.62 557.22 559.98 562.68 565.5 569.45 574.7 579.75 586.12 592.15 596.31 601.2 603.61 605.31 609.2 613.58 614.19 614.66 615.71 615.91 617.36 617.6 618.44 621.16 623.13 624.93 627.17 630.1 631.64 634.23 634.95 636.28 636.55 636.38 637.31 639.77 642.85 644.99 648.75 650.86 652.94 654.93 656.67 659.34 663.24 666.64 669.28 672.39 674.19 674.85 675.68 677.28 678.86 680.64 681.77 682.45 683.22 682.93 683.91 683.98 683.8 684.41 684.94 685.24 685.03 685.78 685.09 685.55 685.1 683.84 682.47 681.98 681.62 680.16 680.15 679.95 681.38 681.89 681.71 682.94 683.57 684.15 684.23 685.44 685.1 684.75 684.46 684.8 684.34 684.49 683.17 683.77 682.2 681.11 679.92 678.62 677.22 676 675.69 674.37 673.08 671.56 669.63 667.99 666.21 664.4 663.75 661.84 660.04 657.57 655.02 652.66 651.32 650.28 647.99 645.96 644.21 642.06 638.81 635.99 634.48 631.75 630.43 629.03 627.77 628.36 628.15 628.77 629.75 631.04 632 633.03 634.56 636.61 636.78 636.53 634.82 633.85 630.44 627.46 625.25 623.68 621.61 620.25 620.66 622.42 624.61 627.33 629.95 632.66 634.84 636.3 639.34 641.67 644.86 648.11 650.4 653.53 655.92 660.06 663.92 668.4 675.78 680.13 685.46 688.85 691.66 692.58 695.45 697.73 699.43 701.23 702.55 703.58 706.28 709.48 711.97 715.18 717.55 720.79 721.98 725.33 728.02 730.02 731.93 734.68 737.02 738.17 740.25 741.7 743.13 744.38 746.12 746.98 747.55 749.26 748.81 748.52 747.71 745.96 744.65 742.2 739.77 737.69 735.13 732.14 728 724.64 722.05 720.62 718.66 715.59 713.66 710.54 709.15 706.11 704.52 703.84 702.22 702.02 700.15 697.81 693.22 691.09 690.52 687.6 686.51 685 683.48 680.97 679.35 679.42 678.28 676.8 674.86 674.89 673.08 670.59 668.29 666.03 662.38 660.35 658.34 655.82 652.37 650.12 647.18 644.59 643.39 640.44 638.48 636.31 633.32 631.3 629.59 626.89 624.21 621.89 619.23 616.89 616.07 613.62 611.26 607.99 606.53 604.42 601.36 599.49 597.68 594.66 592.89 590.79 588.93 586.7 584.71 582.98 581.02 580.13 577.42 576.44 573.61 571.62 573.21 574.2 577.32 578.36 579.06 579.77 581.28 584.73 585.09 583.2 581.8 581.21 581.85
9999 9999 9999 9999 9999 9999 9999 9999 9999 9999 9999 9999 9999 9999 9999 9999 9999 9999 9999 9999 9999 9999 9999 9999 9999 9999 9999 9999 9999 9999 9999 9999 9999 9999 9999 9999 9999 9999 9999 9999 9999 9999 9999 9999 9999 9999 9999 9999 9999 9999 9999 9999 9999 9999 9999 9999 9999 9999 9999 9999 9999 9999 9999 9999 9999 9999 9999 9999 9999 9999 9999 9999 9999 9999 9999 9999 9999 9999 9999 9999 9999 9999 9999 9999 9999 9999 9999 9999 9999 9999 9999 9999 9999 9999 9999 9999 9999 9999 9999 9999 9999 9999 9999 9999 9999 9999 9999 9999 9999 9999 9999 9999 9999 9999 9999 9999 9999 9999 9999 9999 9999 9999 9999 9999 9999 432.86 437.23 440.95 443.18 446.65 449.89 454.49 457.76 461.86 467.69 472.08 477.21 480.54 485.77 491.24 497.33 502.94 511.97 519.27 525.77 531.88 537.87 542.13 543.83 546.78 548.87 550.68 552.65 554.44 559.09 561.67 566 570.2 574.92 578.39 582.15 587.56 595.31 598.18 601.61 604.33 606.43 608.28 608.34 607.86 610.5 613.09 613.53 614.72 616.61 617.63 619.35 624.41 626.88 630 630.75 632.45 632.88 633.32 634.06 635.92 638.43 640.87 642.71 644.7 647.06 648.91 652.2 655.31 657.71 661.15 664.92 668.2 670.77 673.07 674.59 676.07 678.04 679.22 680.14 681.76 682.42 682.34 683.23 683.51 683.68 684.21 683.89 684.71 684.52 684.75 684.93 684.85 684.12 684.4 682.91 681.46 680.07 680.37 679.65 679.22 679.23 678.86 678.44 679.99 681.25 681.35 681.88 682.33 682.66 682.46 681.97 681.99 683.01 682.7 682.43 681.34 680.35 679.93 678.81 677.82 677.36 676.09 674.58 673.27 671.63 670.65 668.76 667.3 666.61 664.75 663.4 660.95 659.15 657.41 655.45 654.2 652.35 650.53 648.09 646.31 644.38 641.91 639.63 637.97 635.57 633.25 632.04 630.34 629.83 628.55 629.11 629.91 630.82 632.2 634.04 635.13 636.15 637.68 638.29 638.55 638.74 637.95 637.21 633.58 627.92 626.84 624.75 623.12 621.65 622.71 624.56 627.06 629.6 631.55 635.21 637.55 639.81 642.77 645.61 648.39 651.21 653.37 657.14 662.81 668.59 672.91 675.86 678.55 682.43 687.14 691.12 694.31 696.68 698.6 700.21 702.26 704.69 705.75 708.09 710.79 714.06 715.37 717.5 720.33 722.6 725.66 728.12 730.34 732.34 733.64 735.9 737.9 739.79 741.7 743.05 743.56 745.57 746.71 747.29 747.68 747.77 747.32 747 746.47 745.05 743.25 740.42 736.49 734.5 731.24 728.63 724.12 721.27 719.38 716.89 714.53 712.42 710.72 708.2 706.22 703.98 701.97 700.1 699.07 696.81 695.85 693.17 690.96 688.8 686.76 685.19 683.41 682.71 680.4 678.13 676.33 675.17 674.14 672.29 672.79 669.18 666.95 663.7 660.9 660.66 659.62 657.35 656.05 652.64 650.04 648.28 645.11 642.21 640.33 639.26 636.03 634.36 631.61 628.66 627.01 623.77 622.01 620.01 617.22 615.25 612.93 611.43 609.06 607.47 605.05 602.7 599.54 597.36 595.15 594.03 591.54 590.38 587.63 585.75 583.83 581.8 580.05 578.46 576.93 575.45 572.86 571.36 570.24 570.15 570.31 573.84 575.45 577.31 577.89 578.45 578.77 577.15 578 577.74 578.52
9999 9999 9999 9999 9999 9999 9999 9999 9999 9999 9999 9999 9999 9999 9999 9999 9999 9999 9999 9999 9999 9999 9999 9999 9999 9999 9999 9999 9999 9999 9999 9999 9999 9999 9999 9999 9999 9999 9999 9999 9999 9999 9999 9999 9999 9999 9999 9999 9999 9999 9999 9999 9999 9999 9999 9999 9999 9999 9999 9999 9999 9999 9999 9999 9999 9999 9999 9999 9999 9999 9999 9999 9999 9999 9999 9999 9999 9999 9999 9999 9999 9999 9999 9999 9999 9999 9999 9999 9999 9999 9999 9999 9999 9999 9999 9999 9999 9999 9999 9999 9999 9999 9999 9999 9999 9999 9999 9999 9999 9999 9999 9999 9999 9999 9999 9999 9999 9999 9999 9999 9999 9999 9999 9999 9999 430.02 436.01 439.78 442.77 445.57 448.39 451.91 454.35 459.93 464.01 469.9 474.17 478.14 482.55 486.85 494.36 499.41 507.17 514.96 522.73 528.26 533.49 537.65 541.17 542.95 546.38 547.15 548.69 551.22 553.06 556.48 558.71 561.94 569.13 573.29 576.21 579.55 586.84 590.38 594.76 599.75 602.15 603.86 604.05 603.29 604.57 605.89 607.56 611.06 612.48 613.73 616.11 618.84 622.09 624.65 627.25 629.56 630.83 631.64 632.41 633.3 635.16 637.65 640.74 642.4 645.06 646.28 649.1 651.26 654.42 657.76 662.95 666.41 669.1 672.22 673.77 675.06 676.52 678.15 679.44 680.58 681.51 682.5 682.23 682.21 682.83 683.75 683.69 684.12 683.72 683.39 683.81 683.52 683.58 682.43 682.56 680.58 679.38 678.44 677.15 676.73 677.95 677.81 677.3 677.73 678.14 678.91 679.38 679.94 680.67 680.15 679.95 680.18 679.69 679.96 679.35 678.77 679.17 678.47 677.38 676.66 674.66 674.03 672.68 671.94 670.19 668.49 667.17 665.31 664.23 662.54 661.63 659.51 657.33 655.72 654.27 652.16 649.82 649.54 647.44 645.87 642.53 640.94 639.12 637.04 634.75 633.48 631.82 631.08 630 629.87 631.19 631.91 632.01 633.91 635.82 637.64 640.21 640.76 641.33 640.68 640.4 639.57 638.05 633.94 631.56 628.94 627.38 624.15 623.2 624.63 626.88 628.89 631.3 634.46 636.46 639.58 642.4 646.56 649.47 651.73 655.1 658.03 660.23 665.89 672.2 676.99 679.51 683.35 686.05 688.69 692.05 695.21 698.46 700.7 703.66 705.03 706.97 708.57 711.19 715.71 718.17 720.55 722.85 725.12 725.2 728.09 729.7 732.35 733.82 735.77 737.69 738.34 740.21 742.68 743.74 745.03 745.87 746.56 747.34 747.42 747.05 746.54 745.7 743.8 742.51 739.05 737.4 733.97 731.26 726.43 721.5 717.63 716.74 716.37 714.54 712.1 709.56 707.04 705.43 702.99 702.62 699.77 697.17 696.21 693.56 691.5 689.43 687.9 686.37 684.1 682.64 680.54 678.01 676.23 674.45 674.45 673.1 671.23 669.92 667.39 665.09 662.64 661.07 659.85 658.54 656.68 654.67 652.13 649.44 647.84 646.75 643.34 641.29 638.76 635.82 632.99 630.78 629.05 627.72 624.78 622.83 620.27 617.6 615.55 613.91 611.51 609.65 607 605.36 601.17 599.82 598.85 596.66 594.61 592.18 590.28 587.68 585.94 583.98 582.53 580.33 580.05 577.49 576.68 573.74 572.6 571.23 569.17 569.01 568.74 569.43 571.44 572.08 573.32 573.97 573.38 573.14 573.6 574.13 573.68
9999 9999 9999 9999 9999 9999 9999 9999 9999 9999 9999 9999 9999 9999 9999 9999 9999 9999 9999 9999 9999 9999 9999 9999 9999 9999 9999 9999 9999 9999 9999 9999 9999 9999 9999 9999 9999 9999 9999 9999 9999 9999 9999 9999 9999 9999 9999 9999 9999 9999 9999 9999 9999 9999 9999 9999 9999 9999 9999 9999 9999 9999 9999 9999 9999 9999 9999 9999 9999 9999 9999 9999 9999 9999 9999 9999 9999 9999 9999 9999 9999 9999 9999 9999 9999 9999 9999 9999 9999 9999 9999 9999 9999 9999 9999 9999 9999 9999 9999 9999 9999 9999 9999 9999 9999 9999 9999 9999 9999 9999 9999 9999 9999 9999 9999 9999 9999 9999 9999 9999 9999 9999 9999 9999 9999 9999 435.1 437.75 440.95 444.69 447.97 449.73 454.36 458.09 461.33 465.57 470.28 474.14 479.72 486.04 490.72 495.2 500.07 507.81 515.18 523.5 530.53 534.86 538.12 540.42 542.12 542.34 544.05 547.39 550.69 552.41 555.07 556.93 560.58 565.56 569.37 575.97 580.14 586.05 589.62 594.22 595.79 597.43 600.06 600.34 600.92 602.01 603.24 604.67 606.34 607.41 612.24 615.07 618.07 620.44 621.65 623.83 625.4 628.18 629.84 631.83 633.33 635.7 637.2 639.42 641.2 644.41 646.83 648.61 651.77 655.31 659.38 662.25 667.14 670.05 671.61 673.13 674.49 675.92 677.85 679.93 680.99 680.35 681.35 681.23 681.76 682.05 681.88 682.68 682.89 682.59 682.37 682.07 681.15 681.11 679.99 679.33 678.66 677.21 676.23 675.62 675.68 674.47 674.81 676.32 675.61 676.92 677.13 677.03 677.3 676.93 678.09 678.33 677.27 677.74 677.62 676.51 676.49 674.46 675.17 674.68 673.13 670.88 670.02 668.88 667.46 666.2 665.76 663.98 662.52 660.53 659.5 656.7 655.57 654.03 652.36 650.8 648.87 646.75 645.07 643.27 641.53 639.85 637.68 636.19 634.64 633.17 631.81 631.43 631.21 631.41 632.35 633.63 634.65 636.83 639.05 640.6 641.86 642.22 643.11 643.42 642.69 641.39 639.71 636.62 633.82 630.86 629.02 626.75 625.65 627.3 628.6 630.48 633.16 636.61 640.31 642.99 647.22 648.8 651.05 654.94 657.81 661.49 664.99 670.22 674 678.08 681.4 685.04 688.08 691.33 693.75 697.43 699.66 702.96 705.67 707.72 710.19 713.21 717.39 718.74 721.17 723.92 725.58 727.77 729.92 731.09 733.07 733.72 735.66 737.14 738.08 739.8 741.67 743.39 744.38 744.97 745.66 746.01 747.02 746.49 745.65 744.95 744.69 743 741.04 736.27 733.38 730.05 724.4 722.38 719.07 715.45 714.14 712.25 710.43 708.01 706.63 704.46 702.19 701.03 698.23 696.44 694.77 692.2 691.63 688.85 686.88 685.16 682.25 681.08 677.74 677.49 675.56 673.84 671.86 670.99 669.27 667.33 666.47 665.1 663.47 661.54 658.93 656.87 655.2 654.14 653.08 650.63 648.5 646.38 644.44 641.44 639.57 636.58 634.08 632.72 629.72 627.53 625.24 622.83 621.04 618.73 615.91 614.22 612.14 609.31 607.64 605.42 602.46 600.96 598.99 596.64 594.68 592.71 591.39 588.4 587.23 585.11 583.68 581.33 579.52 577.94 576.27 574.99 573.04 572.77 571 569.39 568.22 568.2 568.07 568.98 569.65 569.45 569.73 569.84 570.66 571.63 570.78 571.07
