9999 9999 685.83 686.75 687.64 687.69 686.4 684.3 680.66 679.11 677.74 676.48 675.9 676.23 676.07 676.61 676.27 675.9 676.11 676.41 676.63 676 676.14 675.83 676.44 675.54 675.1 674.31 673.36 672.64 670.55 669.6 668.25 667.67 666.53 665.52 663.45 662.26 660.79 658.88 657.13 655.89 654.02 650.54 649.65 648.34 646.73 646.38 644.18 642.58 639.99 638.06 636.38 634.78 632.44 632.18 629.92 628.14 626.21 624.28 623.66 621.31 619.55 616 613.88 611.65 608.33 606.01 603.53 603.38 601.69 600.58 598.22 596.04 595.85 594.9 594.3 592.48 593.28 592.86 593.18 591.99 592.03 592.64 592.02 593.2 593.43 594.35 593.96 593.34 593.41 594.24 594.66 594.45 592.78 591.84 587.99 585.93 585.72 584.75 585.27 583.01 581.06 577.87 577.1 577.18 578.06 580.15 581.31 582.74 584.33 582.06 580.99 580.97 580.18 580.03 579.61 578.95 576.64 566.83 564.51 560.84 554.86 548.46 543.29 536.04 526.38 519.85 513.29 507.91 503.02 499 493.08 488.19 483.03 478.93 476.28 472.28 468.21 463.56 462.2 458.12 456.59 455.58 453.83 451.58 449.98 448.21 446.58 443.57 441.94 440.96 440.41 438.91 439.21 438.36 436.42 434.81 435.27 435.41 434.92 433.74 432.64 430.41 430.34 430.59 430.55 430.38 431.07 431.12 431.16 430.4 430.45 9999 9999 9999 9999 9999 9999 9999 9999 431.81 431.75 9999 9999 433.24 432.04 431.92 432.02 432.01 436.46 437.83 438.44 439.28 439.84 439.48 440.05 440 440.61 440.05 440.41 439.55 439.77 440.1 440.58 440.05 440.08 440.73 439.88 439.73 440.33 439.18 439 439.33 439.19 439.29 438.74 438.83 438.48 438.63 438.77 438.36 438.9 438.66 438.47 438.63 438.73 438.92 438.94 439.43 438.73 9999 9999 438.82 439.3 439.27 439.4 439.88 439.43 440.22 439.54 439.26 439.79 439.51 439.36 439.57 439.62 439.52 439.62 439.78 439.78 440.12 439.87 440.16 440.3 439.86 440.35 439.85 440.31 440.13 440.55 440.52 441.03 441.17 440.94 441.36 441.17 441.38 441.67 441.83 441.83 442.03 442.14 442.43 442.56 442.89 442.48 443.4 442.99 442.75 443.37 443.26 443.04 443.92 443.91 443.8 444.53 444.38 444.94 444.59 445.05 444.98 445.03 445.24 444.83 445.39 445.21 445.78 445.43 445.79 445.46 445.11 445.44 445.55 446.55 445.8 445.53 445.69 447 446.9 447.35 9999 445.3 445.94 446.63 9999 9999 9999 9999 9999 447.92 447.24 447.87 448.28 448.97 452.26 459.27 463.52 463.43 463.51 460.15 457.05 461.42 468.66 471.44 474.58 479.53 480.72 485.77 487.19 489.97 491.31 493.44 495.16 497.36 499.16 501.37 504.82 505.68 507.37 506.38 507.53 507.44 508.97 509.57 510.98 511.62 514.39 514.9 516.03 517.05 518.97 519.8 520.75 519.84 521.82 522.26 521.22 522.03 521.3 519.62 517.65 515.01 513.36 512.34 514.11 9999 9999 9999 9999 9999 9999 9999 9999 9999 9999 9999 9999 9999 9999 9999 9999 9999 9999 9999 9999 9999 9999 9999 9999 9999 9999 9999 9999 9999 9999 9999 9999
9999 9999 687.34 688.23 687.97 687.58 686.28 683.92 681.29 677.67 676.15 675.84 675.92 675.76 675.06 676.09 675.7 675.52 675.12 675.05 675.95 675.57 675.11 675.02 674.4 674.83 674.24 673.88 673.08 671.4 669.98 669.23 667.92 666.23 665.38 663.51 661.99 660.28 658.74 657.21 654.56 653.21 652.13 650.37 648.41 646.99 645.88 643.64 642.37 640.93 638.96 636.4 634.25 632.3 630.62 628.85 626.76 626.02 624.61 622.91 620.83 618.86 615.14 612.79 610.06 608.05 607.14 603.41 601.22 600.43 598.59 597.15 594.97 593.31 592.64 592.65 591.32 590.32 588.2 587.52 587.8 588.34 588.78 589.2 590.03 588.3 589.05 590.37 590.56 590.38 590.31 590.96 590.54 588.12 586.93 585.65 584.75 583.34 582.38 580.9 577.39 575.95 573.7 573.71 573.84 573.26 575.1 576.15 575.83 577.03 575.18 575.68 574.32 574.35 572.97 567.56 565.74 565.16 561.69 558.75 554.52 549.37 544.2 535.94 531.36 526.35 519.56 512.4 506.49 502.09 495.8 491.56 488.57 484.65 479.77 475.93 471.32 468.36 463.96 460.8 458.13 455.56 454.76 453.04 451.3 448.23 447.11 444 443.17 441.71 440.73 439.74 438.77 436.99 435.3 435.2 434.38 434.66 434.92 434.32 433.38 432.26 430.76 430.38 431 430.57 9999 9999 9999 9999 430.49 431.17 430.65 430.68 431.57 9999 9999 9999 9999 9999 9999 9999 9999 9999 9999 432.44 431.99 431.93 432.3 432.35 436.47 437.44 439.24 439.26 439.25 439.82 440.06 439.89 439.81 440.1 440.24 440.18 440.19 439.58 439.47 439.51 439.82 440.08 439.69 439.62 439.94 439.86 438.7 439.19 438.86 438.6 438.45 439.1 438.39 438.74 438.23 438.67 437.99 438.77 438.23 438.71 439.07 438.96 438.84 439.19 439.05 9999 9999 439.35 439.61 439.39 439.58 439.45 439.57 440.23 439.29 438.99 439.26 439.88 439.41 439.4 439.88 439.75 439.64 439.29 439.81 440.12 439.48 439.62 440.2 439.36 439.79 440.07 440.55 439.89 440.29 440.67 440.82 440.98 441 440.76 441.18 441.56 441.36 442.16 441.85 442.27 442.27 442.87 442.46 442.45 442.81 442.28 442.31 442.72 442.89 442.6 443.23 443.34 443.79 444.34 444.36 444.24 444.56 444.86 444.38 444.86 444.53 444.41 445.03 444.81 445.67 445.41 445.81 446.01 444.79 444.59 445.8 445.7 445.41 446.24 445.72 446.32 446.8 9999 9999 445.31 446.08 447.28 448.6 449.67 449.41 449.79 449.4 448.2 449.9 450.61 449.24 451.77 455.54 460.08 463.41 465.53 465.71 467.91 464.97 463.17 461.05 466.88 471.59 475.89 480.29 483.36 485.65 488.18 489.83 492.28 494.48 497.86 499.96 502.26 503.55 506.01 506.84 507.45 507.85 508.81 508.66 510 511.71 512.3 514.09 515.77 517.25 517.59 518.17 520.09 520.75 522.49 522.84 523.87 524 524.94 524.69 523.72 522.59 520.37 519.01 515.36 514.15 516.37 9999 9999 9999 9999 9999 9999 9999 9999 9999 9999 9999 9999 9999 9999 9999 9999 9999 9999 9999 9999 9999 9999 9999 9999 9999 9999 9999 9999 9999 9999 9999 9999
9999 9999 687.31 689.09 688.75 688.09 686.22 684.49 681.57 678.88 676.49 676.2 675.75 676 675.74 675.66 676.03 675.51 675.33 675.1 675.6 675.66 675.05 675.09 675.43 674.74 674.4 674.24 673.69 672.45 670.68 669.38 667.82 666.1 664.98 663.19 660.83 658.91 656.82 655.19 653.74 652.15 650.68 649.47 646.57 644.87 643.54 642.42 640.27 638.6 636.99 635.16 631.48 629.49 628.13 626.9 624.38 623.09 621.98 618.23 617.32 614.44 613.35 610.85 609.07 606.26 604.07 600.07 597.87 596.87 595.66 595.3 593.54 591.39 589.65 588.75 587.05 584.99 585.9 584.83 584.83 585.23 583.92 584.91 585.04 585.74 586.51 587.07 587.77 588.09 585.79 585.2 584.69 584.64 583 581.42 579.98 577.25 577.59 575.61 572.99 570.12 568.8 569.53 569.25 567.97 568.83 570.79 569.91 568.81 569.04 568.45 565.33 563.3 560.96 560 558.09 555.75 552.07 549.02 541.22 535.84 531.85 528.62 524.08 518.4 514.47 504.15 497.8 494.24 489.58 487.17 484.84 482.07 478.34 471.39 467.61 463.77 460.43 458.16 455.53 454.24 450.51 449.85 448.78 447 444.66 443.28 441.95 440.56 438.43 437.53 436.13 434.62 433.01 433.02 433.39 434 433.45 433.68 433.1 432.14 9999 430.34 430.24 9999 430.04 429.79 430.21 431.16 430.37 430.9 431.04 431.18 431.78 9999 9999 9999 9999 9999 9999 9999 9999 9999 9999 9999 431.91 431.86 431.4 434.43 437.02 437.28 438.09 439.18 439.75 439.42 440 439.41 440.1 439.3 439.53 440.05 439.75 439.72 439.39 439.58 439.58 440.17 439.82 439.24 439.66 439.75 438.89 438.6 438.58 438.48 438.61 437.92 438.35 438.43 438.89 437.86 438.35 438.26 438.13 438.38 438.44 439.11 438.72 439.06 439.16 438.36 9999 438.51 439.33 439.42 439.24 438.65 439.53 439.13 439.1 439.25 439.85 439.09 439.5 439.28 439.63 439.69 439.24 439.49 439.82 439.89 439.18 439.49 439.59 439.85 439.95 439.79 439.64 440.14 440.72 440.68 440.49 440.84 441.34 441.13 441.47 441.16 441.57 441.94 441.47 441.75 442.32 442.26 442.67 441.98 442.7 442.65 442.49 442.62 9999 9999 443.15 443.55 444.37 443.25 444.2 444.51 444 444.59 444.72 444.82 445.31 444.75 445.07 445.42 445.15 445.73 445.24 444.61 446.02 445.52 445.9 446.02 445.91 447.43 447.3 447.25 445.89 9999 9999 446.99 446.98 448.37 448.88 448.53 449.64 448.8 448.94 449.06 448.28 449.98 455.89 462.07 464.25 465.31 466.95 467.91 468.37 469.3 468.65 466.26 463.48 464.95 469.04 472.54 479.35 482.67 486.1 489.38 492.03 493.47 495.36 499 500.68 501.53 504.49 506.23 506.97 508.76 509.61 509.56 509.57 510.96 512 513.39 515.63 516.53 517.85 519.02 520.3 521.4 522.94 523.81 524.28 524.18 525.29 525.29 526.52 527.01 525.88 524.81 522.64 520.25 518.87 518.86 9999 9999 9999 9999 9999 9999 9999 9999 9999 9999 9999 9999 9999 9999 9999 9999 9999 9999 9999 9999 9999 9999 9999 9999 9999 9999 9999 9999 9999 9999 9999 9999
9999 9999 688.7 690.86 690.68 689.66 687.7 685.66 683.17 680.76 678.3 677.09 676.46 675.84 675.87 675.87 675.99 675.42 675.82 676.34 675.83 676.4 677.07 676.34 676.27 676.17 676.01 675.36 674.32 673.24 671.43 669.68 668.45 666.74 664.43 663.13 661.41 659.25 657.41 654.55 653.12 650.92 648.86 647.28 645.87 644.62 642.07 640.53 637.38 635.46 633.71 632.01 630.21 627.94 626.37 623.95 621.64 619.47 618.51 616.03 613.81 612.29 611.23 608.46 604.93 602.89 599.96 596.39 595.38 594.54 593.67 591.44 590.31 589.67 587.48 586.69 584.8 582.91 582.54 581.59 580.27 581.65 582.11 582.8 583.24 583.11 582.11 582.82 583.63 583.82 583.69 583.46 583 581.35 575.39 575.2 573.63 573.36 573.5 571.43 569.78 565.61 562.48 562.8 561.89 562.21 563.03 562.27 563.61 559.3 558.61 558.84 555.82 555.99 552.67 550.23 548.91 541.91 537.67 535.13 532.07 528.82 524.8 520.47 513.31 508.03 503.27 498.06 495.21 489.2 487.06 483.16 478.65 475.82 474.02 469.85 464.83 460.76 458.2 454.42 451.94 449.78 448.67 447.69 447.03 445.02 443.57 440.76 439.59 439.22 437.4 435.97 434.26 432.79 432.14 432.2 432.4 433.06 432.96 432.28 432.13 431.87 9999 430.26 430.43 9999 430 430.16 430.47 430.44 430.58 431.48 430.67 430.92 430.77 9999 9999 9999 9999 9999 9999 9999 9999 9999 9999 431.35 431.83 431.6 431.88 436.58 437.22 437.53 437.7 438.53 439.24 439.42 439.34 438.97 439.49 439.35 439.69 439.45 439.53 439.91 439.77 439.57 439.21 439.6 439.48 439.73 440.08 439.25 438.7 438.04 437.98 438.05 437.29 437.79 438.17 437.81 438.13 438.03 438.38 438.06 438.02 438.5 438.86 438.69 439.11 439.16 438.95 9999 9999 438.39 438.95 438.66 439.23 438.86 439.43 438.76 439.16 439.25 439.44 439.35 438.95 439.83 439.51 439.48 439.29 439.53 439.74 439.94 439.81 439.91 439.22 439.57 439.51 439.9 439.73 440.18 440.32 440.77 440.7 440.78 441.38 441.4 441.18 442.36 441.66 441.36 442.14 441.9 442 441.48 442.05 442.57 442.95 442.22 442.97 442.63 442.99 443.52 442.96 444.08 443.78 444.18 444.26 444.11 444.07 444.7 444.5 444.79 444.49 444.73 445.11 444.61 444.64 444.82 444.88 444.55 445.53 445.63 445.95 446.39 447.03 447.14 448.21 447.42 9999 9999 448.83 448.98 448.77 447.08 451.02 449.13 448.89 450.37 450.33 449.58 452.42 457.05 460.81 464.45 465.54 467.01 467.63 470.32 470.25 471.36 472.26 472.18 468.97 466.56 467.72 472.09 477.44 483.01 486.76 490.2 492.05 494.21 495.72 497.84 500.86 504.69 506.53 507.02 509.05 509.57 509.99 510.2 511.69 513.33 513.39 515.74 517.77 517.97 519.59 520.07 521.08 521.93 523.51 523.53 524.26 525.79 527.09 527.72 527.97 528.58 528.59 527.06 525.37 525.72 524.53 523.62 9999 9999 9999 9999 9999 9999 9999 9999 9999 9999 9999 9999 9999 9999 9999 9999 9999 9999 9999 9999 9999 9999 9999 9999 9999 9999 9999 9999 9999 9999 9999 9999
9999 9999 690.28 691.89 691.85 691.66 689.6 688.46 686.44 683.45 681.16 679.54 677.52 676.97 676.08 676.99 677.25 676.09 676.53 676.47 676.59 677.13 678.67 679.2 679.15 678.59 677.62 677.19 675.13 673.84 672.4 671.34 668.99 667.28 664.83 662.34 661.11 658.87 657.2 655.02 652.09 650.54 648.53 646.65 644.3 641.35 639.05 637.28 635.45 633.94 631.95 629.73 628.29 625.98 623.26 620.98 619.62 618.22 615.69 613.93 611.73 607.76 606.04 603.7 601.82 599.42 596.49 594.24 592.12 590.52 589.51 588.97 588.62 587.6 586.71 585.23 582.21 580.44 578.67 578.36 578.24 577.67 579.98 579.8 579.61 579.98 580.76 580.41 581.52 581.29 581.55 579.71 578.65 575.18 572.18 571.18 570.01 570.22 565.69 562.46 560.16 560.65 557.56 558.8 557.65 557 553.24 552.57 552.91 550.96 550.47 549.57 547.04 544.86 540.83 539 535.38 532.66 528.55 527.2 523.62 516.58 513.93 510 507.13 503.55 497.95 493.34 489.25 484.1 480.08 477.27 474.65 472.51 469.2 466.12 461.18 458.3 455.1 452.31 450.11 447.97 446.34 445.48 443.07 442.27 441.49 439.1 438.08 437.36 436.34 434.71 432.53 431.86 432.04 431.99 432.52 432.31 432.64 431.86 430.62 430.33 429.79 9999 434.82 9999 9999 9999 430.54 430.78 430.83 430.89 431.89 9999 9999 9999 9999 9999 9999 9999 9999 9999 9999 9999 9999 431.76 431.6 431.9 434.96 436.76 437.42 437.03 437.27 438.22 439.3 439.2 439.46 439.15 439.43 439.7 439.51 438.91 439.4 439.28 438.68 439.23 439.68 439.89 439.31 439.49 439.31 439.88 438.39 438.3 438.49 437.64 437.93 437.87 437.45 438.04 437.92 437.97 437.85 437.99 437.91 438.29 438.86 438.63 438.79 438.25 437.45 9999 9999 438.92 438.53 439.01 438.8 439.08 439.01 438.96 439.09 439.23 439.06 439.78 439.27 439.39 439.72 438.98 439.87 439.8 439.63 440.15 439.98 440.28 439.95 439.93 439.93 440.03 439.89 439.62 440.46 441 440.65 441.21 441.42 440.3 441.03 441.6 441.52 442.16 441.35 442.01 441.91 441.75 441.93 441.89 442.18 442.31 442.64 442.54 442.62 442.49 443.37 443.48 443.47 443.82 443.86 444.22 444.6 443.9 444.74 444.37 444.57 445.49 445.72 444.38 445.03 445.23 445.43 445.52 446.44 446.54 445.77 446.32 447.53 448.62 448.27 9999 9999 446.5 448.19 449.09 448.04 449.12 448.94 448.11 447.82 447.66 447.94 450.27 458.59 462.08 463.83 464.5 467.01 469.16 469.56 472.54 472.12 473.65 474.43 474.46 471.91 469.46 470.77 469.76 474.77 480.54 486.22 489.85 492.32 495.28 497.98 500.13 502.38 505.77 505.72 507.26 509.27 508.92 509.87 510.65 512.68 513.75 515.36 516.28 517.9 520.02 519.27 520.38 521.41 522.22 523.1 524.28 525.55 526.95 527.79 528.73 529.68 529.66 530.51 529.45 529.5 528.05 526.52 524.38 9999 9999 9999 9999 9999 9999 9999 9999 9999 9999 9999 9999 9999 9999 9999 9999 9999 9999 9999 9999 9999 9999 9999 9999 9999 9999 9999 9999 9999 9999 9999 9999
9999 9999 691.29 692.62 694.27 694.13 693.11 691.67 689.12 686.53 683.77 683.39 681.22 679.63 678.64 678.85 678.83 678.09 678.51 678.83 679.33 679.55 679.8 680.45 680.69 680.02 678.85 678.22 676.56 675.22 673.98 672.01 670.34 668.58 666.54 663.56 661.63 659.91 657.06 655.27 653.36 650.72 647.28 644.63 642.46 640.01 637.47 635.09 633.15 631.46 628.9 627.3 625.3 623.76 621.65 619.07 617.39 614.15 612.23 609.41 607.55 605.35 602.21 600.64 598.95 594.49 592.66 591.11 589.5 588.75 587.9 587.28 586.34 583.84 583.22 582.64 579.59 577.94 576.3 576.63 575.27 576.55 576.93 577.52 578.08 578.28 578.89 579.52 579.11 579.09 578.45 577.31 576.05 571.13 568.77 564.47 562.56 560.17 558.66 556.08 554.11 555.18 551.96 548.26 548.81 546.69 547.25 545.65 545.15 543.41 537.48 536.12 534.51 533.02 530.03 529.15 527.2 525.33 517.83 515.95 512.82 509.28 506.28 503.67 501.42 494.27 490.98 485.57 483.27 480.05 476.65 472.93 470.53 466.14 463.15 460.59 457.45 455.77 452.38 451.09 447.25 445.41 444.04 442.96 442.06 440.52 438.86 438.36 435.45 435.26 434.46 434.36 431.91 432.14 431.51 431.8 430.72 431.18 431.81 430.42 9999 429.49 429.84 429.95 430.12 9999 9999 9999 9999 431.18 430.51 431.14 9999 9999 9999 9999 9999 9999 9999 9999 431.27 9999 9999 9999 431 431.49 431.33 432.65 437.13 435.99 437.14 436.99 437.15 437.61 438.84 439.17 439.23 438.92 438.87 439.08 438.85 439.14 438.98 438.82 438.3 439.14 439.35 439.23 438.8 439.33 438.7 439.44 438.23 437.58 438.23 437.56 437.45 437.75 437.91 437.58 437.94 438.01 437.8 437.81 437.93 437.63 438.06 438.46 439.01 438.84 436.93 9999 438.67 438.8 438.77 438.86 439.23 438.86 438.67 438.96 439.21 439.92 438.85 439.15 439.5 439.36 439.45 439.41 439.57 439.53 439.37 439.35 439.57 439.46 439.55 439.56 439.93 440.21 440.01 440.41 440.88 440.25 440.32 440.61 441.04 440.93 441.57 441.49 441.5 441.93 441.72 441.86 441.57 441.78 442.07 442 442.4 442.4 442.36 441.92 442.44 441.83 442.32 442.81 443.01 443.38 443.61 443.95 444.28 444.17 444.34 444.53 444.83 444.86 444.67 444.08 443.69 444.5 446.58 445.9 446.88 446.11 446.58 446.53 447.55 447.43 447.1 9999 445.06 448.18 448.58 446.91 447.4 446.97 446.83 446.78 447.01 447.23 451.36 456.92 461.01 463.61 464.9 466.56 468.19 470.11 472.15 473.28 474.58 475.62 476.49 479.28 479.92 478.82 475.19 472.9 474.22 479.66 485.11 488.34 493.2 495.97 498.2 500.76 503.03 505.5 506.33 507.36 508.67 509.92 511.09 511.62 513.08 514.62 516.38 517.02 518.48 520.65 520.25 520.83 521.75 523.46 524.49 525.66 527.31 527.75 529.05 530.48 531.2 531.87 531.58 532 530.84 529.92 529.98 526.65 9999 9999 9999 9999 9999 9999 9999 9999 9999 9999 9999 9999 9999 9999 9999 9999 9999 9999 9999 9999 9999 9999 9999 9999 9999 9999 9999 9999 9999 9999 9999 9999
9999 9999 692.85 694.16 695.5 695.74 695.48 694.31 693.18 691.15 688.14 685.95 684.89 682.32 681.29 680.45 681.2 681.67 681.39 680.41 680.14 680.27 680.79 680.98 681.38 680.64 680 678.37 677.19 676.03 674.03 672.21 670.49 668.33 665.86 664.53 661.64 660.07 657.66 655.77 652.93 650.1 647.24 643.52 641.25 638 635.82 632.64 630.62 628.64 626.48 625.15 623.6 622.4 619.07 616.81 614.49 611.88 609.15 607.08 603.99 602.2 598.19 595.47 592.96 591.24 589.8 589.15 588.68 586.99 585.87 584.28 583.43 582.79 581.26 580.53 579.01 575.68 573.9 572.84 574.24 574.4 574.2 575.05 576.07 576.61 576.73 577.59 577.62 576.76 577.12 575.48 569.86 567.44 562.74 559.24 557.48 555.2 553.09 550.06 544.41 546.39 543.02 540.02 540.47 538.72 539.73 536.69 533.65 532.34 529.79 528.18 526.41 524.41 522.06 517.15 515.34 514.39 511.86 509.09 506.24 503.99 497.45 495.18 492.89 491.09 485.61 483.21 478.76 475.71 471.12 468.5 465.24 462.5 460.04 456.69 454.82 451.7 450.3 447.27 445.2 443.19 441.84 440.91 439.06 438.39 436.4 434.36 433.27 433.04 432.76 432.25 431.27 431.53 430.98 430.74 430.6 430.09 430.01 429.55 430.27 430.19 430.16 429.96 9999 9999 9999 9999 9999 9999 9999 9999 9999 9999 9999 9999 9999 9999 431.03 9999 431.65 9999 431.46 431.74 432.12 431.79 431.18 434.53 436.63 436.9 437.07 436.9 437.05 437.31 438.16 438.28 438.87 438.84 438.79 438.69 438.89 438.51 438.25 438.88 439.27 439.04 439.14 438.65 439.65 439.08 438.63 438.38 437.87 437.27 437.52 437.05 437.01 437.71 437.55 437.79 437.19 437.59 437.77 437.72 438.4 438.07 438.22 438.47 438.12 438.44 437.38 9999 438.4 438.74 438.74 438.76 438.73 438.95 439.08 438.99 438.93 439.24 438.97 438.95 439.02 439.12 439.53 439.56 439.98 439.46 439.27 439.38 439.73 439.87 439.61 439.78 439.44 439.99 439.96 440.53 440.04 440.3 440.44 440.5 440.89 441.64 440.96 441.28 441.34 441.36 441.8 442.1 441.91 442.25 442.3 441.49 441.84 441.7 442 442.21 441.84 442.34 442.2 442.87 442.86 443.09 443.01 443.42 443.13 443.52 444.28 444.33 444.59 444.16 444.6 444.67 443.91 443.61 444.84 445.14 445.27 446.54 446.21 447.96 449.41 447.11 9999 444.54 445.14 447.64 447.68 446.27 446.54 446.39 448.2 448.92 449.95 452.41 455.68 459.24 463.9 466.23 467.7 468.53 469.84 471.29 473.97 475.49 477.79 479.78 481 482.77 483.14 483.38 480.86 478.05 474.98 478.53 485.6 489.68 492.27 497.38 498.44 501.25 503.88 504.85 506.2 507.45 508.74 509.75 510.88 513.03 514.48 515.95 516.6 518.55 518.51 519.56 520.63 521.89 522.62 523.57 526.18 527.29 528.68 530.29 531.19 532.57 533.12 533.07 533.2 533.18 532.8 532.32 532.11 530.45 9999 9999 9999 9999 9999 9999 9999 9999 9999 9999 9999 9999 9999 9999 9999 9999 9999 9999 9999 9999 9999 9999 9999 9999 9999 9999 9999 9999 9999 9999 9999 9999
9999 9999 693.68 695.51 697.4 698.58 698.33 697.84 696.19 693.05 690.77 688.75 686.44 685.91 684.93 684.23 683.95 683.28 682.62 681.74 682.46 682.11 682.34 682.26 682.06 681.32 680.3 679.52 677.31 675.69 673.79 671.67 670 667.7 666.23 663.89 660.83 659.17 657.79 654.88 652.49 649.01 646.12 643.98 639.67 636.92 633.94 631.64 628.58 626.42 624.72 622.67 621.06 619.03 617.26 614.56 612.15 609.48 606.58 602.07 599.42 597.57 595.29 593.4 590.32 588.54 586.25 585.86 585.69 584.99 583.95 583.56 581.64 580.36 578.04 577.33 576.72 574.69 572.37 571.89 572.94 571.3 570.95 571.12 572.56 574.36 574.97 575.46 576.24 573.9 572.27 572.36 565.02 561.31 559.42 555.18 552.14 547.32 545.25 541.52 539.3 539.41 537.62 537.2 532 530.71 530.26 529.5 525.9 525.68 523.1 521.27 516.4 513.78 511.59 510.74 508.43 505.59 504.93 499.76 496.18 493.93 491.8 489.99 487.98 485.49 482.61 475.74 473.07 470.69 468.26 464.67 462.15 459.72 454.55 453.05 450.51 448.13 447.08 444.96 444.17 441.95 439.08 438.7 436.69 436.65 434.48 433.9 432.04 431.65 431.06 431.23 430.76 430.98 430.52 430.28 429.27 430.24 429.3 429.79 429.26 429.92 429.85 9999 430.16 9999 9999 430.15 9999 9999 9999 9999 9999 9999 9999 9999 9999 9999 9999 9999 9999 431.31 430.85 431.35 431.95 431.17 436.3 436.93 436.7 436.8 436.9 436.87 436.94 437.64 438.26 438.48 438.79 438.85 438.73 438.92 439.07 438.41 438.53 438.38 438.7 438.42 438.77 439.36 438.83 438.86 438.45 437.45 437.5 437.65 437.36 437 437.5 436.88 437.89 437.71 437.68 437.74 437.22 437.82 437.58 438.2 438.54 438.27 438.44 438.15 437.95 438.87 438.62 438.77 438.43 438.57 438.93 439.09 439 438.67 438.63 439.13 439.26 439.17 439.41 438.99 438.92 439.25 439.26 440.05 438.97 439.52 439.49 439.42 439.04 439.93 439.91 440.08 439.66 440.07 439.74 440.06 440.5 439.95 440.74 441.03 440.61 440.86 441.61 441.26 441.77 442.01 441.63 442.23 442.22 441.67 441.75 441.99 441.64 442.19 442.42 442.7 442.53 442.79 442.35 442.74 442.8 443.24 443.89 443.68 444.55 443.69 444.13 444.04 444.24 444.86 446.39 444 444.86 444.46 444.75 445.18 446.07 446.85 448.92 447.25 9999 444.75 445.01 446.1 445.61 446.11 447.39 450.21 452.91 453.84 455.02 456.42 461.78 463.21 465.48 468.05 469.96 470.6 471.54 474.79 476.62 478.88 481.13 482.83 484.61 486.19 487.62 488.01 486.26 482.33 477.02 478.02 485.88 488.75 493.16 495.64 499.58 500.68 503.04 504.72 505.97 506.29 508.09 510.49 512.22 513.89 515.18 515.63 517.28 518.88 519.44 520.97 521.3 521.94 523.98 525.59 527.56 529.96 529.99 531.39 531.72 532.62 533.91 533.84 534.04 534.97 534.49 533.63 533.61 532.8 9999 9999 9999 9999 9999 9999 9999 9999 9999 9999 9999 9999 9999 9999 9999 9999 9999 9999 9999 9999 9999 9999 9999 9999 9999 9999 9999 9999 9999 9999 9999 9999
9999 9999 695.06 697 698.6 699.68 699.81 699.97 697.76 695.47 694.58 692.17 689.91 688.57 687.11 685.97 685.33 685.24 684.62 683.6 683.69 683.19 683.05 682.42 682.47 681.48 680.37 678.9 677.16 675.51 674.4 671.06 669.27 666.17 664.96 662.37 660.52 658.2 655.32 654.02 649.63 646.88 644.43 642.13 640.13 635.94 632.83 630.53 627.23 625.16 623 621.04 619.05 616.64 614.08 610.8 608.58 605.98 602.71 599.67 597.03 594.48 591.72 588.47 586.55 585.38 584.36 584.01 584.75 583.65 582.26 580.57 579.25 577.18 576.76 575.92 574.03 572.48 570.25 570.51 569.95 569.68 568.28 568.86 570.32 571.15 570.13 571.44 570.18 569.43 567.67 563.68 561.77 556.15 551.39 547.29 545.54 542.47 539.62 536.9 533.97 530.41 529.45 526.59 527.18 524.73 524.01 522.28 517.06 514.21 512.7 511.18 509.32 507.11 505.13 502.91 498.84 497.75 495.74 493.65 492 488.49 486.72 482.09 480.14 478.36 476.52 473.77 470.83 467.26 465 460.61 457.42 454.59 451.81 448.98 447.87 446.36 442.9 441.88 439.69 439.41 437.5 437.04 435.44 434.79 433.19 432.29 431.21 431.45 431.32 430.97 430.7 430.44 429.84 429.74 430.03 9999 429.97 429.82 430.35 429.7 429.81 9999 9999 9999 9999 9999 9999 9999 9999 9999 9999 9999 9999 9999 9999 430.8 9999 9999 431.31 431.26 431.52 431.29 431.28 434.03 437.57 437.27 436.8 436.12 436.68 436.68 437.17 437.84 437.9 438.39 438.1 438.9 439.1 438.55 437.88 438.76 438.37 438.41 438.85 438.14 438.31 438.32 437.95 437.89 438.48 437.41 436.83 436.98 437.13 437.66 437.38 437.46 437.5 437.12 437.32 437.48 437.37 437.21 437.18 438 438.03 437.95 438.33 438.67 9999 438.41 438.67 438.66 438.99 438.93 438.52 438.23 438.39 438.86 439.53 439.13 438.94 438.92 439.14 439.09 439.01 438.54 438.96 439.23 439.29 439.25 439.63 439.91 439.48 440.25 439.85 440.07 440.13 440.21 439.86 440.33 440.21 440.56 440.51 441.29 440.97 441.28 441.41 441.5 441.89 441.83 441.42 441.69 442.01 441.56 441.74 442.04 441.55 442.35 442.21 442.52 442.45 442.84 442.9 442.47 443.18 443.68 443.51 443.35 443.64 444.39 443.74 444.46 9999 444.83 446.26 443.31 444.53 443.97 445.81 445.06 446.05 446.8 448.11 446.99 9999 445.1 444.39 446.2 445.77 446.69 450.85 453.44 454.71 458.97 460.97 462.13 463.97 466.4 467.59 469.35 473.13 474.38 475.47 477.05 480.04 481.21 483.62 487.39 489.9 489.76 489.76 491.42 487.69 485.68 481.38 478.66 484.86 489.1 492.32 495.25 498.45 500.61 502.51 503.43 504.76 506.44 507.52 510.18 513 515.01 515.65 516.08 517.27 518.38 519.44 520.49 522.09 524.37 525.41 527.35 528.9 530.2 531.55 532.99 534.14 535.14 535.47 534.73 535.09 535.49 535.66 536.55 536.13 535.34 533.92 9999 9999 9999 9999 9999 9999 9999 9999 9999 9999 9999 9999 9999 9999 9999 9999 9999 9999 9999 9999 9999 9999 9999 9999 9999 9999 9999 9999 9999 9999 9999
9999 9999 9999 698.71 699.95 701.38 702.6 701.64 700.18 698.2 696.33 694.66 691.67 690.67 689.71 688.8 687.66 686.15 685.67 685.2 684.47 684.26 683.51 683.25 682.5 681.35 679.6 678.23 676.89 674.45 672.3 670.55 667.61 666.22 663.52 661.68 659.24 656.51 654.74 651.83 648.61 645.65 643.63 641.01 638.88 634.82 632.04 629 626.7 624.72 622.2 619.8 616.85 612.68 610.93 608.59 606.13 602.68 599.11 597.73 592.72 590.19 587.61 586.27 584.21 584.04 582.89 581.85 581.18 580.37 578.94 578.55 577.53 575.8 574.23 572.39 571.58 570.14 569.06 568.29 567.85 567.3 566.35 565.07 566.25 567.07 568.19 569.85 565.98 564.22 560.97 556.13 553.18 547.96 546.84 542.27 540.88 537.59 531.42 530.32 527.53 525.3 523.93 521.86 521.77 516.42 514.83 515.38 513.17 508.94 506.32 504.45 503.56 499.46 497.38 495.13 493.79 492.11 490.5 489.08 483.98 482.47 480 477.91 476.69 474.95 472.16 470.44 467.4 463.65 460.22 458.25 455.4 450.74 448.53 446.39 443.14 442.4 441.05 438.98 438.85 438.43 436.83 434.14 432.79 432.96 431.85 431.27 431.09 431.2 430.76 430.7 430.23 429.56 429.83 429.85 9999 9999 429.6 429.82 429.88 429.96 430.3 9999 9999 9999 9999 9999 9999 9999 9999 9999 9999 9999 9999 430.99 430.98 9999 9999 9999 430.75 430.99 431.22 431.15 431.35 437.54 437.93 437.15 436.06 436.11 436.21 437.11 437.26 436.49 437.42 438.11 437.7 438.27 438.23 438.35 438.12 438.6 438.31 438.5 438.07 437.95 438.4 438.8 438.24 437.8 437.17 437.1 436.37 436.74 437.1 437.59 436.97 437.51 437.1 437.15 437.37 437.21 437.21 437.66 437.92 438.03 438.1 438.13 438.29 438.89 437.82 438.11 438.07 438.1 439.04 438.26 438.57 438.8 438.14 438.3 438.93 438.75 438.18 438.77 439.02 439.17 438.39 438.85 439.1 439.35 439.42 439.26 439.37 439.32 439.84 439.81 439.55 439.64 440.04 439.7 440.08 440.35 440.01 440.74 440.68 440.63 441.2 441.23 441.09 441.95 441.21 441.88 441 441.72 441.3 442.18 442.16 442.44 441.97 442.14 442.03 442.49 442.14 442.97 443.09 442.99 443.01 443.33 443.6 443.63 443.83 443.57 444.12 443.92 443.18 444.43 445.67 443.87 444.83 444.87 444.7 445.93 445.77 446.67 448.22 447.93 9999 444.36 444.81 445.91 446.33 450.14 455.28 457.8 459.9 460.95 461.91 465.26 465.97 468.58 470.05 472.24 474.54 476.43 479.05 480.87 484.73 486.96 487.03 490.43 490.55 492.76 492.39 491.49 490.57 487.84 484.55 479.92 482.66 487.55 491.34 494.77 497.47 500.35 501.61 503.17 504.34 506.16 507.54 510.49 511.68 513.52 516.51 516.41 516.63 518.88 519.66 520.88 522.96 524.82 526.58 528.64 531.54 533.5 534.13 535.68 535.72 536.37 537.33 536.74 537.96 538.68 538.03 538.58 538.11 538 535.48 9999 9999 9999 9999 9999 9999 9999 9999 9999 9999 9999 9999 9999 9999 9999 9999 9999 9999 9999 9999 9999 9999 9999 9999 9999 9999 9999 9999 9999 9999 9999
9999 9999 9999 700.42 701.62 702.98 703.41 702.39 701.23 699.31 697.62 696.74 694.23 692.23 690.84 690.14 687.98 687.47 686.8 686.23 685.3 685.08 684.09 682.3 681.43 680.07 678.79 676.33 675.69 673.26 671.32 669.34 667.53 665.93 661.9 659.99 657.59 655.48 654.14 651.71 648.99 644.92 642 639.72 636.38 634.05 631.51 628.56 626.29 622.69 620.84 618.17 615.25 612.27 608.78 606.26 603.93 599.82 596.92 593.43 590.76 587.28 585.07 583.37 581.59 580.85 579.4 578.8 578.21 576.23 575.96 575.26 574.11 574.48 572.21 570.12 569.65 568.22 566.9 563.98 564.14 562.67 563.35 563.64 563.96 563.44 566.21 563.92 559.87 559.01 554.25 552.18 548.42 542.65 539.65 535.32 531.98 529.11 525.96 524.36 522.49 520.74 517.09 514.37 512.97 511.17 508.48 508.33 508.28 504.69 498.47 496.85 495.14 493.97 493.37 490.92 488.87 484.99 483.25 481.41 479.52 477.94 476.47 474.66 473.33 470.16 466.77 465.73 464.59 463.31 460.28 455.47 450.32 447.45 444.74 442.78 441.57 441.11 438.34 438.86 435.78 434.49 434.44 432.92 431.52 431.18 431 430.75 430.62 430.82 430.93 430.46 429.42 429.98 429.89 429.16 9999 9999 9999 9999 9999 9999 9999 9999 430.23 9999 9999 9999 9999 9999 430.32 9999 9999 431.26 430.91 9999 9999 9999 431.25 431.01 431.21 430.37 430.87 431.61 436.76 437.81 437.34 436.44 436.19 436.35 437.13 436.85 436.67 437.45 437.67 438.46 437.9 437.47 437.94 438.48 437.4 437.64 437.81 438.09 437.03 437.7 438.59 438.44 437.1 436.83 436.4 436.53 436.6 436.87 436.23 436.77 436.76 437.14 436.91 436.86 436.62 436.86 437.19 437.29 437.47 437.92 438.44 438.09 438.62 438.09 438.44 438.2 437.91 438.46 438.41 438.43 438.8 438.93 438.69 438.51 438.57 438.54 439.1 438.16 438.89 438.73 438.92 439.31 438.81 439.39 439.32 439.09 439.36 439.24 439.61 439.17 439.78 440.29 440.23 440.23 439.88 440.89 440.69 440.34 440.45 440.59 441.13 441.1 441.49 441.22 441.53 441.28 441.57 441.6 441.72 441.99 441.82 441.99 441.98 441.71 441.76 442.61 441.79 442.42 442.31 443.26 442.88 443.22 442.73 443.65 443.35 443.94 444.3 444.45 444.02 444.71 444.26 444.08 444.1 445.02 444.65 445.81 446.18 447.72 447.72 448.33 443.64 9999 444.6 445.78 448.71 454.34 458.77 460.46 462.21 463.13 465.69 466.48 468.48 470.01 472.55 474.99 477.48 480.71 482.64 485.34 487.51 489.26 490.15 492.98 493.83 495.38 495.64 494.52 492.58 489.82 486.9 481.88 482.12 486.82 490.93 493.51 495.17 498.86 499.17 500.95 502.45 505.36 508.48 510.37 512.29 514.57 515.81 517.23 518.28 518.9 519.63 522.15 523.56 525.84 528.71 530.52 532.41 534.47 536.05 536.04 536.95 538.13 537.81 538.3 539.4 539.87 540.33 540.88 541.05 540.46 539.19 9999 9999 9999 9999 9999 9999 9999 9999 9999 9999 9999 9999 9999 9999 9999 9999 9999 9999 9999 9999 9999 9999 9999 9999 9999 9999 9999 9999 9999 9999 9999
9999 9999 9999 701.25 702.37 704.01 704.61 703.55 702.74 700.58 698.9 696.75 694.9 693.36 691.15 690.3 688.78 688.31 687.26 687.06 686.35 685.71 683.95 681.19 679.74 678.5 677.18 675.29 673.34 672.01 670.52 667.89 666.65 664.11 662.6 659 657.11 654.76 652.57 649.73 647 645.09 641.76 638.43 635.33 632.82 630 627.52 625.65 621.81 620.06 616.89 614.71 611.49 607.2 604.33 600.07 596.45 594.12 590.99 587.68 584.65 582.03 581.3 580.77 579.69 577.7 576.46 574.56 571.32 570.97 571.09 573.47 573.86 570.95 568.82 567 565.79 563.61 561.38 562.06 560.92 561.69 562.19 560.51 560.14 561.74 559.36 556.05 553.88 549.77 543 538.1 535.25 533.15 530.14 527.17 524.55 521.26 517.53 515.13 514.1 511.48 510.44 507.56 505.51 503.88 500.35 499.62 497.46 494.42 492.58 491.04 490.21 486.21 485.53 483.63 481.28 479.61 477.71 475.72 473.99 470.23 468.8 467.57 466.38 464.15 461.91 461.81 456.47 453.89 448.35 446.01 443.88 442.28 439.8 439.13 437.53 436.29 435 435.21 433.43 432.2 431.29 431.33 430.99 430.83 430.81 430.63 430.73 430.54 429.88 429.87 429.51 429.67 9999 9999 429.42 429.34 9999 9999 429.36 429.71 9999 9999 9999 9999 9999 9999 9999 430.53 9999 430.31 430.49 430.65 430.71 430.85 9999 430.89 430.75 430.88 431.38 435.16 436.98 436.71 437.44 437.05 436.06 436.48 436 435.8 436.35 436.15 436.51 437.89 437.48 438.02 437.85 438.25 437.53 437.59 437.62 438.02 437.42 437.07 437.18 438.05 437.89 437.43 436.47 436.58 436.71 436.49 436.77 436.27 437.14 437.19 436.71 436.52 436.8 436.72 436.74 436.89 437.98 437.46 438.72 437.36 437.96 437.85 438.36 438.18 438.59 438.35 438.08 438.06 438.27 438.58 438.5 438.5 438.29 438.82 438.6 438.39 438.57 438.55 438.73 438.93 439.11 439.08 439.12 439.39 439.21 439.41 439.5 439.21 439.86 439.75 440.18 439.66 440.34 440.1 440.38 440.09 440.7 440.94 441.08 440.86 441.05 441.08 441.28 441.16 441.06 441.89 441.26 441.12 441.36 441.84 441.7 441.62 441.89 441.92 442.62 442.27 443.27 442.69 442.72 442.73 442.88 443.04 443.24 443.19 443.94 444.02 444.41 444.5 443.86 444.48 445.45 443.55 446.28 444.88 446.72 447.31 446.29 447.65 448.15 9999 9999 444.86 447.77 452.49 457.65 460.65 462.84 464.59 466.48 467.1 468.34 470.42 472.66 476.51 480.11 481.21 483.42 487.05 487.67 489.49 491.02 494.07 494.96 496.31 496.62 496.35 495.83 495.28 493.4 491.02 486.2 482.94 485.05 491.24 493.49 495.12 497.04 497.9 499.78 500.99 504.11 507.06 508.32 511.17 514.65 515.7 517.31 517.48 519.4 521.28 523.47 524.76 526.86 529.24 532.5 534.48 535.61 536.94 537.72 538.2 538.41 538.59 539.66 540.9 542.44 542.58 543.06 542.77 542.04 541.07 9999 9999 9999 9999 9999 9999 9999 9999 9999 9999 9999 9999 9999 9999 9999 9999 9999 9999 9999 9999 9999 9999 9999 9999 9999 9999 9999 9999 9999 9999 9999
9999 9999 9999 702.65 704.23 704.92 705.53 704.8 703.61 700.86 699.6 698.07 696.16 693.75 692.65 690.9 689.48 689 688.02 687.03 686.66 685.06 683.1 680.54 678.6 677.4 675.96 673.37 672.2 670.71 668.99 667.77 666.05 664.27 662.2 660.15 656.57 654.55 651.89 649.78 646.91 644.77 642.01 637.56 634.77 631.68 629.24 627.05 623.82 621.2 617.54 615.69 612.62 609.66 605.61 602.89 598.97 594.92 590.89 587.38 584.48 582.35 581.64 580.98 579.87 577.98 574.87 572.77 571.04 569.36 568.55 570.49 571.92 571.18 570.52 568 565.48 564.5 562.82 560.58 559.54 559.49 560.89 561.05 559.81 558.65 557.92 556.25 551.36 547.53 543.45 536.56 531.79 528.35 526.99 525.71 519.53 517.89 515.07 512.74 510.5 510.54 507.29 504.17 501.95 499.36 497.05 495.31 494.66 494.83 490.52 488.17 485.59 484.5 483.62 481.03 480.44 477.49 474.3 471.81 469.66 468.15 467.37 464.78 464.26 462.52 457.01 455.2 453.42 450.68 447.16 444.91 442.83 440.14 439.28 436.88 436.12 434.2 434.95 432.89 432.01 430.52 430.74 430.29 430.68 430.85 430.45 430.44 429.57 429.91 9999 9999 429.84 9999 9999 9999 429.84 429.76 429.49 9999 430.36 430.04 9999 9999 9999 429.96 430.04 429.68 430.26 429.75 429.89 430.45 430.15 430.08 430.68 430.09 9999 9999 430.69 430.63 430.95 435 436.94 437.11 436.45 436.87 436.21 436.4 436.08 435.32 436.78 436.47 436.11 435.69 437.22 437.78 437.66 437.95 437.52 437.41 437.37 437.72 437.69 437.2 436.88 437.5 437.55 437.71 436.78 436.35 436.42 436.01 436.61 436.56 436.4 436.34 436.38 436.97 436.75 436.32 436.65 436.6 437.16 437.74 437.44 437.77 438.07 438.25 438.1 438.38 438.26 438.27 437.47 438.07 437.45 437.86 437.66 438.28 438.61 438.37 438.26 438.39 438.8 438.84 438.69 439.12 438.06 438.92 439.33 439.17 438.97 438.92 439.5 439.39 439.55 439.08 439.69 440.24 439.75 440.09 440.31 440.58 440.4 440.12 440.69 440.4 440.94 440.78 441.35 441.17 441.05 441.69 441.47 441.76 441.93 441.66 441.85 441.73 441.92 441.96 442.15 443.14 442.87 442.01 442.1 442.9 442.78 442.92 443.61 443.92 443.82 443.4 444.08 445.13 445.35 444.52 444.1 444.12 444.88 445.55 445.87 447.72 446.92 445.32 445.87 446.9 9999 9999 446.23 450.81 457.88 460.63 462.24 464.35 466.13 467.54 469.07 471.35 473.43 475.69 479.08 481.93 484.15 486.8 488.84 490.79 493.22 493.97 497.07 496.19 497.41 498.08 498.01 497.56 496.49 494.27 490.52 487.04 484.24 485.26 488.59 491.08 493.91 495.55 497.03 498.24 499.35 500.94 503.43 507.92 510.05 512.29 515.07 516.56 517.46 519.05 521.87 524.41 526.08 528.58 530.66 535.23 536.43 537.48 538.21 537.96 539.05 538.82 540.26 540.76 543.07 543.88 544.02 544.28 543.72 543.87 544.3 9999 9999 9999 9999 9999 9999 9999 9999 9999 9999 9999 9999 9999 9999 9999 9999 9999 9999 9999 9999 9999 9999 9999 9999 9999 9999 9999 9999 9999 9999 9999
9999 9999 9999 704.24 704.91 705.5 705.74 704.53 703.34 702.33 700.06 698.27 696.02 694.72 692.99 691.91 689.95 690.04 688.29 687.5 686.78 685.07 682.26 679.47 677.3 675.27 673.81 672 671.52 669.98 669.45 668.4 666.96 664.19 662.84 660.61 657.82 654.54 652.48 649.51 647.65 644.13 641.08 638.51 634.68 631.24 628.13 625.83 622.35 619.8 617.28 613.77 611.92 607.88 604.68 599.95 597.11 594.2 589.57 585.15 582.5 580.37 578.81 578.45 577.62 575.89 574.33 571.25 569.08 567.72 566.43 567.95 569.44 569.86 569.09 567.35 564.17 562.94 562.54 560.47 557.8 558.17 559.17 559.57 558.42 555.6 553.51 550.89 547.45 543.93 538.21 532.85 528.12 522.31 520.11 518.2 515.95 513.75 511.46 508.28 505.55 505.15 501.6 500.09 498.86 495.57 493.74 491.1 489.08 487.41 485.96 484 482.9 480.76 479.35 476.67 474.09 473.65 471.44 468.98 467.27 464.6 463.92 460.49 458.21 456.07 454.24 451.51 449.16 445.66 441.72 440.95 438.68 436.96 436.47 434.53 433.86 433.74 431.4 430.96 430.51 430.67 429.96 430.17 430.21 429.91 430.2 9999 9999 9999 9999 9999 9999 429.01 429.06 430.03 429.68 429.17 429.57 430.02 430.27 429.6 9999 9999 9999 430.23 430.43 430.1 430.69 429.84 430.24 430.41 430.27 430.39 430.64 9999 9999 430.5 430.88 431.3 435.07 436.35 436.1 436.84 436.8 436.82 435.6 435.98 435.68 435.62 436.15 435.91 435.89 436.46 437.07 437.3 437.55 437.52 438.18 437.51 437.72 437.84 437.67 437.59 437.47 436.94 437.21 436.99 436.35 436.09 435.84 436.13 435.99 436.02 436.34 436.18 436.58 436.82 436.39 436.78 436.16 436.86 437.04 436.99 437.51 437.56 438.3 437.52 437.86 437.83 437.58 437.68 437.7 437.48 437.89 438.32 437.77 438.09 438.36 437.97 438.63 438.96 438.78 438.5 438.83 439.23 438.65 439.19 438.88 439.1 438.3 439.25 439.22 439.17 438.74 439.26 439.57 439.79 439.9 439.88 440.27 440.38 440.55 440.25 440.11 441.17 440.91 441.36 441.05 440.94 441.98 440.96 441.35 441.89 441.3 441.43 441.4 441.38 442.1 442.35 442.74 443.02 442.66 442.28 442.46 441.98 442.46 442.3 443.08 443.49 444.06 443.48 444.29 444.63 445.85 443.64 444.05 444.98 444.56 445.3 446.72 445.72 444.85 445.22 444.42 443.73 9999 9999 450.89 455.62 459.72 462.18 463.87 464.94 467.86 470.11 472.01 474.28 476.84 479.08 481.25 483.75 489.49 490.67 492.41 493.59 494.57 495.42 497.54 498.21 498.36 497.9 497.6 497.21 496.41 495.6 490.85 486.95 485.1 485.13 487.64 490.29 491.59 493.59 495.51 496.47 497.95 499.37 502.38 505.83 509.49 511.43 513.88 516.42 517.23 519.56 521.36 525.08 527.15 529.97 533.73 535.79 537.2 538.07 538.41 539.44 539.15 540.72 540.31 542.85 543.39 544.39 545.45 545.64 544.49 545.59 545.37 9999 9999 9999 9999 9999 9999 9999 9999 9999 9999 9999 9999 9999 9999 9999 9999 9999 9999 9999 9999 9999 9999 9999 9999 9999 9999 9999 9999 9999 9999 9999
9999 9999 9999 704.14 705.3 705.4 704.96 704.29 703.14 702.36 700.3 699.13 696.7 695.4 693.29 692.6 691.19 690.3 688.72 687.56 686.27 683.69 680.95 678.11 676.08 673.81 672.84 670.72 670.34 670.38 669.69 668.23 666.4 664.84 663.22 660.65 658.63 655.53 651.74 649.59 646.77 644.26 641.1 638.63 635.53 631.22 628.44 625.16 622.49 619.6 616.63 613.77 609.85 606.02 601.85 598.61 595.81 592.43 589.31 583.36 580.77 577.47 575.87 575.58 575.04 574.51 572.35 568.99 566.82 566.06 565.58 566.24 567.36 568.29 567.21 564.99 562.87 561.73 561.1 560.95 557.65 556.18 556.43 555.45 554.57 553.34 552.32 547.99 543.76 539.13 529.59 525.78 522.17 519.19 516.29 514.17 512.86 507.41 504.82 502.79 502.11 499.8 498.99 497.28 495.84 491.28 488.7 487.24 485.13 483.83 481.72 481.59 478.6 477.03 475.24 473.78 471.83 470.02 468.05 465.7 461.82 459.23 458.61 457.04 454.91 452.65 450.94 446.57 444.25 441.26 440.09 437.84 436.41 435.02 434.92 432.05 430.99 430.59 430.94 430.52 429.75 429.55 9999 9999 9999 9999 9999 429.59 429.45 429.76 430.01 9999 429.11 429.28 429.94 429.56 429.28 9999 429.72 429.91 9999 9999 9999 429.64 429.52 429.91 430.07 430.07 430.17 429.52 430.56 430.49 430.48 429.91 9999 9999 430.71 431.26 433.6 436.06 435.05 435.84 435.15 436.38 436.23 435.36 435.53 435.56 436.29 435.43 435.2 436.03 436.55 436.21 436.39 436.91 437.7 437.51 437.45 437.4 437.17 437.33 436.78 436.48 436.74 437.2 436.93 436.33 436.04 435.73 435.65 436.07 435.74 435.81 435.96 436.62 436.41 436.21 436.3 436.22 436.36 436.74 436.65 437.14 437.49 437.17 437.5 437.88 437.69 438.04 437.8 438.31 437.49 438.1 437.83 438.46 437.84 438.17 438.28 438.26 438.57 438.55 438.15 438.26 438.68 439.14 438.77 438.6 438.81 439.07 438.92 438.48 439.46 439.52 438.83 438.8 439.96 439.79 439.87 439.94 440.31 439.95 440.34 440.31 440.48 440.69 441.21 440.47 440.46 440.62 440.73 441.62 441.51 441.17 441.47 442.03 441.68 441.55 442.4 442.09 442.24 442.27 442 442.96 442.3 441.81 442.9 443.29 443.96 444.21 445.48 445.23 444.61 444.75 445.14 445.25 444.86 443.02 443.37 443.55 444.03 445.64 445.21 443.91 443.77 443.24 9999 446.25 451.35 456.57 460.6 463.41 465.64 467.03 468.87 471.26 473.65 476.06 478.32 483.35 486.61 489.35 491.22 492.87 494.23 495.79 498.12 498.79 498.34 498.61 498.38 498.34 497.56 495.36 493.21 489.56 488.04 485.84 485.59 485.56 487.51 488.91 490.03 492.16 494.04 496.52 497.71 498.41 500.21 504.56 507.78 511.07 513.57 515.77 517.84 520.06 522.47 525.43 528.39 532.15 535.09 537.24 538.88 538.54 538.58 539.27 540.66 541.22 541.91 543.56 545.2 546.8 546.04 546.7 546.75 546.86 548.1 9999 9999 9999 9999 9999 9999 9999 9999 9999 9999 9999 9999 9999 9999 9999 9999 9999 9999 9999 9999 9999 9999 9999 9999 9999 9999 9999 9999 9999 9999 9999
9999 9999 9999 704.62 705.06 705.2 704.94 704.09 703.25 702.11 700.92 699.25 697.13 695.47 694.15 693.13 691.46 690.37 688.57 685.88 684.2 682.21 679.75 676.28 674.59 673.09 672.38 671.43 671.15 670.42 669.96 668.93 667.27 665.21 663.09 660.67 658.23 655.53 653.06 649.99 646.67 642.95 640.1 637.49 634.53 631.6 627.58 625.49 622.62 618.93 615.29 613.51 609.33 604.53 600.46 596.65 593.01 590.42 587.38 583.26 578.02 575.14 573.44 573.67 572.89 571.08 570.36 568.44 565.89 565.12 562.78 562.75 564.53 564.86 564.15 562.58 561.91 560.34 559.54 558.18 556.53 554.25 554.34 554.18 552.84 550.98 548.52 543.53 538.59 531.84 524.37 520.07 516.58 515.27 511.67 508.99 506.16 505.41 502.38 499.64 498.55 495.8 493.72 491.71 489.8 487.91 485.94 483.8 482.47 479.05 478.17 476.76 475.98 474.95 472.95 471.73 469.59 467.23 463.93 460.69 459.54 456.88 455.58 453.61 449.99 447.87 444.87 443.54 442.18 439.61 437.77 435.95 432.88 431.52 430.99 430.16 429.5 430.13 430.38 429.85 429.28 9999 9999 9999 9999 9999 429.48 429.73 430.2 430.08 428.78 9999 430 429.64 429.47 429.41 9999 430.35 9999 9999 429.91 9999 9999 430.32 430.25 429.85 430.31 9999 429.18 430.55 430.36 430.35 430.12 9999 430.52 430.19 433.94 435.49 436.11 435.26 435.52 435.89 435.49 435.48 435 435.83 435.66 435.65 435.72 435.12 435.31 435.54 435.87 436.32 436 436.68 436.82 436.83 437.29 437.64 437.27 437.43 437.36 437.75 436.41 436.64 436.29 435.56 435.6 435.35 435.71 435.23 435.64 436.15 436.65 435.98 436.53 436 436.36 436 436.7 436.29 437.45 437.58 437.4 437.2 437.7 437.72 437.73 437.22 437.47 437.64 437.55 437.27 437.79 437.86 438.09 437.81 438.38 438.5 438.72 438.32 438.5 438.33 438.41 438.7 438.63 438.74 438.95 439.15 439.26 439.14 438.53 439.2 439.48 439.17 439.27 439.83 439.87 439.91 440.01 440.1 440.35 440.22 440.41 440.68 440.3 441.05 440.62 440.7 440.8 440.88 441.35 440.14 441.17 441.36 441.82 441.4 441.35 443.02 441.33 442.29 442.8 443.88 442.68 443.63 442.2 442.96 443.86 443.3 443.57 445.3 446.02 445.35 445.28 442.77 442.85 443.06 443.1 443.41 443.55 443.81 443.64 443.53 443.41 9999 445.49 449.06 452.57 456.05 461.53 465.01 467.29 468.8 471.02 473.05 476.4 479.88 482.94 485.66 489.21 491.77 492.47 495.01 496.43 497.66 498.58 498.62 499.66 499.22 499.04 497.56 495.14 491.72 487.59 486.19 485.84 485.61 485.4 485.56 487.95 490.02 490.29 491.2 492.75 494.92 496.66 498.79 500.16 502.4 506.21 509.42 512.61 514.85 517.38 520.27 522.66 525.93 529.37 534.26 536.83 538.77 539.91 539.84 540.45 541.2 542.91 543.07 543.65 544.57 546.52 547.08 547.89 549.73 550.61 550.42 551.27 9999 9999 9999 9999 9999 9999 9999 9999 9999 9999 9999 9999 9999 9999 9999 9999 9999 9999 9999 9999 9999 9999 9999 9999 9999 9999 9999 9999 9999 9999 9999
9999 9999 9999 704.29 705.31 705.02 704.58 704.1 703.07 701.88 700.42 699.06 697.29 695.74 694.8 693.63 692.12 690.6 688.62 686.42 683.12 680.82 677.56 674.7 672.84 672.94 672.79 672.25 671.81 671.22 670.87 670.09 668.11 666.41 662.81 660.94 658.54 656.1 652.25 650.05 646.68 642.86 640.02 637.11 634.39 631.08 628.87 625.46 621.99 618.5 615.06 611.7 608.58 604.23 600.08 594.45 592 589.22 585.51 581.23 577.26 571.77 569.3 570.45 570.36 568.64 568.1 566.86 564.2 561.32 560.39 560.3 561.26 561.79 560.62 559.12 557.66 557.67 556.43 555.45 553.89 551.85 551.72 550.85 549.33 549.19 543.63 537.44 534.6 528.69 519.97 514.1 511.64 509.75 508.46 505.98 503.12 501 498.13 495.13 494.06 491.6 490.78 487.53 487.43 484.36 481.99 480.36 478.24 477.03 475.13 474.43 474.01 471.62 469.92 468.32 466.57 463.45 461.81 457.99 455.89 452.75 451.02 449.05 446.07 444 441.56 440.87 438.5 437.5 434.31 432.78 430.54 429.32 429.11 9999 9999 9999 429.96 429.78 9999 9999 9999 9999 9999 9999 430.25 429.46 429.51 429.3 9999 9999 9999 429.95 429.17 9999 9999 9999 9999 429.65 429.46 9999 9999 429.94 430.19 430.16 429.67 430.14 429.94 430.75 430.43 9999 9999 430.6 431.03 434.43 435.7 435.65 435.67 435.31 435.21 434.96 434.53 435.39 435.24 435.13 435.32 435.81 435.18 435.57 435.45 435.84 435.88 435.54 436.03 435.66 436.59 437.19 437.26 436.39 437.54 436.96 437.39 437.24 436.85 436.08 435.29 435.19 435.22 435.27 435.34 434.99 435.03 436.32 435.95 436.71 436.25 436.53 435.86 436.14 436.78 436.95 436.83 437.19 437.09 437.33 437.37 437.76 437.61 437.83 437.32 437.78 437.6 438.14 437.86 437.96 437.93 438.3 438 438.15 437.65 438.41 438.73 438.39 438.32 438.76 438.65 438.4 438.93 439.53 438.34 438.75 438.43 438.55 438.97 439.54 438.86 439.27 439.37 440.63 440.08 440.14 440.12 9999 440.64 440.3 441.04 440.37 440.4 440.7 441.23 441.35 440.87 441.04 441.14 441.56 441.14 442.02 441.98 442.14 440.9 442.22 442.42 442.81 443.03 442.55 443.35 444.04 444.14 444.34 444.25 445.28 446.94 445.6 442.62 442.87 443.34 443.21 443.78 443.75 443.7 444.37 443.47 9999 9999 446.82 449.67 451.22 451.82 457.6 462.09 465.53 468.87 471.77 474.01 476.37 479.35 482.9 485.36 489.12 492.43 494.21 496 496.05 497.44 497.54 499.57 499.14 498.57 498.46 497.55 494.62 491.3 486.12 9999 9999 485.4 485.72 485.84 485.34 488.39 490.73 492.01 493.36 491.84 494.06 496.56 498.59 499.94 501.73 504.11 507.9 510.63 514.32 517.45 520.23 523.64 527.45 531.51 534.11 536.95 539.98 540.26 541.09 542.28 542.81 544.65 544.87 545.24 546.6 548.09 549.9 550.46 551.13 552.64 552.97 553.07 9999 9999 9999 9999 9999 9999 9999 9999 9999 9999 9999 9999 9999 9999 9999 9999 9999 9999 9999 9999 9999 9999 9999 9999 9999 9999 9999 9999 9999 9999 9999
9999 9999 9999 705.6 705.63 705.33 704.71 703.46 702.88 701.99 700.36 700.17 698.26 697.05 695.21 694.19 692.5 690.87 688.07 685.77 683.36 679.81 676.78 674.94 673.37 673.21 673.39 673.58 673 672.58 671.38 670.47 667.95 666.33 663.79 661.64 658.52 654.99 651.77 649.7 646.07 643.36 638.66 636.27 633.66 630.95 627.39 625.24 622.4 617.67 613.54 610.22 606.94 603.29 599.03 595.32 590.41 586.33 582.96 579.31 576.52 572.3 569.11 568.52 568.86 566.24 564.18 563.06 562.2 560.68 558.82 557.98 557.95 558.07 555.43 553.1 553.69 555.44 555.31 552.85 548.23 547.27 548.09 546.38 545.11 541.78 537.53 534.09 526.39 521.23 513.94 509.92 507.62 507.25 505.27 501.85 499.37 495.2 494.41 492.93 491.38 489.11 487.39 484.58 481.88 481.04 478.7 477.63 475.98 473.66 471.34 471.32 469.7 469.13 468.13 466.17 464.02 461.75 456.87 453.76 451.38 449.92 447.96 445.83 444.53 440.52 438.9 436.7 436.19 434.54 433.02 432.67 430.34 428.95 9999 9999 9999 429.1 429.5 429.48 428.91 9999 9999 9999 9999 9999 9999 9999 9999 9999 9999 9999 9999 9999 9999 429.79 429.26 429.5 429.61 429.58 429.53 429.65 429.47 429.53 429.95 429.61 429.93 430.05 430.04 430.23 430.06 430.26 429.62 429.81 431.97 435.12 435.71 435.48 435.3 434.66 434.96 434.67 434.41 434.75 434.59 435.53 435.43 435.43 435.29 435.34 435.46 435.32 435.47 436.1 435.35 435.44 436.6 436.97 436.74 436.66 436.61 436.23 437.45 436.46 436.14 435.84 435.24 434.9 434.73 435.53 435.3 435.2 435.27 435.45 435.94 435.52 435.77 435.74 435.98 436.28 436.41 436.62 436.97 437.13 436.85 437.45 437.57 437.44 437.46 437.5 437.39 437.55 437.6 437.75 438.04 437.77 437.95 438.12 438.18 437.83 438.31 438.89 438.75 438.33 438.64 439.11 438.33 438.96 439.31 438.48 438.79 438.46 439.18 439.25 439.5 438.96 439.73 439.48 440.17 439.79 440.3 439.81 9999 9999 9999 9999 440.38 440.56 440.86 441.61 440.71 440.87 9999 440.99 441.12 441.49 441.25 441.71 442.35 442.21 441.46 442.03 442.91 442.17 442.28 442.44 442.98 443.98 444.96 444.3 443.84 444.3 446.39 442.89 443.45 441.97 442.69 442.51 9999 9999 9999 9999 9999 443.64 448.35 447.83 451.59 451.89 455.36 458.72 464.11 467.4 470.8 474.28 476.54 479.94 482.41 486.63 488.98 492.42 494.59 495.39 497.57 498.65 498.68 499.64 499.19 498.43 498.29 496.72 493.87 489.79 485.99 9999 9999 485 485.64 485.56 486.31 487.17 488.8 490.34 492.88 493.47 494.46 493.97 496.13 498.25 499.55 501.95 504.05 507.1 510.04 512.88 516.19 520.74 524.46 528.33 531.89 534.94 537.71 539.02 540.47 541.91 543.12 544.96 545.18 546.43 548.74 549.37 549.71 551.5 552.84 553.66 556.34 557.56 558.25 9999 9999 9999 9999 9999 9999 9999 9999 9999 9999 9999 9999 9999 9999 9999 9999 9999 9999 9999 9999 9999 9999 9999 9999 9999 9999 9999 9999 9999 9999 9999
9999 9999 9999 705.35 705.46 705.62 705.41 704.62 703.24 702.44 701.13 700.12 699.22 697.65 696.8 694.85 693.22 690.69 688.4 686.12 682.8 680.47 677.41 675 675.37 675.32 674.79 674.06 674.19 672.5 672.02 669.91 668.86 666.62 663.73 661.76 658.48 655.71 651.56 648.37 646.07 642.26 638.68 634.5 632.81 630.5 627.14 623.74 621.05 618.03 612.97 609.76 605.63 602.27 597.67 593.51 589.85 585.44 581.03 578.05 575.06 571.3 568.55 565.97 565.49 565.41 562.95 560.58 559 557.32 557.1 554.84 554.9 554.98 552.65 548.89 547.72 548.33 550.09 548.03 545.35 545.3 544.37 542.48 536.39 531.3 527.65 523.51 518.22 513.82 509.37 507.83 502.11 500.89 500.69 497.94 496.06 493.14 492 488.94 486.34 485.14 483.1 480.96 479.42 478.08 476.3 473.32 471.8 471.34 469.58 468.8 467.36 467.16 465.54 462.37 460.65 457.24 454.18 451.29 450.21 448.63 445.2 442.56 440.85 439.91 437.67 435.15 433.78 432.53 430.59 430.32 9999 9999 9999 429.3 429.27 429.56 429.44 429.81 429.21 9999 9999 9999 9999 428.72 9999 9999 9999 9999 9999 9999 9999 9999 429.41 429.33 429.58 429.38 429.53 429.9 429.56 429.66 429.4 429.82 430.07 429.75 430.43 429.63 9999 429.85 430.1 430.37 430.07 431.11 432.24 434.62 434.96 435.77 434.64 434.88 434.44 434.84 434.25 435.29 435.35 434.62 434.96 435.49 435.29 434.81 434.61 434.8 435.17 434.95 435.68 435.15 436.52 436.5 436.17 435.94 436.31 436.2 436.99 436.58 435.64 434.89 434.9 434.82 435.2 435.06 435.29 435.31 435.61 435.6 435.22 435.69 435.74 436.21 435.71 435.83 436.66 436.52 437.14 436.86 436.67 436.98 437.03 437.65 437.08 437.6 437.28 436.92 437.62 437.37 437.37 437.44 437.54 437.7 438.09 438.62 438.24 438.62 437.75 438.16 438.06 438.8 438.39 438.57 438.69 438.51 438.66 439.25 438.64 438.88 438.96 439.28 439.09 439.83 439.73 440.13 440.42 438.93 9999 9999 9999 9999 9999 440.46 440.47 441.5 440.85 440.82 9999 441.4 441.2 441.72 441.72 441.89 442.01 442.11 442.12 441.24 9999 442.46 442.35 442.54 443.66 445.76 444.82 444.59 444.82 445.02 443.11 443.08 441.57 441.18 441.82 441.49 9999 9999 9999 446.17 449.48 451.24 453.77 450.91 450.35 453.86 456.55 459.32 465.25 469.07 472.35 475.67 481.32 484.05 486.67 489 492.32 493.62 496.55 497.2 499.92 499.17 500.04 500.53 499.42 498.9 496.52 493.54 490.66 487.08 484.97 484.83 9999 485.95 486.15 486.66 486.55 487.76 489.54 490.88 492.59 494.07 495.79 496.35 496.61 497.93 499.27 502.16 503.71 507.11 509.78 513.02 516.69 520.01 524.74 528.74 531.87 534.8 537.33 538.92 539.96 541.85 543.92 546.44 547.86 549.78 550.03 550.58 552.99 554.99 555.99 557.76 557.99 559.03 559.66 9999 9999 9999 9999 9999 9999 9999 9999 9999 9999 9999 9999 9999 9999 9999 9999 9999 9999 9999 9999 9999 9999 9999 9999 9999 9999 9999 9999 9999 9999 9999
9999 9999 9999 706.4 706.41 706.32 705.72 704.62 703.62 702.79 700.88 700.04 699.2 698.43 697.32 695.66 694.53 691.44 689.21 685.88 683.72 681.4 679.63 677.89 676.61 676 675.85 675.61 674.56 673.94 672.3 670.2 668.37 666.57 663.53 661.43 658.35 654.03 651.43 647.33 644.71 641.28 637.84 634.34 631.35 629.32 626.74 623.33 620.77 616.21 613.11 607.38 603.59 600.03 596.19 591.55 588.41 585.3 579.8 576.29 573.01 570.26 567.59 565.68 563.81 563.04 561.33 559.59 556.63 556.21 554.75 553.5 553.14 553.3 549.02 544.04 541.32 543.36 544.7 543.03 541.66 538.13 539.07 534.3 529.22 525.44 519.59 515.38 510.55 504.45 503.24 501.19 499.28 496.71 496.3 494.16 488.47 486.35 485.83 485.31 483.35 482.64 480.24 478.87 476.18 473.96 471.94 470.56 468.78 467.79 466.65 466.23 465.34 463.62 462.19 459.92 456.43 453.97 451.65 447.71 446.88 444.78 443.19 441.07 439.74 437.02 436.27 432.99 431.51 430.94 430.13 428.86 9999 9999 429.32 429.82 430.63 430.31 430.11 430.25 429.63 9999 9999 9999 429.85 9999 9999 9999 9999 9999 9999 9999 9999 9999 9999 429.07 429.31 429.39 429.7 429.38 429.09 429.82 429.77 429.8 429.93 429.53 429.9 429.64 9999 429.76 429.52 430.85 430.99 432.03 432.59 434.32 434.8 434.89 434.38 433.68 433.99 433.84 434.66 434.61 434.68 435.04 434.97 434.64 434.8 435.28 434.85 435.65 435.05 434.85 435.45 435.92 436.48 436.24 435.84 436.32 435.94 436.02 435.92 435.3 434.93 434.49 434.62 434.63 435.27 434.94 434.94 435.5 434.52 435.69 435.38 435.7 435.56 435.88 435.81 435.61 436.43 437.28 436.94 436.78 437 437.28 437.04 437.34 437.54 437.21 437.4 436.95 437.5 437.5 436.71 437.84 437.97 437.41 437.6 437.59 437.63 437.89 438.44 438.05 438.01 438.59 438.17 438.44 438.55 438.87 439.02 438.6 438.29 439.33 439.01 439.38 439.42 439.31 439.93 439.6 440.43 439.75 9999 9999 9999 438.62 439.63 441.09 440.73 441.03 440.91 440.6 9999 441.56 440.4 441.32 441.07 441.72 441.98 441.62 441.99 443.01 442.89 442.2 442.79 443.47 445.05 444.85 444.46 444.2 444.65 443.94 442.63 442.48 441.17 442.88 441.45 9999 442.98 447.35 450.47 455.07 454.76 455.16 455.83 454.88 454.33 452.36 455.44 459.66 465.43 468.72 474.41 478.31 482.11 485.7 489.34 492.4 494.77 496.03 497.86 498.01 500.19 500.67 500.71 500.25 499.6 497.88 495.52 493.1 488.96 485.29 485.53 485.95 485.99 486.17 487.65 487.35 487.1 488.67 490.33 491.76 492.61 494.42 495.51 496.58 497.15 499.75 501.09 501.49 504.81 507.02 508.7 512.67 516.32 520.62 524.6 529.49 532.08 534.99 536.54 538.63 540.61 542.33 546.21 548.96 550.09 551.7 553.17 554.2 555.65 557.23 558.09 559.1 560.39 562.98 564.36 9999 9999 9999 9999 9999 9999 9999 9999 9999 9999 9999 9999 9999 9999 9999 9999 9999 9999 9999 9999 9999 9999 9999 9999 9999 9999 9999 9999 9999 9999 9999
9999 9999 9999 707.67 707.21 707.03 705.92 705.39 704.19 704.04 702.72 701.09 700.34 698.69 697.69 696.56 694.77 692.67 689.83 686.9 684.44 682.25 680.82 679.4 678.48 678.44 677.92 676.12 675.53 674.48 673 670.65 667.7 665.6 663.09 660.23 657.31 654.22 650.47 647.32 642.79 640.91 637.09 634.04 631.64 628.27 625.86 622.68 619.74 615.41 611.88 607.33 602.23 598.79 595.17 590.2 585.95 582.48 579.17 575.16 572.27 568.72 568.08 565.08 562.15 560.97 560.2 559.23 556.16 554.49 553.6 551.18 549.94 550.36 547.42 541.97 536.86 537.48 533.76 534.71 531.75 532.47 533.51 529.89 522.8 518.43 510.18 504.01 502.37 500.23 499.74 496.95 494.21 490.79 490 487.41 486.83 483.03 481.92 481.49 480.19 477.72 475.47 474.23 472.45 472.59 471.23 468.68 465.73 464.33 464.1 463.4 462.55 462.42 460.41 456.23 451.7 449.24 447.71 445.65 443.79 442.54 440.65 437.69 435.85 434.78 433.61 431.74 431.1 430.12 430.2 429.14 9999 9999 429.89 430.05 430.85 430.13 430.54 430.2 430.31 9999 9999 9999 9999 9999 9999 9999 429.26 430.04 428.74 9999 9999 9999 9999 429.07 429.98 429.99 428.97 429.24 429.65 429.96 430.1 429.76 429.69 429.63 429.59 429.53 430.51 430.06 430.79 431.08 431.92 433.09 433.01 433.88 433.54 433.41 433.99 434.1 433.74 434.4 434.27 434.69 434.52 434.59 434.75 434.73 434.68 434.41 434.98 434.75 435.16 435.25 435.29 436.02 435.13 435.22 435.6 435.15 435.69 435.99 435.97 435.17 434.72 434.58 434.75 434.42 435 434.47 434.94 434.85 435.66 435.21 435.05 435.27 435.45 435.37 435.87 435.61 436.35 436.64 436.46 436.41 437.04 436.87 436.66 437.07 437.6 437.52 437.2 437.18 436.97 437.14 9999 9999 9999 437.1 436.71 438.02 437.57 437.03 437.71 437.81 438.54 438.25 438.42 438.47 438.35 438.57 439.13 438.47 438.3 438.6 438.32 438.96 439.84 439.33 440.23 439.64 440.19 439.57 440.1 440.2 440.62 440.55 440.49 440.33 440.19 440.08 440.87 440.31 9999 441.13 9999 9999 441.17 441.33 441.12 442.1 441.94 442.42 442.86 442.38 443.41 444.5 444.77 445.25 443.37 443.82 445.04 443.61 442.18 441.23 9999 9999 442.59 445.69 451.14 452.8 456.67 457.9 458.94 459.39 458.33 457.84 457.56 454.54 456.36 458.72 463.34 468.48 473.92 479.29 483.8 487.21 490.36 493.26 494.83 496.65 498.28 500.04 501.83 501.93 500.36 500.36 498.94 496.18 494.73 491.42 487.51 485.87 485.59 486.06 486.43 486.48 487.05 487.95 488.79 489.45 490.19 491.87 492.84 494.6 495.86 496.83 497.75 498.98 500.53 502 504.92 507.2 509.43 512.63 516.27 521.49 525.35 527.27 530.91 533.95 536.09 538.95 541.38 544.97 547.79 550.99 552.89 553.88 555.33 555.97 558.08 559.43 561.56 562.59 564.23 565.34 566.22 9999 9999 9999 9999 9999 9999 9999 9999 9999 9999 9999 9999 9999 9999 9999 9999 9999 9999 9999 9999 9999 9999 9999 9999 9999 9999 9999 9999 9999 9999 9999
9999 9999 9999 708.45 708.68 707.47 706.8 706.11 704.8 704.38 702.98 701.55 700.61 700.17 698.29 697.25 695.16 693.36 690.43 686.98 685.92 683.98 682.73 681.56 680.3 679.66 678.78 677.28 676.05 674.33 673.03 670.82 668.86 665.62 663.03 660.03 656.93 654.27 650.87 647.37 643.43 639.76 637.17 633.77 630.47 627.93 624.84 621.45 617.96 613.88 609.83 605.94 601.2 597.29 592.29 589.16 585.84 581.54 577.59 574.74 570.96 569.18 567.21 564.21 561.53 560.86 559.44 557.14 554.99 551.99 550.06 548.44 547.49 548.49 546.21 542.21 534.52 531.19 528.36 529.28 526.38 523.19 524.33 517.51 513.59 506.65 504.37 500.16 496.48 494.27 491.47 490.22 488.13 487.63 485.28 484.51 481.35 480.41 477.2 477.01 476.44 475.24 472.72 471.63 470.06 467.67 466.61 466.11 464.06 462.41 461.48 461.24 460.49 457.59 455.45 452.79 449.95 446.74 445.17 444.15 441.07 439.56 437.94 435.46 433.76 432.66 432.09 430.85 430.91 430.57 430.47 429.59 9999 9999 430.65 431.59 431.54 430.33 430.56 431.04 430.44 9999 9999 428.53 429.25 9999 9999 428.62 429.42 9999 9999 9999 9999 9999 9999 9999 430.14 428.73 429.53 429.58 429.81 430.33 429.7 429.41 430.24 429.32 428.34 430.14 430.18 430.43 430.79 430.85 433.04 432.64 433.56 433.76 433.32 433.51 433.92 433.91 434.57 434.15 434.4 433.99 434.46 434.58 434.9 435.19 435.05 434.58 434.69 434.95 434.79 434.7 435.55 435.55 435.13 435.09 435.09 435.65 435.71 435.91 434.81 434.9 435.21 434.87 435.23 434.05 434.68 435.06 434.77 434.85 435.3 434.6 435.41 435.76 435.67 435.23 435.76 435.98 436.74 436.42 436.62 436.28 436.73 436.6 436.66 437.19 437.15 437.06 437.25 437.32 437.33 437.46 436.81 9999 9999 9999 9999 9999 437.91 437.56 437.85 438.38 438.05 437.99 438.9 438.46 438.85 438.35 439.19 438.89 438.99 439.11 438.71 439.71 439.49 439.47 439.77 439.98 440.26 440.44 440.32 440.11 440.5 440.41 440.18 440.26 440.56 440.31 441.01 9999 9999 440.89 440.4 441.72 441.62 441.22 441.05 441.25 441.7 442.24 442.51 444.46 443.67 443.82 445.22 445.69 445.02 445.61 443.66 441.23 441.25 9999 9999 444.06 446.2 453.93 455.37 457.7 457.9 460.4 461.25 461.21 461.96 463.07 462.84 463.49 461.43 459.53 460.31 466.54 471.4 478.49 483.59 486.59 490.7 493.42 495.02 496.48 498.08 500.57 501.1 502.01 501.37 499.08 497.65 495.26 493.15 490.16 487.43 485.65 485.9 486.3 487.02 487.26 487.59 488.56 489.3 489.34 489.97 491.31 492.35 493.48 495.23 496.61 496.87 499.04 500.72 502.1 503.88 506.13 509.06 513.02 517.82 522.01 525.33 528.36 530.28 533.12 535.92 539.57 544.21 548.17 551.64 552.7 555.08 556.79 557.63 558.9 561.31 562.35 563.89 564.36 565.65 566.89 568.7 9999 9999 9999 9999 9999 9999 9999 9999 9999 9999 9999 9999 9999 9999 9999 9999 9999 9999 9999 9999 9999 9999 9999 9999 9999 9999 9999 9999 9999 9999 9999
9999 9999 9999 709.35 709.86 708.43 707.86 707.27 705.84 704.6 702.98 702.83 701.47 700.25 699.15 697.35 696.16 693.86 691.1 689.35 686.66 685.63 684.53 682.42 681.55 680.79 680.35 678.42 676.68 675.15 672.5 671.18 668.51 665.89 662.25 659.69 656.67 653.18 649.79 646.12 643.38 638.98 636.22 632.4 629.39 627.5 623.99 620.9 616.47 611.21 608.18 603.67 599.98 595.6 591.84 588.44 584.91 580.2 577.16 573.97 570.73 568.13 565.04 562.7 561.44 561 559.64 558.12 555.02 552.31 548.99 547.18 545.36 544.8 542.57 540.27 533.71 528.87 525.58 519.62 517.32 516.32 509.86 504.85 503.2 500.01 496.93 492.94 491.75 488.9 487.2 486.01 484.38 484.06 482.54 479.02 477.48 475.06 474.26 474.17 472.97 472.15 468.9 467.47 465.97 465.88 464.61 463.05 462.19 460.5 457.43 456.65 456.05 453.86 451.82 450.51 448.46 443.75 441.49 440.05 438.92 437.41 436.76 434.17 432.74 430.62 9999 430.84 430.55 430.59 430.45 430.91 9999 9999 9999 431.33 431.68 430.72 430.67 430.62 9999 9999 429.8 430.56 430.31 431.32 431.21 430.8 430.76 430.55 428.48 9999 9999 9999 9999 9999 9999 429.83 429.56 429.86 429.56 429.65 429.63 429.56 429.56 428.87 430.54 430.58 430.33 430.55 430.84 431.47 432.69 433.28 432.92 433.45 433.63 432.96 433.54 433.92 434.36 434.26 433.93 434.49 434.71 434.64 435.08 435.08 435.04 434.84 434.19 434.23 434.73 435.07 434.76 435.22 434.99 434.97 435.41 435.43 435.13 434.81 434.43 434.73 434.47 434.74 434.61 434.72 434.72 435.02 434.53 435.18 434.81 434.98 435.26 435.19 436.02 435.99 435.92 436.08 436.64 435.98 436.34 436.37 436.72 436.99 436.24 437.39 436.67 436.8 436.91 437.52 437.32 437.59 437.01 9999 9999 9999 9999 9999 437.66 437.55 437.97 438.53 437.79 438.38 438.65 438.5 438.05 439.24 438.58 438.72 438.23 438.58 438.92 438.58 439.21 439.12 439.49 440.13 440.12 439.38 439.4 439.73 439.87 440.43 439.91 440.86 440.61 440.66 440.94 9999 9999 440.84 440.76 440.95 440.53 440.63 441.68 441.88 442.21 442.02 443.35 444.83 444.58 443.84 444.83 443.44 443.68 443 441.69 9999 9999 9999 445.89 450.2 453.38 456.19 458.38 459.17 460.1 461.66 463.54 464.05 465.32 466.08 467.17 467.52 467.53 469.5 467.98 463.39 469.93 475.53 481.48 485.67 488.61 492.39 493.43 496.08 497.75 500.15 501.24 501.31 500.63 498.99 496.33 494.34 492.83 489.96 488.24 486.45 486.66 486.85 486.94 486.81 487.88 489.12 489.77 490.13 490.81 491.76 492.17 493.21 494.18 495.36 497.74 499.66 501.09 503.41 505.75 507.48 510.43 514.26 517.46 521.64 524.41 527.42 529.77 532.94 535.7 541.6 546.29 549.42 553.06 554.87 556.69 559.92 561.03 562.85 564.15 565.05 566.32 566.73 568.58 570.59 572.24 9999 9999 9999 9999 9999 9999 9999 9999 9999 9999 9999 9999 9999 9999 9999 9999 9999 9999 9999 9999 9999 9999 9999 9999 9999 9999 9999 9999 9999 9999 9999
9999 9999 9999 709.85 710.23 709.91 708.29 708.05 706.76 705.74 704.89 703.03 702.32 701.08 699.56 698.33 697.05 694.45 692.11 690.41 688.44 686.55 685.24 685.1 683.72 682.15 680.96 679.37 677.38 675.37 673.43 670.26 667.87 665.52 663.01 659.02 656.09 653.33 648.93 645.76 643.35 639.31 634.66 632.03 628.52 625.38 621.65 618.59 614.93 610.98 605.68 602.64 598.62 594.57 590.9 587.33 582.62 579.15 576.55 573.09 569.78 565.78 562.38 559.27 561.53 561.51 560.66 558.53 555.62 551.88 549.11 546.14 542.65 541.63 540.49 537.26 533.3 529.94 526.03 519.8 512.46 507.58 506.85 500.61 494.58 492.5 490.4 489.07 487.8 486.37 484.14 481.8 480.5 479.3 478.47 475.65 474.57 472.18 470.96 469.75 469.52 468.33 466.52 466.04 464.14 463.47 461.63 459.52 458.25 457.47 455.98 454.05 451.89 451.8 448.29 445.42 444.21 442.27 440.36 439.21 436.79 436.17 434.49 432.62 431 9999 9999 431.13 431.02 431.1 431.81 432.72 9999 429.81 9999 429.92 431.4 431.17 429.53 9999 9999 427.84 430.66 430.11 430.3 430.81 430.56 430.56 431.06 430.98 430.59 429.41 9999 429.28 429.97 429.54 429.95 428.99 429.22 430.63 429.99 430.17 430.18 429.63 429.2 430.44 430.82 431.09 430.92 430.82 431.89 431.81 432.42 432.76 433.11 432.96 433.43 432.94 433.4 433.69 433.84 434.18 434.08 433.95 434.4 434.65 434.14 434.17 434.23 434.24 434.45 434.14 434.51 435.09 435.22 434.64 434.86 434.68 435.08 434.77 434.43 434.78 434.19 434.34 434.96 434.34 433.77 434.47 434.57 434.48 434.69 434.17 434.77 435.09 434.92 435.59 435.99 435.63 435.87 436.27 436.53 436.18 436.6 437.36 436.68 436.83 436.5 436.45 437.02 437.36 437.29 437.34 437.23 437.33 437.43 437.41 9999 9999 9999 9999 438.11 437.27 437.56 438.17 438.27 438.22 438.25 438.26 438.36 438.61 438.57 438.65 438.97 439.13 438.79 439.24 439.67 439.4 439.31 440.19 440.28 440.11 439.78 439.2 439.74 440.04 439.98 439.52 440.71 440.71 441.39 441.24 9999 440.49 440.58 440.72 441.47 441.69 442.17 442.06 442.57 444.23 443.88 445.39 443.93 443.61 444.14 443.69 441.82 440.48 9999 9999 442.25 448.08 450.87 452.98 455.26 457.59 458.97 461.14 462.13 463.29 464.83 465.63 467.78 469.17 471.42 473.66 475.03 474.78 473.68 468.19 464.93 470.78 479.8 484.27 487.82 491.42 492.41 493.9 495.64 497.92 499.07 499.98 500.23 499.14 497.02 495.55 491.36 489.05 487.47 487.24 486.82 487.07 487.65 487.46 488.68 489.75 490.19 490.89 492.01 492.7 494.23 494.14 494.9 496.76 497.28 498.96 501.54 504.2 506.64 509.79 512.46 516.55 518.08 521.88 525.86 528.44 530.48 533.79 537.53 540.77 545.27 550.95 554.97 557.18 559.3 560.8 562.57 564.27 566.34 568.58 569.48 570.07 571.82 573.01 573.98 9999 9999 9999 9999 9999 9999 9999 9999 9999 9999 9999 9999 9999 9999 9999 9999 9999 9999 9999 9999 9999 9999 9999 9999 9999 9999 9999 9999 9999 9999 9999
9999 9999 9999 711.07 711.22 710.96 709.55 709.08 708.57 706.56 705.56 703.84 703.13 702.56 701.04 699.09 696.66 695.35 693.1 691.03 689.83 689.46 687.48 685.9 684.62 682.89 681.94 680.55 678.04 675.07 672.9 670.37 667.89 664.78 661.73 658.62 655.58 651.84 649.06 645.96 641.99 639.36 635.92 630.55 626.58 623.48 620.37 617.55 613.73 610.76 605.25 601.43 597.37 593.86 589.81 586.38 583.05 579 574.89 571.4 568.27 564.38 560.16 557.42 558.56 560.15 559.35 558.18 555.85 553.49 549.66 545.79 543.1 540.64 538.03 534.94 533.01 532.54 527.93 521.93 513.18 505 498.6 493.02 494.34 490.82 486.64 485.84 482.65 481.72 480.55 478.71 477.37 476.59 474.94 473.54 470.84 469.28 467.55 467.75 466.08 465.31 464.3 461.92 461.71 459.67 458.23 458.03 456.25 455.06 453.2 451.36 450.29 448.57 445.94 444.44 442.09 440.29 438.9 437.02 434.67 433.99 432.38 431.98 430.54 9999 430.32 430.63 431.26 431.1 431.13 430.86 423.31 9999 9999 9999 430.22 430.24 9999 9999 9999 429.95 430.63 429.7 430.23 430.34 9999 430.83 430.72 431.1 431.02 430.43 428.99 429.05 429.63 429.66 430.27 430.43 430.53 430.16 431 430.42 429.72 430.63 430.35 430.42 430.9 430.46 431.43 432.04 431.61 432.03 432.66 433.07 433 433 433.13 432.94 433.87 434.07 433.52 433.41 434.3 434.29 434.02 434.41 434.3 434.3 434.55 433.95 434.23 434.2 434.37 434.78 435.38 434.85 434.88 434.41 434.76 434.49 434.89 434.4 434.47 434.55 433.98 434.03 434.15 434.46 434.58 434.32 434.91 434.6 434.61 434.92 435.44 435.19 435.57 435.44 436.39 436.23 436.28 436.66 436.38 435.83 436.44 436.33 436.49 436.56 436.64 437.52 436.96 437.14 437.11 436.97 436.87 437.17 437.3 437.3 436.77 437.7 437.88 437.63 437.8 437.66 437.76 438.48 438.02 437.97 438.24 438.08 438.32 438.58 438.46 438.25 438.31 439.38 439.18 439.49 439.46 440.66 439.83 440.27 439.28 439.19 438.88 439.07 440.16 440.12 439.83 440.96 441.02 440.78 440.82 441.35 440.97 441.45 441.2 441.17 442.71 442.61 443.85 444.78 444.34 443.59 442.52 443.75 443.05 9999 9999 9999 442.77 444.54 447.06 449.95 454.89 456.6 458.47 459.94 461.51 462.49 463.45 465.43 466.53 469.86 471.24 473.31 474.55 477.22 479.92 480.68 480.93 476.19 468.01 470.41 475.14 482.44 487.22 488.41 489.51 492.13 493.31 495.07 497.64 499.42 500.26 498.42 496.45 494.42 491.13 489.09 486.96 486.99 487.88 488.24 488.03 488.46 489.62 489.98 490.91 492.66 493.21 493.66 495.03 495.15 495.95 496.92 499.3 500.09 502.85 504.97 508.97 512.15 515.17 519.49 522.52 525.83 527.86 531.28 534.77 536.98 540.64 545.54 547.57 550.52 555.14 558.19 560.37 562.43 565.53 567.34 569.21 570.78 571.91 572.95 573.64 576.52 578.2 9999 9999 9999 9999 9999 9999 9999 9999 9999 9999 9999 9999 9999 9999 9999 9999 9999 9999 9999 9999 9999 9999 9999 9999 9999 9999 9999 9999 9999 9999 9999
9999 9999 9999 711.06 711.7 710.95 710.43 710.26 709.04 708.09 706.38 705.02 703.83 702.98 702.3 700.02 699.25 697.03 694.54 692.72 691.37 690.4 688.8 687.62 686.13 684.75 682.5 681.09 678.78 676.07 674.13 670.41 667.38 664.44 662.1 658.97 656.06 652.05 648.86 644.85 641.11 637.94 634.97 631.6 626.83 622.68 618.74 615.19 612.23 608.96 604.61 600.55 596.57 592.56 589.18 586.14 581.34 577.66 572.47 569.47 566.86 563.79 560.53 557.07 555.72 557.72 557.62 556.33 555.37 553.34 549.95 546.47 541.65 539.1 537.48 535.29 531.61 529.94 531.09 521.79 511.64 503.55 493.98 489.22 487.15 485.11 483.45 481.78 479.41 478.83 476.91 476.28 475.03 472.15 470.07 469.11 468.2 467.2 465.86 465.06 462.9 461.46 460.92 459.72 459.2 457.99 456.44 455.7 453.95 452.21 450.08 449.5 447.98 446.82 444.05 442.92 440.07 438.51 437.67 435.87 434.86 433.29 431.83 430.6 431.12 430.58 430.96 431.18 431.75 431.24 430.82 430.88 430.98 9999 9999 9999 429.49 9999 9999 428.71 430.6 429.89 429.78 430.32 430.46 430.07 9999 429.7 430.63 430.71 431.06 430.12 429.8 430.13 430.99 429.76 430.34 430.5 430.15 430.23 430.76 429.17 429.83 430.92 430.78 430.95 430.54 431.46 432.18 432.52 432.17 432.67 433.39 432.6 432.99 432.43 433.03 433.55 433.26 433.95 433.58 434.23 433.82 433.89 433.96 434.43 434.61 434.29 433.6 434.12 434.08 433.72 434.21 434.91 434.81 435.07 435.28 434.3 434.83 434.13 434.32 434.15 434 434.28 434.43 435.05 434.27 433.74 434.59 434.82 434.76 434.87 435.18 435.29 435.99 435.7 435.99 435.37 435.83 435.97 436.17 435.8 436.42 436.44 436.77 436.58 436.65 436.56 436.62 436.84 436.71 437.39 437.19 437.46 437.26 437.48 437.22 437.7 437.64 437.25 437.34 437.47 438.11 437.92 438.07 438.42 438.14 437.98 438.14 438.45 438.26 438.87 439 438.44 438.44 438.69 439.01 439.76 440.68 439.57 439.67 440.03 439.38 438.95 439.37 439.38 439.63 439.52 440.01 440.77 441.04 441.02 440.87 441.39 441.05 440.53 442.29 442.01 443.51 444.55 444.38 444.06 443.68 443.8 443.32 441.73 9999 9999 9999 443.35 445.25 449.23 450.93 456.03 457.03 459.31 460.36 462.31 462.36 464.51 465.68 467.64 469.71 471.12 473.68 475.56 477.7 481.91 484.73 486.75 484.99 481.17 474.69 471.82 470.9 475.92 483.98 486.3 487.55 489.06 490.42 492.54 494.58 498.79 499.88 498.03 495.5 494.08 491.95 489.52 488.51 488.52 488.71 489.07 488.69 488.8 490.15 491.48 492.03 493.95 493.91 495.09 495.94 497.9 498.48 498.75 500.31 501.51 502.96 505.44 509.9 515.75 518.97 522.91 526.3 529.95 531.63 534.33 540.45 543.75 546.97 549.73 551.03 552.54 554.83 559.04 561.97 564.7 567.09 569.14 571.12 572.23 575.36 576.25 577.49 578.78 579.23 580.13 9999 9999 9999 9999 9999 9999 9999 9999 9999 9999 9999 9999 9999 9999 9999 9999 9999 9999 9999 9999 9999 9999 9999 9999 9999 9999 9999 9999 9999 9999
9999 9999 9999 711.46 712.12 711.35 710.75 710.41 709.63 708.87 708.08 706.17 705.86 704.85 704 701.52 699.3 697.39 695.66 693.89 692.7 691.84 691.02 689.12 687.59 685.13 683.62 681.79 679.56 676.75 674.09 671.32 667.19 663.99 661.17 658.69 655.14 652.49 648.95 644.83 641.15 637.44 634.06 630.24 627.21 622.86 617.98 613.92 610.41 606.88 603.9 599.97 596.14 590.1 587.38 584.48 580.73 575.66 571.78 567.62 566.27 564.89 561.79 558.81 555.28 555.18 555.48 553.7 551.55 550.67 549.69 546.7 542.99 539.12 537.64 531.99 527.36 524.44 524.63 519.98 508.5 498.14 494.37 489.24 483.2 482.02 481.86 480.38 477.22 474.53 474.05 472.44 471.3 470.19 468.48 467.07 466.71 464.17 463.35 462.24 461.34 459.67 458.29 458.09 457.15 456 454.1 452.47 451.68 449.41 448.55 447.22 445.93 444.72 443.19 441.59 439.37 437.87 436.92 435.73 433.31 432.73 431.53 431.21 431.03 430.87 431.19 431.83 431.52 431.52 431.12 430.83 431.64 428.45 9999 9999 9999 428.37 430.62 431.15 432.7 431.34 429.95 430.52 429.76 430.56 430.56 430.49 430.92 430.72 431.08 431.05 430.28 429.7 430.53 430.54 430.7 430.55 430.09 430.56 9999 428.43 430.25 430.83 430.38 431.54 432.53 432 432.71 432.64 432.59 431.9 432.52 432.79 432.57 433.5 433.08 433.56 433.07 433.58 433.76 433.65 433.69 433.63 433.94 434.47 434.68 433.84 433.31 433.67 434.03 433.46 433.9 434.44 434.87 435.51 435.34 434.76 434.3 433.84 434.57 434.44 434.59 434.35 434.01 434.75 434.18 434.19 434.06 434.88 434.51 435.2 435.41 435.33 435.39 435.53 436.01 435.61 436.12 436.03 436 436.62 436.03 436.15 436.56 436.65 437.05 436.33 436.4 436.98 436.85 437.3 436.73 437.03 437.18 437.46 437.53 437.51 437.4 437.73 437.61 437.82 437.8 437.8 437.61 437.57 438.24 438.24 438.22 438.23 438.52 438.57 438.16 438.09 438.6 439.01 439.06 439.46 440.32 441.08 440.5 439.36 439.25 439.14 439.8 440.09 439.45 439.74 439 440.64 440.2 440.5 441.3 441.52 441.29 441.82 441.99 442.34 442.66 442.62 443.9 443.02 441.04 439.54 9999 9999 440.04 440.83 443.72 445.27 452.25 454.88 456.26 457.6 459.38 460.35 462.27 464.85 465.69 467.21 467.75 469.88 471.04 473.44 477.66 480.26 483.13 486.11 488.63 490.16 487.67 485.35 481.92 477.83 473.21 475.02 479.56 484.4 485.41 485.77 487.47 490.4 495.38 496.78 498.5 497.93 495.25 494.49 491.38 489.84 488.86 489.38 488.42 489.63 490.21 490.39 490.78 490.86 493.27 494.3 494.88 496.61 497.09 498.07 499.38 499.69 502.3 503.88 505.66 508.91 513.3 517.74 523.69 526.45 529.55 534.51 536.96 540.14 542.73 548.54 550.81 553.3 555.38 556.8 556.55 558.61 562.62 565.65 568.26 571.31 573.99 575.28 576.44 577.94 579.29 581.01 582.08 582.81 9999 9999 9999 9999 9999 9999 9999 9999 9999 9999 9999 9999 9999 9999 9999 9999 9999 9999 9999 9999 9999 9999 9999 9999 9999 9999 9999 9999 9999 9999
9999 9999 9999 9999 712.68 712.25 711.5 711.39 710.85 709.94 709.7 708.45 707.01 705.45 704.93 702.56 700.86 698.48 697.57 695.44 694.23 692.89 690.82 689.97 688.28 687.18 684.25 681.79 679.74 676.41 673.56 670.47 668.1 664.82 661.21 658.47 655.79 653.09 649.01 645.47 640.16 636.51 632.39 629.93 625.59 621.77 618.77 613.16 608.63 605.09 602.38 598.95 595.22 591.08 585.92 583.11 580.02 575.42 571.9 569.51 567.75 566.14 562.33 559.13 557.24 555.21 554.33 554.08 550.56 549.27 547.51 546.33 543.33 541.7 540.57 533.68 528.39 521.21 518.61 514.49 511.46 505.6 497.16 488.75 481.36 478.22 478.13 477.15 473.86 472.07 471.27 470.24 469.26 468.7 465.39 464.14 462.95 462.71 462.04 461.63 459.81 458.7 456.11 455.8 454.47 453.31 452.89 452.55 449.76 447.29 446.94 444.65 444.21 443.02 441.94 440.69 439.1 437.89 435.66 434.55 433.2 432.35 431.84 430.51 430.63 430.4 431.17 431.59 431.3 431.94 430.98 431.14 430.71 9999 9999 9999 9999 430.42 431.77 430.43 430.77 430.84 430.68 430.8 430.91 430.74 430.16 430.94 429.82 430.59 430.82 430.81 430.55 429.62 431.38 430.84 430.23 430.07 430.16 428.7 429.33 431.14 430.63 431.46 430.6 431.66 431.32 432.74 432.54 432.35 432.33 431.89 432.05 432.39 432.62 433.22 433.59 432.87 433.61 433.58 433.57 433.58 433.51 433.47 433.98 434.48 434.22 433.74 433.99 433.46 433.72 433.56 433.91 434.28 435.21 434.58 433.68 434.3 434.2 434.16 434.01 434.2 434.33 433.98 434.05 434.5 434.11 434.55 434.36 434.31 434.83 434.95 435.47 435.23 435.75 435.82 435.21 435.75 435.31 436.2 435.79 435.7 436.34 435.77 436.23 436.26 436.7 436.52 437.06 436.88 436.95 436.82 436.83 436.81 437.61 436.92 437.26 437.28 437.2 437.9 437.42 437.93 437.85 438.33 438.35 438.06 437.96 438.08 437.81 438.29 438.4 438.37 438.6 438.34 438.31 438.5 439.14 438.86 440.12 440.88 440.85 440.32 439.18 438.88 439.88 439.97 440.52 440.38 439.56 439 440.56 440.39 440.88 440.72 441.31 441.62 442.99 442.27 441.31 441.56 441.35 440.45 439.38 9999 440.53 443.25 443.19 444.78 447.56 451.6 454.02 457.62 458.18 460.13 462.59 463.79 464.42 466.01 467.18 468.99 470.49 473.63 475.73 477.32 480.15 483.18 485.62 489.12 492.28 494.3 491.6 489.41 485.77 481.58 476.45 473.99 477.73 480.07 481.57 484.05 484.91 489.25 492.93 495.03 499.33 497.51 495.09 493.49 491.72 490.16 490.25 489.85 489.91 490.05 491.02 492 491.67 493.15 493.79 495.09 496.9 498.03 499.24 499.61 500.88 501.96 502.4 505.5 508.45 512.19 517.5 522.21 528.18 531.93 534.83 537.99 540.64 543.34 547.32 552.31 555.48 556.81 558.76 559.06 559.93 560.15 563.01 565.44 570.15 573.67 575.09 577.11 578.53 579.59 580.83 581.93 583.11 583.89 9999 9999 9999 9999 9999 9999 9999 9999 9999 9999 9999 9999 9999 9999 9999 9999 9999 9999 9999 9999 9999 9999 9999 9999 9999 9999 9999 9999 9999 9999
9999 9999 9999 9999 712.3 712.87 712.1 712.49 712.27 711.88 711.21 709.9 708.87 707.64 706.14 704.32 702.07 699.87 698.11 696.53 694.66 692.89 692.65 690.82 689.21 687.5 685.43 682.3 680.1 676.23 674.18 670.84 668.28 665.76 660.93 658.92 656.23 652.77 648.79 644.73 640.88 635.72 632.76 629.61 624.5 621.07 616.72 612.89 607.32 604.76 601.58 597.58 593.76 590.33 587.03 583.4 579.44 575.79 572.72 570.19 568.64 567.31 563.47 561.38 558.87 555.85 554.69 555.09 552.82 549.01 547.58 545.59 541.7 540.54 539.1 536.6 530.1 526.59 522.51 519.9 516.69 511.25 505.46 494.86 482.87 476.2 473.95 474.52 473.75 471.46 468.92 466.46 465.88 465.01 464.7 463.21 462.48 461.3 459.66 458.5 457.08 456.94 455.6 454.6 453.2 451.67 450.19 449.32 447.1 446.59 445.02 444.04 442.8 441.32 440.27 438.54 437.91 436.5 435.11 434.17 433.26 431.87 431.59 430.99 430.64 430.84 431.13 431.73 431.71 431.49 431.38 429.44 429.31 9999 9999 427.9 430.76 431.28 431.41 430.45 430.72 430.37 430.52 431.05 430.39 430.49 430.41 430.38 430.76 430.1 430.37 431.08 429.93 430.42 430.28 431.01 430.57 429.68 429.38 430.28 430.9 430.65 430.73 430.91 431.52 431.76 431.62 432.14 432.42 432.23 431.96 432.46 432 432.01 432.76 432.9 433.12 432.9 433.22 432.77 433.31 433.48 433.41 433.88 434.21 434.52 434.15 434.23 434.17 433.78 433.64 433.69 433.39 434.08 434.28 433.55 434.11 433.46 434.06 434.27 434.25 434.16 434.22 434.37 434.09 433.91 434.12 434.69 434.6 434.6 435.06 434.77 434.61 434.97 434.69 435.31 435.81 435.09 435.68 435.57 435.98 435.94 435.92 435.91 436.21 436.51 436.41 436.75 436.73 436.76 436.9 436.85 437.24 437.29 437.14 437.33 437.04 437.33 437.22 437.63 437.73 437.74 437.81 438.05 438.44 437.85 438.37 437.97 438.56 438.16 437.66 438.92 438.43 437.87 438.59 438.66 438.57 439.3 439.47 440.01 440.7 439.34 438.97 438.68 439.95 439.78 440.47 439.89 440.26 439.94 439.62 440.69 440.4 440.92 440.79 442.21 441.75 441.8 442.85 441.73 441.17 9999 437.76 440.83 442.11 441.86 444.81 448.53 451.79 454.1 456.45 458.83 461.67 462.58 463.71 465.21 466.33 467.97 470.85 472.88 474.61 476.82 479.02 481.47 483.47 487.89 490.68 492.85 493.84 493.34 491.45 490.25 488.22 482.51 478.17 475.74 477.42 479.82 480.82 481.5 483.62 488.62 492.53 497.18 499.22 497.92 495.58 493.99 492.88 491.29 490.21 490.83 490.69 490.7 492.41 492.66 493.23 494.29 494.77 496.38 497.87 499.83 501.25 502.39 503.12 504.03 505.79 507.55 512.34 518.45 523.2 528.66 532.68 535.28 537.39 541.17 547.62 550.45 553.3 556.19 558.04 559.38 560.55 562.78 562.8 563.2 564.94 567.34 569.97 575.09 577.59 579.83 580.74 580.87 582.56 582.55 582.93 584.73 9999 9999 9999 9999 9999 9999 9999 9999 9999 9999 9999 9999 9999 9999 9999 9999 9999 9999 9999 9999 9999 9999 9999 9999 9999 9999 9999 9999 9999 9999
9999 9999 9999 9999 713.38 713.49 713.07 713.4 713.12 712.72 712.12 711.88 711.13 709.63 707.18 705.35 703.45 700.66 698.91 697.66 696.18 694.23 693.07 691.15 688.95 687.38 685.47 683.6 679.37 676.67 674.39 671.09 668.36 665.1 662.52 659.12 656.42 652.45 649.12 644.46 640.42 637.04 632.71 629.14 624.98 620.44 616.46 612.28 608.29 603.33 599.67 595.76 592.62 589.99 588.06 584.47 579.96 576.65 574.19 571.77 569.94 567.04 564.51 561.18 558.91 556.17 555.05 553.96 554.1 551.09 547.14 543.88 539.84 536.23 535.07 532.79 529.51 526.62 524.02 520.85 516.61 512.6 506.65 500.95 485.57 475.85 473 473.32 470.59 468.81 466.99 464.95 464.33 463.57 463.37 461.09 459.94 458.54 458.41 457.43 454.95 455.36 454.05 452.71 450.85 450.49 448.21 447.26 446.22 445.59 443.3 442.62 440.95 440.24 439.08 438.13 436.9 435.79 435.08 433.6 432.69 431.89 431.16 430.93 430.35 430.55 431.79 431.12 431.52 431.95 431.64 430.8 429.51 9999 9999 431.07 430.6 430.78 430.36 431.02 431.05 430.77 430.64 431.12 430.75 430.26 430.67 430.82 430.24 9999 9999 9999 430.56 430.17 430.49 432.13 9999 430.11 430.3 430.76 430.76 431.57 431.25 431.12 431.81 431.82 432.32 431.64 431.91 432.05 431.4 432.02 431.85 432.03 433.04 432.28 433 432.95 433.04 433.46 433.46 432.96 433.51 433.97 434.42 434.29 433.78 434.36 434.19 433.83 433.37 433.86 434.29 433.73 433.21 434.1 433.71 433.92 433.25 433.92 433.73 433.53 433.87 433.75 433.82 434.34 434.74 434.22 434.24 434.58 434.91 434.59 434.76 434.75 435.47 434.63 435.85 434.88 435.59 435.54 435.93 436.41 435.67 436.24 435.88 436.32 437.08 436.47 436.55 436.58 436.79 436.72 437.01 436.82 437.13 436.69 436.69 437.1 437.11 437.21 437.56 437.95 437.64 438.04 438.17 438 437.82 438.45 438.45 438.3 438.8 438.07 438.67 438.42 438.66 438.6 438.75 439.57 439.22 439.74 441.28 439.68 439.31 439.22 439.43 439.79 440.16 439.7 440.46 440.44 440.34 441.48 441.39 440.69 441.43 442.21 440.98 442.02 442.64 441.06 9999 9999 442.83 442.11 441.97 442.2 447.63 450.56 454.91 457.23 459.06 460.3 462.26 465.23 466 468.51 470.6 472.14 473.12 475.71 478.29 479.31 484.44 485.76 489.45 490.57 493.04 493.34 493.94 492.58 491.3 488.31 486.05 481.97 479.19 477.94 478.3 479.65 481.29 482.21 482.64 487.27 491.82 497.21 499 497.35 496.34 495.15 492.4 491.96 491.51 491.9 492.16 492.14 493.23 493.79 493.93 495.18 496.78 497.79 499.7 500.51 502.68 504.08 505.38 506.93 509.15 512.9 516.94 523.78 527.21 532.5 537.25 542.22 544.9 547.49 552.35 554.57 557.82 559.78 562.71 564.44 565.25 566.08 566.2 566.36 567.66 571.27 571.41 576.51 579.17 581.08 581.54 582.24 582.98 582.93 584.13 585.33 9999 9999 9999 9999 9999 9999 9999 9999 9999 9999 9999 9999 9999 9999 9999 9999 9999 9999 9999 9999 9999 9999 9999 9999 9999 9999 9999 9999 9999 9999
9999 9999 9999 9999 713.58 714.47 714.33 714.73 714.82 714.93 713.83 712.95 712.09 710.95 708.69 708 704.94 702.68 700.6 698.17 696.55 695.25 693.78 692.01 689.89 688.5 685.51 683.8 680.74 677.56 674.36 671.13 668.15 665.96 662.85 659.8 655.76 652.55 649.64 644.56 640.64 636.52 633.5 628.65 624.98 620.36 615.64 611.75 608.17 604.45 599.03 595.44 592.05 589.51 586.03 583.49 581.37 577.06 574.44 572.31 571.04 568.16 565.96 563.54 558.86 556.02 553.67 552.97 551.73 549.49 548.67 543.23 540 534.3 531.68 530.11 529.04 525.43 522.54 519.54 515.6 511.11 505.7 499.58 491.02 476.36 470.76 469.77 468.64 466.91 464.94 464.03 462.48 461.47 461.04 460.02 458.74 457.92 456.55 455.82 455.37 453.93 452.3 451.64 450.24 448.18 446.73 445.25 444.4 443.49 442.45 441.18 440.52 439.11 438.1 436.91 436.2 434.87 434.32 433.65 432.4 432.51 431.14 430.95 430.81 430.29 432.35 431.89 431.47 432.24 431.96 431.17 429.01 9999 430.5 430.49 429.9 430.22 430.26 430.53 431.05 431.08 9999 9999 9999 9999 9999 9999 9999 9999 9999 9999 9999 9999 9999 9999 429.62 429.44 431.11 431.07 430.45 431.81 430.93 431.71 431.69 432.02 431.43 431.93 431.83 431.87 431.4 431.63 431.82 432.58 432.23 433.34 433.33 432.9 432.94 433.89 433.01 432.91 433.31 433.51 433.5 434.01 433.98 434.4 434.81 433.14 433.08 433.91 433.72 433.77 433.49 433.39 433.6 433.48 434.1 433.92 434.03 433.81 433.52 433.79 434.88 434.15 434.27 434 434.29 434.76 434.58 435.07 434.77 434.81 435.11 435.1 434.67 435.39 435.56 435.88 435.45 436.09 436.41 435.65 435.82 436.12 436.4 436.76 436.78 436.3 436.67 436.67 437 436.59 437.52 436.93 437.51 436.74 436.93 437.27 437.54 438.11 437.79 437.68 437.93 437.33 438.69 437.98 438.29 439.34 439.33 438.12 438.05 438.27 438.41 438.26 439.08 439.4 440.43 440.06 440.77 440.82 439.44 439.37 439.23 439.67 440.38 440.18 439.58 440.82 440.43 441.55 441.74 441.29 443.16 440.62 440.64 440.07 440.12 9999 9999 442.78 441.84 441.88 441.84 444.74 448.01 452.66 455.43 458.63 460.6 461.93 464.89 467.38 469.16 470.81 473.13 474.47 476.4 479.42 480.28 483.98 486.9 489.55 491.16 494.82 495.12 493.93 492.68 490.31 486.79 484.4 482.92 481.44 480.43 479.82 479.65 480.74 480.73 481.68 482.27 484.91 490.82 496.24 498.79 497.96 497.55 495.39 493.86 493.71 493.11 493.09 493.61 493.5 494.4 495.54 496.08 497.65 497.76 498.58 500.28 501.78 503.74 506.88 508.62 510.62 513.84 517.74 522.41 526.68 534.42 539.91 543.36 546.64 549.23 552.35 554.72 560.59 562.7 564.77 566.45 567.13 568.94 568.84 571.71 572.37 573.35 574.19 574.47 577.66 580.31 582.45 582.3 582.65 583.48 584.3 584.63 586.08 9999 9999 9999 9999 9999 9999 9999 9999 9999 9999 9999 9999 9999 9999 9999 9999 9999 9999 9999 9999 9999 9999 9999 9999 9999 9999 9999 9999 9999 9999
9999 9999 9999 9999 714.58 715.91 715.96 716.12 715.99 716.29 715.48 714.68 713.71 713.02 711.3 709.19 706.65 703.65 702.24 699.68 698.32 696.36 694.38 692.79 690.38 687.6 685.7 683.32 680.76 678.33 675.73 671.27 668.63 665.19 662.25 659.84 656.77 653.85 649.2 644.78 641.19 636.85 633.15 630.35 626.22 620.07 616.36 612.53 608.06 605.16 600.58 595.55 590.99 588.03 585.02 582.84 580.27 578.6 577.61 575.23 572.15 569.81 567.36 564.23 560.68 556.9 555.54 551.69 549.24 548.22 546.86 543.75 537.58 533.83 528.75 528.08 526.18 524.68 522.17 518.61 515.1 510.41 503.97 497.5 489.9 479.86 469.35 467.49 465.98 464.09 462.94 461.53 461.63 460.19 458.09 458.17 456.6 456.65 455.16 454.19 452.79 451.67 451.51 450.71 448.6 447.95 446.2 444.07 443.26 442.74 442.03 439.52 438.33 437.64 436.81 436.33 435.33 434.67 433.67 433.17 431.69 431.2 431.19 430.43 430.45 430.55 430.34 430.62 430.46 431.02 430.79 431.38 431.55 9999 9999 429.84 432.25 431.21 430.69 431.54 9999 9999 9999 9999 9999 9999 430.06 429.9 428.97 431.3 9999 9999 9999 9999 9999 9999 429.17 9999 428.64 431.07 431.4 431.09 432.11 431.53 430.77 432.11 431.77 431.22 432.22 431.84 431.24 432.7 432.3 432.83 432.8 432.35 433.54 432.72 433.1 433.44 432.91 433.45 433.17 433.19 433.41 433.89 433.48 433.97 433.42 433.46 432.98 433.4 433.5 433.87 433.72 433.51 433.62 433.44 433.51 433.6 433.72 433.37 433.84 433.9 433.98 434.21 434.16 434.43 435.17 434.75 434.14 435.12 434.99 434.9 435.34 435 435.18 435.63 435.62 436.01 435.69 435.91 435.51 436.03 435.98 436.35 436.55 436.45 436.48 436.3 436.64 436.78 436.28 437.03 436.88 437.31 436.91 437.48 436.74 437.32 437.83 437.73 437.61 437.98 437.77 437.81 437.66 439.73 438.85 440.65 439.95 440.35 440.15 437.82 438.2 438.59 438.55 438.85 439.2 439.6 440.46 440.06 439.81 9999 9999 439.71 440.13 439.48 440.25 440.89 440.38 441.39 441.06 441.56 439.73 440.51 440.48 440.19 9999 9999 443.01 441.7 441.53 441.55 443.87 447.08 450.17 453.36 455.93 459.85 461.86 464.67 466.97 469.28 470.93 472.92 477.17 478.18 480.69 482.34 484.61 486.97 489.37 494.54 495.13 495.37 494.2 493.98 491.62 487.9 484.91 482.94 481.9 481.37 481.03 480.57 480.99 480.95 482.14 482.62 482.94 485.09 488.7 492.79 499.3 499.55 497.32 497.15 495.15 494.72 494.38 494.23 495.17 495.79 496.56 497.18 498.16 499.11 499.46 500.13 502.9 504.17 506.46 508.48 510.91 515.24 518.99 526.42 530.34 534.58 538.01 542.36 546.85 549.87 553.95 557.35 559.53 562.23 564.53 566.85 568.37 571.42 572.97 573.48 574.76 575.39 576.18 576.71 579.6 578.62 580.39 582.29 582.56 582.71 583.3 584.13 585.91 587.94 9999 9999 9999 9999 9999 9999 9999 9999 9999 9999 9999 9999 9999 9999 9999 9999 9999 9999 9999 9999 9999 9999 9999 9999 9999 9999 9999 9999 9999 9999
9999 9999 9999 9999 715.55 716.2 716.27 716.9 717.51 717 717.21 716.21 715.7 714.14 712.86 710.84 707.94 706.2 703.46 700.8 698.47 696.22 694.37 692.44 690.92 688.32 685.56 683.13 680.74 678.12 675.86 672.42 668.24 664.83 662.44 659.61 657.3 654.16 649.74 645.49 642.04 638.14 634.62 630.11 627.24 622.54 616.89 613.12 608.48 604.91 601.32 597.08 593.62 589.14 586.24 585.23 583.17 581.08 581.28 579.24 574.87 570.79 567.24 562.9 560.35 558.49 556.69 552.37 550.07 546.43 542.86 541.7 535.74 532.67 528.54 525.79 523.61 520.56 518.8 517.6 513.46 509.95 504.03 496.94 490.76 481.46 469.57 466.07 464.58 463.31 461.31 460.35 460.6 457.65 456.51 456.37 456.11 454.89 453.26 452.39 451.51 450.58 449.61 448.22 447.14 446.67 445.36 443.62 441.76 440.93 440.2 439.06 438.29 437.38 436.1 435.51 434.61 433.98 433.81 433.09 432.83 431.53 430.93 430.94 430.77 430.46 430.41 430.69 430.02 430.2 430.31 429.69 429.87 429.94 9999 9999 9999 9999 9999 9999 9999 9999 430.54 433.25 432.41 432.93 431.98 433.39 433.04 431.14 431.19 9999 9999 429.18 9999 9999 430.4 429.83 429.78 431.28 431.27 431.29 432.33 432.08 431.89 431.71 431.44 431.09 431.86 431.85 431.81 431.75 431.9 432.91 433.15 432.66 432.91 432.99 433.49 433.01 432.73 432.52 432.95 432.64 433.83 432.98 433.32 433.48 433.17 433.42 432.98 433.56 433.89 433.14 433.37 433.27 433.55 433.54 433.45 433.59 434.1 433.7 433.82 433.95 434.34 434.46 434.01 434.29 434.77 434.51 433.96 434.49 434.62 434.68 435.1 435.31 435.75 435.6 435.31 435.87 435.4 435.33 435.75 435.82 436.16 436.18 436.53 436.3 436.41 436.7 436.48 436.18 436.83 437.26 436.83 436.68 437.17 436.49 437.36 436.93 436.73 437.77 437.97 439.45 437.48 437.53 439.19 440.75 440.33 439.68 438.75 438.6 439.23 438.06 437.74 438.73 438.15 439.62 439.54 9999 439.58 440.06 439.17 9999 9999 439.38 439.82 439.44 440.11 442.54 440.75 442.33 443.06 441.01 441.52 440.06 439.97 9999 9999 443.01 442.05 441.02 441.37 442.08 445.75 448.31 452.35 455.37 457.54 460.77 463.48 466.2 469.71 472.09 475.27 477.09 478.44 481.12 483.05 485.3 488.29 490.25 493.62 494.45 495.58 494.68 494.64 492.56 487.55 485.05 483.62 482.33 482.17 481.89 481.72 482.63 482.14 482.1 482.71 483.22 483.86 485.98 488.58 492.51 496.19 499.3 498.55 497.77 496.92 497.02 496.62 496.31 496.43 497.62 498 498.18 498.91 500.55 502.51 503.46 506.01 506.57 508.85 512.2 517.35 522.04 527.54 532.14 537.69 540.48 542.32 546.44 548.85 552.3 555.08 558.73 561.68 564.56 567.64 569.37 571.92 573.84 575.18 576.35 577.67 579.22 579.36 580.93 581.5 580.72 580.89 582.04 582.41 583.24 583.09 584.46 586.23 588.83 9999 9999 9999 9999 9999 9999 9999 9999 9999 9999 9999 9999 9999 9999 9999 9999 9999 9999 9999 9999 9999 9999 9999 9999 9999 9999 9999 9999 9999 9999
9999 9999 9999 9999 716.33 717.32 717.92 718.04 718.37 718.81 717.75 717.6 716.65 715.73 714.61 712.38 710.09 707.84 705.18 702.26 699.25 697.15 694.86 692.75 690.57 688.62 685.29 683.64 680.86 678.29 675.61 672.84 669.26 665.15 661.83 660.23 657.11 653.46 650.42 646.75 642.07 638.26 635.41 631.7 627.63 623.72 619.61 614.01 609.32 604.85 601.61 597.96 594.18 592.51 590.53 587.95 586.87 585.32 584.01 581.32 578.82 569.27 564.52 560.94 559.37 557.43 555.62 552.02 547.19 543.71 538.57 535.9 534.42 532.32 528.84 524.24 519.57 516.53 516.78 515.15 512.77 509.2 501.43 494.83 487.3 477.89 468.03 465.18 463.26 462.95 460.72 458.08 458.33 456.77 456 454.16 454.94 453.7 451.85 451.57 451.04 449.27 449.05 447.95 447.05 444.41 444.48 442.47 440.88 440.18 439.32 438.62 437.44 436.48 436.39 435.25 434.43 433.6 433.19 432.46 432.26 431.83 430.4 430.96 430.33 430.55 430.65 429.93 429.97 429.86 429.34 429.27 430.51 9999 9999 9999 9999 9999 9999 429.04 431.12 431.98 431.92 430.33 430.25 430.27 430.97 430.61 430.36 430.38 430.76 431.52 431.54 430.99 9999 9999 430.22 430.9 430.85 430.95 430.8 432.09 431.77 431.69 431.06 430.57 431.09 431.56 431.76 431.35 431.52 431.76 432.66 432.9 432.41 432.95 432.69 433.39 433.47 433.11 433.08 432.72 433.52 433.22 433.5 433.65 433.76 433.22 433.37 433.25 432.66 433.07 433.21 433.15 433.21 433.18 433.42 433.66 433.15 433.68 433.98 433.6 434.02 433.94 434.27 434.09 434.07 434.5 434.38 434.12 434.59 434.83 434.75 435.1 435.24 434.96 434.88 435.72 435.59 435.46 435.72 435.45 434.98 435.26 435.79 435.91 436.43 435.99 436.22 436.07 436.73 437.07 436.74 436.82 436.67 437.26 436.69 436.73 437.18 437.04 436.67 437.25 437.94 438.72 438.5 437.57 438.48 438.83 441.37 438.38 438.92 439.16 439.81 439.09 438.67 438.51 438.9 440.76 438.56 439.48 439.45 440.9 439.99 438.89 9999 439.7 439.62 439.39 440.3 442.07 441.84 442.82 443.49 439.74 440.77 9999 9999 9999 443.21 443.11 443.12 441.84 441.33 442.57 447.18 450.26 453.9 456.81 460.07 463.15 466.87 470.14 472.31 474.66 477.05 479.15 480.74 483.62 486.5 488.32 491.15 493.84 494.41 494.27 494.58 494.32 491.63 487.6 486.28 483.68 483.39 482.91 483.47 483.05 485.88 483.69 483.23 483.07 482.95 484.02 486.34 486.35 487.79 490.56 493.01 497.58 501.04 500.4 499.42 498.56 497.79 498.47 498.65 499.62 500.32 501.03 502.82 503.33 505.04 505.92 508.56 512.5 514.34 519.35 523.49 526.36 531.33 536.73 543.85 546.44 547.68 549.34 551.01 552.91 556.71 560.56 562.89 566.54 568.6 570.65 573.36 575.49 578.61 579.78 581.11 581.7 582.84 582.89 583.35 582.84 581.91 581.89 582.57 582.68 583.18 584.03 587.08 588.84 9999 9999 9999 9999 9999 9999 9999 9999 9999 9999 9999 9999 9999 9999 9999 9999 9999 9999 9999 9999 9999 9999 9999 9999 9999 9999 9999 9999 9999 9999
9999 9999 9999 9999 717.04 717.81 718.14 718.5 719.04 719 718.65 718.52 717.89 716.94 715.19 713.51 711.02 708.9 706.78 703.74 700.38 697.47 695.16 693.45 689.27 687.74 686.29 683.21 680.74 678.41 675.15 671.82 669.43 666.19 662.44 659.79 657 653.56 650.12 647.33 643.48 639.36 635.73 632.16 628.5 624.8 620.41 615.63 610.11 605.88 601.82 597.41 594.95 593.35 592.69 590.93 589.47 589.05 586.45 583.51 578.77 571.42 563.44 559.74 555.28 554.44 550.68 547.77 544.1 538.58 534.42 533.91 529.97 527.28 524.89 523.24 517.19 514.93 512.84 509.32 507.77 505.42 501.02 492.79 484.43 474.96 468.11 464.02 462.19 460.99 459.2 457.63 457.11 455.75 453.76 452.2 451.91 451.43 450.16 450.41 448.91 448.3 447.33 446.22 444.49 443.56 443.16 442.55 440.86 439.36 439.32 437.25 436.93 436.28 436.11 434.86 433.72 433.84 433.48 432.48 431.84 431.96 431.16 430.31 430.33 430.4 430.19 429.86 429.54 430.17 429.96 430.19 9999 9999 9999 429.39 431.06 432.04 434.33 433.35 431.49 9999 9999 9999 9999 430.04 431.18 430.99 432.45 430.88 430.82 431.16 431.68 9999 9999 9999 430.98 431.23 430.85 431.56 430.96 431.65 431.42 430.3 431.87 431.46 431.75 431.23 431.86 431.93 431.29 431.4 432.31 432.56 432.56 433.1 433.18 433.05 433.04 433.47 432.64 432.25 433.15 433.07 433.37 433.49 433.05 432.82 432.63 432.52 433.37 433.13 432.8 432.7 432.96 433.28 433.29 433.67 433.64 433.3 433.32 433.8 433.24 434.1 434.15 434.18 433.91 434.34 434.58 434.61 434.6 434.91 434.57 435.25 434.95 434.98 435.23 435.23 435.78 434.83 435.47 435.47 435.74 435.61 436.07 436.14 435.92 435.66 436.76 436.45 436.38 436.26 437.22 436.71 436.97 436.85 436.73 437.18 437.16 436.59 436.52 437.37 437.27 437.85 438.55 437.92 439.9 440.4 440.24 438.09 438.72 438.8 440.07 439.48 440.15 439.43 439.67 439.84 440.47 438.97 440.23 440.2 440.89 439.54 439.13 439.31 438.76 439.95 440.41 441.91 443.31 442.81 440.22 9999 9999 438.71 439.08 441.11 442.24 441.24 441.98 441.07 441.14 443.99 447.54 452.88 455.95 460.65 463.72 466.45 469.28 471.56 474.33 476.52 479.76 482.9 483.28 485.97 488.07 491.73 493.88 493.53 494.72 495.62 495.39 493.23 488.63 486.01 485.28 484.92 484.35 484.2 484.58 484.32 485.86 485.48 486.57 486.26 484.91 485.2 485.99 487.36 487.1 489.63 493.31 497.43 501.65 503.39 502.44 501.17 499.73 501.38 501.46 502.28 503.13 503.83 505.11 506.76 511.41 512.66 515.68 519.22 524.18 527.24 529.73 538.29 541.42 544.84 545.59 549.03 550.61 551.45 554.11 556 557.61 561.51 564.57 566.73 570.38 573.85 575.95 578.01 580.29 581.69 582.17 584.1 585.92 585.91 585.47 584.29 583.43 582.99 582.84 582.86 583.39 584.54 586.59 589.4 9999 9999 9999 9999 9999 9999 9999 9999 9999 9999 9999 9999 9999 9999 9999 9999 9999 9999 9999 9999 9999 9999 9999 9999 9999 9999 9999 9999 9999 9999
