156.21 155.59 155.06 154.53 154.33 154.19 154.04 154.03 154.03 154.02 153.96 153.9 153.82 153.69 153.56 153.56 153.86 154.15 154.09 153.55 153.01 152.67 152.51 152.35 152.2 152.07 151.93 152.23 152.66 153.1 154.06 155.09 156.13 156.91 157.69 158.38 158.18 157.97 157.85 158.03 158.21 158.45 158.82 159.18 159.5 159.74 159.98 160.15 160.27 160.38 160.47 160.56 160.65 161.18 161.85 162.53 164.06 165.73 167.4 168.83 170.26 171.7 173.11 174.52 176.13 178.6 181.07 183.64 186.43 189.23 191.73 193.78 195.84 197.9 199.96 202 203.33 204.24 205.15 205.63 205.95 206.26 206.3 206.29
156.01 155.52 155.06 154.6 154.42 154.27 154.13 154.12 154.12 154.12 154.1 154.09 154.08 154.1 154.12 154.28 154.73 155.19 155.2 154.65 154.09 153.72 153.5 153.28 153.18 153.14 153.1 153.56 154.18 154.8 155.86 156.99 158.12 158.66 159.21 159.66 159.2 158.74 158.41 158.57 158.72 158.96 159.35 159.75 160.13 160.48 160.83 161.03 161.09 161.15 161.2 161.26 161.31 161.97 162.83 163.68 165.33 167.12 168.9 170.07 171.23 172.41 173.88 175.34 177.04 179.68 182.32 184.91 187.39 189.86 192.11 194.01 195.9 197.96 200.16 202.37 203.7 204.53 205.37 205.77 206 206.25 206.23 206.17
155.81 155.44 155.06 154.68 154.51 154.36 154.21 154.21 154.21 154.21 154.25 154.29 154.36 154.55 154.74 155.08 155.7 156.32 156.43 155.89 155.36 154.96 154.67 154.38 154.34 154.42 154.49 155.17 156.03 156.88 158.04 159.24 160.45 160.68 160.91 161.05 160.32 159.59 159.04 159.15 159.26 159.47 159.87 160.27 160.73 161.24 161.75 161.99 161.99 161.99 162 162.02 162.03 162.89 164.01 165.12 166.88 168.73 170.59 171.6 172.61 173.65 175.06 176.48 178.17 180.96 183.74 186.4 188.81 191.22 193.52 195.67 197.81 199.87 201.86 203.84 204.83 205.26 205.7 205.75 205.68 205.62 205.57 205.51
155.63 155.37 155.06 154.76 154.59 154.45 154.3 154.3 154.3 154.31 154.4 154.49 154.64 155.01 155.37 155.87 156.66 157.45 157.65 157.14 156.63 156.21 155.84 155.48 155.5 155.69 155.89 156.79 157.87 158.96 160.22 161.5 162.78 162.69 162.61 162.44 161.43 160.43 159.67 159.73 159.8 159.98 160.39 160.8 161.33 162.01 162.68 162.95 162.89 162.83 162.8 162.77 162.75 163.81 165.19 166.57 168.43 170.35 172.27 173.13 173.98 174.89 176.25 177.61 179.3 182.23 185.16 187.89 190.23 192.57 194.94 197.34 199.73 201.78 203.55 205.32 205.95 205.98 206.02 205.74 205.36 204.98 204.9 204.86
155.5 155.3 155.08 154.86 154.82 154.8 154.78 154.85 154.91 155.01 155.32 155.63 156.05 156.85 157.64 158.37 159.02 159.68 159.83 159.38 158.94 158.47 158 157.53 157.17 156.87 156.58 157.55 158.83 160.12 161.46 162.8 164.12 163.77 163.42 163 162.06 161.11 160.38 160.37 160.36 160.49 160.88 161.27 161.83 162.58 163.33 163.63 163.59 163.54 163.52 163.51 163.5 164.76 166.37 167.97 169.79 171.63 173.48 174.41 175.34 176.32 177.86 179.38 181.22 184.21 187.2 189.95 192.2 194.45 196.75 199.1 201.46 203.34 204.82 206.32 206.65 206.39 206.13 205.62 205.03 204.44 204.33 204.29
155.38 155.24 155.1 154.96 155.06 155.19 155.31 155.46 155.6 155.8 156.38 156.94 157.69 158.99 160.29 161.28 161.74 162.2 162.29 161.93 161.56 161.07 160.49 159.91 159.02 157.99 156.97 157.94 159.4 160.86 162.24 163.61 164.95 164.32 163.7 163.08 162.39 161.69 161.14 161.05 160.96 161.02 161.36 161.7 162.23 162.98 163.73 164.07 164.09 164.11 164.16 164.23 164.3 165.73 167.53 169.32 170.89 172.45 174.01 175.34 176.66 178.07 180.18 182.27 184.55 187.5 190.46 193.15 195.33 197.52 199.44 201.06 202.7 203.96 204.94 205.93 206.07 205.8 205.52 205.13 204.7 204.27 204.13 204.04
155.26 155.18 155.12 155.06 155.31 155.58 155.84 156.07 156.29 156.61 157.44 158.26 159.34 161.15 162.94 164.18 164.45 164.73 164.74 164.47 164.19 163.67 162.98 162.3 160.85 159.09 157.35 158.33 159.97 161.6 163.02 164.43 165.77 164.87 163.98 163.16 162.72 162.28 161.9 161.72 161.55 161.54 161.83 162.12 162.63 163.38 164.13 164.5 164.59 164.68 164.8 164.95 165.09 166.71 168.69 170.67 171.99 173.26 174.55 176.27 178 179.83 182.5 185.16 187.88 190.8 193.72 196.35 198.46 200.58 202.12 203.01 203.92 204.58 205.05 205.53 205.49 205.2 204.91 204.64 204.38 204.11 203.94 203.78
156.39 156.45 156.52 156.59 156.86 157.15 157.44 157.81 158.19 158.64 159.56 160.49 161.63 163.4 165.17 166.35 166.54 166.74 166.73 166.51 166.29 165.73 164.96 164.19 162.35 160.07 157.8 158.72 160.36 162.01 163.39 164.75 166.03 165.12 164.2 163.39 163.19 162.99 162.77 162.51 162.26 162.18 162.4 162.62 163.13 163.94 164.76 165.15 165.24 165.34 165.56 165.84 166.12 167.81 169.83 171.85 172.98 174.04 175.12 177.06 179 181.11 184.24 187.37 190.45 193.4 196.34 198.96 200.99 203.02 204.23 204.51 204.8 204.95 205.01 205.07 204.91 204.64 204.36 204.21 204.08 203.95 203.74 203.52
157.74 157.98 158.21 158.43 158.72 159.01 159.31 159.87 160.43 161.06 162.04 163.01 164.14 165.68 167.22 168.23 168.38 168.52 168.5 168.31 168.11 167.52 166.66 165.81 163.65 160.98 158.31 159.11 160.64 162.17 163.44 164.69 165.86 165.11 164.37 163.74 163.78 163.81 163.74 163.42 163.1 162.95 163.08 163.2 163.74 164.72 165.69 166.09 166.11 166.13 166.51 167.02 167.53 169.11 170.92 172.74 173.77 174.74 175.74 177.47 179.21 181.18 184.44 187.71 190.91 193.97 197.02 199.61 201.42 203.24 204.19 204.19 204.2 204.23 204.28 204.33 204.31 204.26 204.2 204.09 203.98 203.86 203.52 203.17
159.11 159.51 159.89 160.27 160.57 160.86 161.19 161.94 162.68 163.48 164.51 165.54 166.65 167.96 169.27 170.11 170.21 170.31 170.27 170.1 169.94 169.3 168.36 167.43 164.94 161.87 158.81 159.49 160.91 162.33 163.49 164.64 165.69 165.12 164.54 164.1 164.37 164.63 164.71 164.32 163.94 163.72 163.75 163.79 164.37 165.5 166.63 167.04 166.98 166.93 167.45 168.2 168.95 170.4 172.01 173.62 174.55 175.44 176.37 177.89 179.42 181.25 184.65 188.05 191.38 194.54 197.7 200.26 201.86 203.46 204.14 203.87 203.6 203.51 203.55 203.59 203.72 203.88 204.03 203.98 203.87 203.77 203.3 202.81
161.53 162.16 162.81 163.45 163.64 163.8 164 164.64 165.28 165.98 166.9 167.83 168.79 169.8 170.82 171.49 171.61 171.73 171.77 171.71 171.65 170.87 169.68 168.49 165.8 162.55 159.3 160.09 161.62 163.15 164.03 164.88 165.66 165.21 164.76 164.46 164.95 165.43 165.64 165.15 164.67 164.38 164.38 164.37 165.01 166.26 167.51 167.96 167.91 167.85 168.49 169.4 170.31 171.64 173.05 174.47 175.39 176.28 177.2 178.67 180.13 181.92 185.36 188.8 192.16 195.32 198.48 200.94 202.29 203.65 204.07 203.55 203.03 202.84 202.87 202.9 203.15 203.5 203.85 203.84 203.75 203.67 203.08 202.45
164.31 165.2 166.18 167.15 167.18 167.18 167.22 167.63 168.05 168.52 169.26 170 170.72 171.39 172.07 172.55 172.74 172.93 173.07 173.17 173.27 172.29 170.69 169.09 166.27 163.04 159.8 160.92 162.78 164.64 165.08 165.47 165.81 165.41 165.02 164.83 165.52 166.22 166.51 165.85 165.2 164.84 164.91 164.97 165.68 166.98 168.28 168.84 168.96 169.07 169.75 170.63 171.51 172.72 174 175.27 176.43 177.58 178.78 180.8 182.82 185.03 188.23 191.43 194.48 197.17 199.87 201.85 202.74 203.63 203.83 203.34 202.85 202.72 202.8 202.89 202.94 203 203.06 202.91 202.73 202.55 202.16 201.76
167.08 168.25 169.56 170.86 170.73 170.57 170.44 170.62 170.8 171.06 171.61 172.16 172.64 172.97 173.31 173.61 173.87 174.12 174.38 174.64 174.91 173.7 171.69 169.68 166.75 163.52 160.29 161.74 163.94 166.14 166.12 166.04 165.95 165.62 165.29 165.2 166.1 167 167.38 166.55 165.73 165.3 165.44 165.58 166.35 167.7 169.05 169.73 170.01 170.3 171 171.86 172.71 173.8 174.93 176.07 177.47 178.88 180.37 182.94 185.51 188.14 191.09 194.05 196.79 199.02 201.25 202.75 203.17 203.6 203.58 203.13 202.67 202.59 202.73 202.87 202.73 202.49 202.26 201.99 201.71 201.43 201.25 201.06
169.85 171.04 172.37 173.7 173.56 173.4 173.26 173.29 173.33 173.44 173.79 174.14 174.42 174.54 174.66 174.82 175.03 175.24 175.5 175.81 176.12 174.65 172.23 169.81 167.05 164.15 161.25 162.8 165.02 167.25 166.89 166.48 166.08 165.83 165.58 165.58 166.58 167.58 168.01 167.16 166.3 165.86 165.99 166.13 166.93 168.31 169.69 170.48 170.94 171.4 172.15 173 173.85 174.85 175.87 176.89 178.64 180.38 182.23 185.29 188.34 191.32 193.97 196.63 199.03 200.79 202.57 203.6 203.58 203.56 203.33 202.92 202.5 202.47 202.66 202.86 202.51 201.98 201.46 201.06 200.68 200.31 200.33 200.37
172.61 173.69 174.86 176.03 175.96 175.89 175.81 175.76 175.7 175.69 175.82 175.96 176.07 176.09 176.11 176.16 176.22 176.3 176.44 176.66 176.87 175.07 172.23 169.39 167.12 164.99 162.86 164.17 165.96 167.76 167.24 166.7 166.2 166.06 165.92 165.99 166.86 167.73 168.14 167.56 166.98 166.63 166.58 166.54 167.23 168.55 169.88 170.76 171.41 172.05 172.89 173.8 174.7 175.74 176.8 177.86 180.49 183.14 185.82 189.03 192.23 195.15 196.98 198.83 200.49 201.71 202.94 203.58 203.42 203.26 202.97 202.56 202.16 202.03 202.06 202.09 201.76 201.31 200.86 200.58 200.33 200.08 200.22 200.36
175.38 176.34 177.35 178.36 178.37 178.38 178.37 178.22 178.07 177.93 177.86 177.78 177.71 177.64 177.56 177.49 177.42 177.35 177.38 177.5 177.62 175.48 172.22 168.96 167.2 165.85 164.48 165.54 166.9 168.27 167.6 166.92 166.32 166.29 166.26 166.39 167.13 167.87 168.27 167.98 167.68 167.4 167.17 166.94 167.54 168.8 170.06 171.04 171.88 172.71 173.64 174.6 175.57 176.64 177.73 178.82 182.37 185.91 189.42 192.77 196.12 198.96 199.98 201.01 201.93 202.61 203.3 203.56 203.26 202.96 202.61 202.21 201.82 201.58 201.44 201.3 200.99 200.64 200.28 200.14 200.04 199.93 200.18 200.43
177.9 178.7 179.53 180.35 180.3 180.25 180.18 179.92 179.67 179.44 179.27 179.1 178.95 178.83 178.7 178.56 178.39 178.23 178.07 177.92 177.79 175.44 172.02 168.61 167.42 166.82 166.21 166.89 167.72 168.56 167.84 167.12 166.49 166.54 166.59 166.77 167.41 168.05 168.46 168.44 168.41 168.22 167.84 167.46 167.93 169.07 170.21 171.28 172.29 173.31 174.34 175.37 176.39 177.54 178.7 179.86 184.28 188.69 192.99 196.47 199.96 202.74 202.96 203.17 203.36 203.5 203.65 203.54 203.09 202.65 202.24 201.86 201.48 201.13 200.82 200.5 200.23 199.96 199.69 199.71 199.75 199.79 200.15 200.51
180.23 180.84 181.46 182.06 181.8 181.54 181.27 180.87 180.47 180.13 179.99 179.84 179.7 179.57 179.45 179.29 179.08 178.87 178.38 177.69 177.01 174.65 171.53 168.4 167.88 168.02 168.15 168.23 168.31 168.4 167.84 167.27 166.78 166.84 166.89 167.08 167.71 168.34 168.83 169.06 169.28 169.23 168.87 168.51 168.74 169.43 170.13 171.16 172.32 173.49 174.63 175.77 176.9 178.49 180.12 181.78 186.51 191.24 195.7 198.36 201.03 203.07 203 202.93 202.92 203.01 203.1 202.97 202.58 202.19 201.83 201.48 201.13 200.87 200.65 200.42 200.23 200.04 199.86 199.79 199.73 199.68 200.06 200.43
182.56 182.98 183.39 183.77 183.3 182.83 182.35 181.81 181.27 180.83 180.7 180.57 180.45 180.32 180.2 180.01 179.76 179.51 178.68 177.44 176.22 173.88 171.04 168.19 168.35 169.23 170.09 169.55 168.89 168.25 167.84 167.43 167.08 167.13 167.19 167.38 168 168.63 169.2 169.68 170.16 170.25 169.9 169.55 169.55 169.79 170.05 171.04 172.36 173.67 174.93 176.17 177.41 179.44 181.55 183.71 188.75 193.79 198.4 200.23 202.07 203.39 203.02 202.66 202.44 202.47 202.51 202.38 202.05 201.72 201.41 201.1 200.79 200.63 200.53 200.43 200.34 200.25 200.16 199.97 199.76 199.57 199.95 200.32
184.38 184.62 184.85 185.05 184.4 183.77 183.13 182.52 181.91 181.43 181.34 181.25 181.15 181.03 180.92 180.67 180.28 179.89 178.65 176.82 175.01 172.88 170.59 168.28 168.92 170.24 171.58 170.56 169.35 168.17 167.9 167.63 167.41 167.48 167.54 167.74 168.33 168.92 169.53 170.17 170.82 171.05 170.78 170.51 170.32 170.17 170.03 170.99 172.44 173.88 175.24 176.58 177.92 180.41 182.98 185.64 191 196.35 201.08 202.08 203.1 203.71 203.04 202.38 201.96 201.94 201.92 201.78 201.52 201.25 200.99 200.72 200.46 200.4 200.43 200.45 200.46 200.47 200.47 200.14 199.79 199.46 199.84 200.21
185.59 185.67 185.74 185.77 184.99 184.22 183.48 182.89 182.3 181.86 181.83 181.81 181.76 181.67 181.59 181.18 180.44 179.72 177.88 175.33 172.79 171.32 170.26 169.18 169.71 170.59 171.48 170.51 169.41 168.34 168.19 168.04 167.93 168.08 168.22 168.43 168.82 169.22 169.49 169.56 169.63 169.83 170.14 170.45 170.75 171.04 171.32 172.38 173.77 175.16 176.3 177.4 178.5 181.22 184.05 186.96 191.74 196.52 200.66 201.05 201.47 201.77 201.74 201.69 201.67 201.68 201.7 201.57 201.3 201.02 200.84 200.72 200.6 200.58 200.61 200.63 200.64 200.64 200.65 200.26 199.84 199.44 199.68 199.92
186.81 186.72 186.62 186.48 185.58 184.68 183.84 183.26 182.69 182.29 182.33 182.37 182.37 182.32 182.26 181.68 180.61 179.53 177.11 173.83 170.56 169.79 169.95 170.1 170.49 170.93 171.39 170.47 169.46 168.51 168.48 168.45 168.46 168.68 168.89 169.11 169.31 169.52 169.45 168.93 168.43 168.62 169.52 170.4 171.19 171.91 172.63 173.78 175.11 176.44 177.36 178.22 179.07 182.03 185.11 188.25 192.4 196.56 200.03 199.8 199.59 199.62 200.3 200.97 201.4 201.47 201.53 201.42 201.13 200.84 200.76 200.81 200.87 200.87 200.86 200.85 200.83 200.81 200.79 200.35 199.89 199.45 199.5 199.55
187.97 187.74 187.51 187.23 186.24 185.25 184.33 183.74 183.15 182.75 182.83 182.91 182.92 182.84 182.76 181.97 180.52 179.07 176.24 172.54 168.83 168.7 169.9 171.09 171.26 171.26 171.26 170.42 169.54 168.71 168.8 168.89 169.01 169.3 169.58 169.79 169.82 169.84 169.42 168.32 167.23 167.43 168.9 170.36 171.63 172.79 173.94 175.17 176.44 177.71 178.42 179.03 179.64 182.84 186.18 189.52 193.05 196.59 199.39 198.54 197.7 197.49 198.88 200.26 201.13 201.25 201.37 201.27 200.96 200.65 200.67 200.91 201.14 201.17 201.12 201.07 201.02 200.97 200.92 200.45 199.95 199.46 199.32 199.18
189.04 188.73 188.42 188.06 187.07 186.07 185.14 184.45 183.76 183.3 183.34 183.38 183.29 183.01 182.73 181.57 179.61 177.66 175.11 172.19 169.26 169.53 170.93 172.32 172.07 171.53 171.01 170.36 169.71 169.12 169.35 169.57 169.81 170.14 170.46 170.69 170.69 170.7 170.21 168.99 167.78 168.08 169.8 171.51 173.08 174.57 176.04 177.15 178.13 179.12 179.41 179.58 179.76 182.5 185.36 188.23 190.97 193.74 195.98 195.75 195.51 195.81 197.48 199.14 200.26 200.55 200.85 200.9 200.74 200.57 200.63 200.84 201.05 200.99 200.83 200.68 200.44 200.2 199.96 199.73 199.49 199.26 199.28 199.28
190.1 189.71 189.32 188.88 187.89 186.9 185.94 185.16 184.38 183.84 183.84 183.85 183.65 183.17 182.7 181.17 178.69 176.23 173.99 171.86 169.71 170.37 171.97 173.56 172.86 171.8 170.75 170.31 169.89 169.53 169.89 170.26 170.62 170.98 171.34 171.59 171.57 171.56 171 169.66 168.33 168.73 170.72 172.69 174.57 176.38 178.19 179.16 179.84 180.54 180.39 180.1 179.83 182.01 184.29 186.55 188.46 190.39 192.08 192.68 193.28 194.24 196.09 197.93 199.23 199.72 200.21 200.46 200.49 200.52 200.6 200.71 200.82 200.62 200.31 200.01 199.5 198.95 198.41 198.57 198.75 198.94 199.32 199.71
191.11 190.6 190.09 189.54 188.58 187.62 186.68 185.83 184.98 184.39 184.34 184.29 183.98 183.32 182.66 180.79 177.87 174.95 173.06 171.71 170.35 171.3 173.01 174.73 173.61 172.05 170.5 170.28 170.08 169.95 170.45 170.94 171.42 171.82 172.22 172.48 172.45 172.42 171.78 170.33 168.87 169.39 171.64 173.88 176.06 178.2 180.34 181.16 181.55 181.95 181.36 180.61 179.88 181.51 183.2 184.85 185.93 187.02 188.19 189.63 191.06 192.66 194.69 196.73 198.2 198.89 199.59 200.03 200.25 200.47 200.56 200.57 200.59 200.24 199.79 199.33 198.54 197.7 196.86 197.42 198.02 198.62 199.38 200.13
191.98 191.23 190.48 189.72 188.87 188.02 187.18 186.37 185.57 184.96 184.79 184.62 184.17 183.37 182.57 180.61 177.67 174.73 173.45 173.03 172.59 173.15 174.03 174.93 173.72 172.22 170.71 170.7 170.71 170.77 171.32 171.86 172.41 172.93 173.45 173.81 173.85 173.88 173.18 171.51 169.85 170.19 172.22 174.26 176.36 178.5 180.64 181.54 182.04 182.54 181.92 181.13 180.35 181.4 182.49 183.58 184.6 185.61 186.74 188.35 189.95 191.74 193.94 196.12 197.73 198.56 199.38 199.88 200.09 200.3 200.23 200.01 199.8 199.38 198.9 198.42 197.86 197.28 196.69 197.28 197.89 198.53 199.28 200.04
192.85 191.85 190.86 189.9 189.16 188.43 187.68 186.92 186.15 185.54 185.24 184.94 184.36 183.42 182.49 180.43 177.47 174.52 173.87 174.37 174.85 174.99 175.05 175.12 173.84 172.38 170.93 171.13 171.34 171.59 172.19 172.79 173.4 174.05 174.69 175.16 175.27 175.38 174.61 172.74 170.86 170.99 172.76 174.53 176.51 178.58 180.65 181.64 182.3 182.96 182.39 181.66 180.92 181.39 181.87 182.44 183.63 184.83 186.1 187.68 189.25 191.08 193.43 195.78 197.51 198.44 199.38 199.86 199.96 200.06 199.73 199.19 198.66 198.21 197.78 197.35 197.4 197.5 197.6 197.93 198.27 198.62 199.03 199.44
193.63 192.46 191.28 190.17 189.52 188.88 188.22 187.49 186.76 186.14 185.71 185.28 184.55 183.46 182.37 180.25 177.3 174.35 174.32 175.72 177.12 176.81 176.05 175.29 173.96 172.55 171.16 171.57 171.98 172.41 173.06 173.71 174.39 175.17 175.94 176.52 176.7 176.89 176.04 173.96 171.87 171.79 173.29 174.8 176.64 178.65 180.66 181.75 182.57 183.39 182.87 182.18 181.5 181.36 181.24 181.29 182.67 184.05 185.46 187.01 188.55 190.42 192.93 195.43 197.29 198.34 199.38 199.84 199.82 199.81 199.23 198.37 197.52 197.03 196.65 196.27 196.95 197.74 198.52 198.58 198.64 198.71 198.77 198.84
194.05 192.99 191.92 190.91 190.28 189.65 189 188.3 187.61 186.96 186.43 185.91 184.9 183.35 181.8 179.94 177.82 175.69 175.64 176.58 177.53 176.95 175.96 174.99 174.01 173.03 172.07 172.7 173.32 173.95 174.63 175.3 175.97 176.64 177.3 177.81 178.03 178.24 177.28 174.96 172.64 172.2 173.19 174.19 176.04 178.27 180.51 181.83 182.91 183.98 183.51 182.87 182.23 181.94 181.64 181.54 182.83 184.12 185.42 186.77 188.13 189.82 192.15 194.48 196.27 197.41 198.54 199 198.96 198.92 198.3 197.41 196.51 196.28 196.22 196.14 197.19 198.36 199.51 199.31 199.12 198.94 198.76 198.58
194.47 193.52 192.56 191.65 191.03 190.42 189.79 189.12 188.45 187.79 187.16 186.52 185.24 183.23 181.23 179.65 178.35 177.04 176.96 177.45 177.94 177.07 175.86 174.66 174.08 173.54 173.03 173.88 174.72 175.55 176.26 176.96 177.63 178.15 178.68 179.1 179.33 179.57 178.48 175.91 173.35 172.5 172.91 173.34 175.23 177.77 180.31 181.91 183.27 184.62 184.2 183.61 183.03 182.77 182.5 182.42 183.51 184.61 185.7 186.77 187.85 189.24 191.18 193.14 194.73 195.91 197.08 197.56 197.53 197.5 197.02 196.34 195.65 195.94 196.46 196.98 198.15 199.38 200.58 200.16 199.75 199.36 199.08 198.8
194.92 194.06 193.19 192.37 191.77 191.17 190.56 189.92 189.29 188.61 187.88 187.14 185.57 183.11 180.65 179.37 178.89 178.4 178.27 178.3 178.33 177.18 175.76 174.34 174.15 174.05 173.99 175.06 176.13 177.15 177.89 178.63 179.28 179.66 180.05 180.39 180.64 180.89 179.68 176.86 174.05 172.79 172.63 172.48 174.43 177.28 180.12 181.99 183.63 185.27 184.9 184.36 183.83 183.6 183.37 183.3 184.19 185.09 185.97 186.77 187.57 188.65 190.21 191.78 193.19 194.41 195.63 196.12 196.1 196.09 195.75 195.27 194.79 195.6 196.72 197.82 199.11 200.41 201.65 201.01 200.37 199.78 199.4 199.02
195.63 194.68 193.74 192.85 192.21 191.58 190.94 190.29 189.64 188.8 187.62 186.45 184.77 182.55 180.32 179.28 179.05 178.81 178.54 178.27 178 177.04 175.93 174.81 174.98 175.23 175.52 176.81 178.09 179.31 180.19 181.06 181.73 181.84 181.95 182.03 182.04 182.06 180.66 177.75 174.84 173.37 172.87 172.37 174.33 177.28 180.24 182.18 183.89 185.6 185.33 184.9 184.48 184.18 183.87 183.72 184.41 185.1 185.78 186.45 187.11 188.01 189.32 190.62 191.86 193.03 194.2 194.78 194.95 195.12 195.04 194.86 194.67 195.83 197.29 198.75 199.96 201.16 202.29 201.57 200.85 200.17 199.73 199.28
196.34 195.31 194.29 193.32 192.65 191.98 191.32 190.66 190 188.98 187.36 185.75 183.96 181.98 180 179.21 179.18 179.15 178.73 178.16 177.59 176.88 176.15 175.4 175.92 176.52 177.16 178.66 180.16 181.59 182.64 183.68 184.38 184.19 184 183.77 183.46 183.17 181.56 178.61 175.67 174.06 173.33 172.6 174.54 177.53 180.51 182.41 184.09 185.76 185.61 185.33 185.05 184.59 184.13 183.82 184.28 184.75 185.26 185.88 186.5 187.33 188.49 189.65 190.74 191.76 192.78 193.54 194.11 194.68 195.03 195.28 195.53 196.81 198.3 199.8 200.66 201.48 202.25 201.66 201.07 200.51 200.07 199.63
197.05 195.94 194.83 193.8 193.09 192.39 191.69 191.03 190.36 189.15 187.08 185.03 183.15 181.42 179.69 179.14 179.32 179.5 178.91 178.04 177.17 176.73 176.37 176 176.88 177.82 178.8 180.52 182.24 183.87 185.09 186.3 187.03 186.53 186.04 185.5 184.88 184.27 182.46 179.48 176.49 174.75 173.78 172.82 174.75 177.77 180.78 182.64 184.28 185.92 185.89 185.77 185.61 185 184.38 183.91 184.15 184.39 184.73 185.31 185.89 186.65 187.66 188.68 189.62 190.49 191.37 192.31 193.28 194.25 195.02 195.72 196.41 197.79 199.32 200.84 201.34 201.8 202.21 201.75 201.3 200.84 200.41 199.99
196.95 195.87 194.8 193.79 193.09 192.4 191.64 190.72 189.81 188.37 186.15 183.93 182.34 181.32 180.29 179.9 179.9 179.91 179.5 178.94 178.36 178.27 178.25 178.23 179.21 180.23 181.29 182.88 184.47 185.95 186.93 187.91 188.46 187.94 187.43 186.82 186.09 185.36 183.52 180.62 177.72 176.06 175.13 174.2 176 178.77 181.55 183.21 184.66 186.11 186.04 185.91 185.76 185.29 184.82 184.43 184.47 184.51 184.73 185.36 185.98 186.71 187.58 188.46 189.33 190.19 191.04 192.07 193.2 194.33 195.31 196.24 197.17 198.57 200.05 201.54 201.79 201.98 202.13 201.77 201.41 201.05 200.69 200.33
196.84 195.79 194.74 193.76 193.08 192.39 191.55 190.36 189.16 187.49 185.13 182.78 181.54 181.3 181.04 180.79 180.56 180.32 180.18 180.06 179.94 180.22 180.57 180.91 181.93 182.97 184.04 185.4 186.76 187.97 188.53 189.11 189.39 188.95 188.52 187.96 187.21 186.46 184.67 181.94 179.2 177.75 177.06 176.36 177.94 180.3 182.68 184.01 185.17 186.33 186.08 185.79 185.52 185.48 185.44 185.37 185.27 185.16 185.33 186.14 186.93 187.72 188.5 189.27 190.22 191.32 192.42 193.42 194.37 195.32 196.14 196.92 197.7 198.9 200.18 201.45 201.66 201.84 201.97 201.58 201.19 200.86 200.75 200.63
196.73 195.71 194.69 193.74 193.06 192.38 191.46 189.99 188.52 186.62 184.12 181.63 180.75 181.29 181.81 181.68 181.21 180.73 180.87 181.2 181.52 182.18 182.89 183.59 184.65 185.72 186.79 187.91 189.04 189.97 190.13 190.3 190.31 189.97 189.62 189.09 188.32 187.56 185.83 183.25 180.67 179.45 178.98 178.51 179.87 181.83 183.8 184.81 185.67 186.54 186.12 185.67 185.3 185.69 186.07 186.32 186.07 185.82 185.95 186.92 187.89 188.74 189.41 190.09 191.12 192.46 193.8 194.76 195.53 196.3 196.96 197.59 198.23 199.23 200.3 201.37 201.54 201.7 201.81 201.39 200.98 200.67 200.81 200.95
196.57 195.65 194.72 193.79 192.83 191.88 190.61 188.67 186.74 184.94 183.29 181.62 181.19 181.82 182.46 182.55 182.33 182.11 182.48 183.02 183.56 184.51 185.53 186.54 187.35 188.16 188.98 189.75 190.53 191.17 191.25 191.34 191.26 190.84 190.43 189.8 188.87 187.95 186.29 184.01 181.73 180.85 180.71 180.57 181.69 183.21 184.74 185.4 185.95 186.51 186.16 185.78 185.5 186.07 186.65 187.08 186.93 186.76 187.01 188.14 189.28 190.2 190.86 191.52 192.56 193.94 195.32 196.21 196.82 197.44 197.94 198.4 198.87 199.6 200.39 201.19 201.34 201.49 201.59 201.2 200.81 200.57 200.94 201.31
196.4 195.59 194.77 193.85 192.56 191.28 189.62 187.17 184.72 183.1 182.52 181.91 181.94 182.51 183.07 183.41 183.63 183.84 184.41 185.09 185.77 187 188.3 189.6 190.03 190.46 190.89 191.24 191.6 191.92 192.1 192.28 192.21 191.63 191.06 190.2 188.99 187.79 186.21 184.33 182.43 181.98 182.26 182.53 183.39 184.43 185.48 185.77 185.97 186.18 186.2 186.21 186.26 186.71 187.16 187.59 187.9 188.2 188.83 190.14 191.44 192.54 193.38 194.22 195.15 196.16 197.17 197.89 198.47 199.04 199.36 199.61 199.86 200.12 200.39 200.67 200.83 200.99 201.12 201 200.88 200.89 201.42 201.95
196.24 195.53 194.82 193.9 192.29 190.68 188.62 185.65 182.69 181.28 181.76 182.22 182.69 183.19 183.68 184.28 184.93 185.56 186.35 187.17 187.99 189.5 191.08 192.65 192.7 192.75 192.79 192.72 192.65 192.67 192.95 193.23 193.16 192.42 191.67 190.6 189.11 187.63 186.14 184.64 183.14 183.11 183.81 184.5 185.08 185.64 186.21 186.13 185.99 185.85 186.24 186.63 187.01 187.34 187.67 188.1 188.88 189.65 190.65 192.14 193.61 194.89 195.91 196.93 197.73 198.37 199.02 199.58 200.11 200.63 200.77 200.81 200.85 200.62 200.38 200.15 200.32 200.49 200.66 200.81 200.96 201.22 201.91 202.59
195.97 195.34 194.7 193.73 191.63 189.53 187.31 184.79 182.27 181.35 182.36 183.37 183.92 184.15 184.38 185.08 185.99 186.91 187.85 188.79 189.73 191.2 192.73 194.25 194.2 194.16 194.09 193.85 193.6 193.47 193.7 193.93 193.74 192.78 191.82 190.49 188.71 186.95 185.44 184.14 182.84 183.1 184.1 185.1 185.71 186.2 186.69 186.47 186.17 185.88 186.57 187.26 187.9 188.23 188.56 189.08 190.25 191.42 192.73 194.3 195.88 197.24 198.33 199.43 200.09 200.43 200.77 201.18 201.61 202.05 202.01 201.85 201.69 201.08 200.42 199.77 199.92 200.08 200.27 200.68 201.08 201.58 202.4 203.23
195.66 195.11 194.55 193.48 190.84 188.21 185.9 184.18 182.44 182.14 183.5 184.86 185.36 185.23 185.11 185.83 186.94 188.05 189.1 190.14 191.19 192.4 193.64 194.86 194.9 194.94 194.94 194.71 194.48 194.31 194.35 194.39 193.98 192.73 191.49 189.85 187.76 185.68 184 182.63 181.26 181.59 182.68 183.76 184.79 185.79 186.78 186.76 186.64 186.54 187.4 188.26 189.08 189.69 190.29 191.1 192.55 193.99 195.45 196.93 198.42 199.58 200.39 201.2 201.69 201.95 202.21 202.37 202.5 202.63 202.38 202.04 201.7 201.29 200.88 200.46 200.47 200.48 200.58 201.18 201.78 202.39 203.03 203.69
195.36 194.88 194.39 193.23 190.04 186.87 184.52 183.58 182.63 182.94 184.65 186.36 186.78 186.3 185.83 186.59 187.89 189.19 190.36 191.5 192.64 193.6 194.55 195.48 195.6 195.71 195.78 195.56 195.35 195.15 195 194.85 194.2 192.68 191.15 189.21 186.8 184.4 182.56 181.12 179.69 180.07 181.25 182.43 183.88 185.38 186.88 187.06 187.12 187.21 188.23 189.25 190.25 191.14 192.03 193.12 194.85 196.57 198.17 199.56 200.95 201.93 202.45 202.97 203.29 203.46 203.64 203.57 203.38 203.21 202.75 202.22 201.7 201.51 201.33 201.16 201.02 200.88 200.88 201.68 202.48 203.19 203.66 204.14
195.34 194.74 194.13 192.93 189.99 187.05 185 184.47 183.93 184.38 185.9 187.42 187.89 187.63 187.35 188.32 189.81 191.3 192.34 193.28 194.23 194.94 195.63 196.3 196.41 196.52 196.58 196.37 196.16 195.93 195.61 195.3 194.48 192.8 191.11 188.92 186.2 183.48 181.49 179.98 178.48 178.92 180.17 181.42 183.18 185.05 186.92 187.32 187.6 187.91 189.1 190.28 191.46 192.67 193.87 195.25 197.12 198.99 200.64 201.9 203.16 203.95 204.24 204.53 204.72 204.84 204.97 204.69 204.24 203.79 203.15 202.46 201.77 201.77 201.82 201.86 201.57 201.28 201.19 202.19 203.18 203.99 204.29 204.59
195.45 194.63 193.82 192.61 190.32 188.01 186.47 186.17 185.87 186.2 187.19 188.19 188.8 189.13 189.46 190.77 192.48 194.18 194.9 195.42 195.95 196.41 196.87 197.31 197.33 197.36 197.34 197.12 196.91 196.63 196.18 195.74 194.84 193.18 191.52 189.18 186.16 183.15 181.03 179.5 177.96 178.47 179.79 181.11 182.94 184.86 186.79 187.48 188.08 188.72 190.05 191.38 192.77 194.44 196.11 197.73 199.25 200.77 202.03 202.86 203.69 204.25 204.51 204.77 205.01 205.22 205.43 205.23 204.86 204.49 204.03 203.55 203.06 203 202.97 202.93 202.84 202.75 202.78 203.48 204.18 204.77 205.04 205.32
195.55 194.52 193.5 192.31 190.65 188.99 187.94 187.88 187.81 188 188.47 188.95 189.71 190.65 191.57 193.22 195.15 197.07 197.45 197.55 197.65 197.87 198.11 198.33 198.26 198.19 198.1 197.87 197.65 197.32 196.75 196.18 195.19 193.56 191.92 189.44 186.12 182.81 180.58 179.01 177.44 178.02 179.41 180.8 182.69 184.68 186.67 187.65 188.58 189.53 191.01 192.49 194.08 196.22 198.36 200.21 201.37 202.54 203.41 203.81 204.22 204.54 204.78 205.02 205.3 205.6 205.9 205.77 205.48 205.2 204.92 204.64 204.35 204.23 204.11 204.01 204.11 204.22 204.37 204.78 205.19 205.56 205.81 206.05
195.19 194.18 193.18 192.13 191 189.86 189.17 189.15 189.13 189.27 189.57 189.86 190.8 192.12 193.44 195.17 197.07 198.97 199.16 199.04 198.91 198.97 199.04 199.1 199.02 198.93 198.81 198.54 198.28 197.91 197.25 196.59 195.5 193.74 192 189.4 185.97 182.54 180.32 178.82 177.32 177.99 179.46 180.92 182.82 184.8 186.78 187.97 189.13 190.32 191.92 193.53 195.29 197.79 200.3 202.33 203.22 204.1 204.63 204.63 204.64 204.77 205 205.23 205.57 205.96 206.35 206.31 206.11 205.9 205.81 205.73 205.65 205.45 205.25 205.09 205.39 205.69 205.95 206.07 206.19 206.35 206.57 206.79
194.55 193.7 192.85 192.05 191.36 190.67 190.2 190.06 189.93 190.09 190.51 190.94 192.04 193.54 195.03 196.58 198.15 199.72 199.85 199.73 199.61 199.59 199.56 199.54 199.53 199.51 199.43 199.08 198.73 198.28 197.62 196.96 195.68 193.51 191.35 188.69 185.57 182.44 180.59 179.47 178.34 179.26 180.89 182.51 184.27 186.06 187.85 188.92 189.95 191.03 192.61 194.19 195.87 197.95 200.03 201.8 202.81 203.82 204.31 204.07 203.83 203.89 204.22 204.54 205.02 205.57 206.12 206.42 206.63 206.82 206.85 206.84 206.84 206.57 206.3 206.06 206.21 206.36 206.51 206.63 206.74 206.88 207.07 207.26
193.9 193.22 192.53 191.97 191.73 191.48 191.22 190.97 190.72 190.9 191.46 192.01 193.28 194.96 196.63 197.98 199.22 200.47 200.55 200.43 200.31 200.2 200.08 199.99 200.04 200.09 200.05 199.61 199.17 198.66 198 197.33 195.86 193.27 190.68 187.98 185.17 182.35 180.86 180.12 179.37 180.54 182.32 184.11 185.72 187.32 188.92 189.85 190.77 191.75 193.3 194.86 196.43 198.09 199.76 201.27 202.41 203.54 203.99 203.5 203.01 203.01 203.43 203.85 204.47 205.18 205.9 206.54 207.15 207.75 207.89 207.96 208.02 207.68 207.33 207.01 206.98 206.95 206.96 207.1 207.23 207.37 207.52 207.68
193.39 192.95 192.5 192.25 192.4 192.55 192.52 192.26 192 192.23 192.9 193.56 194.82 196.41 198.01 199.12 200.08 201.04 201.11 201.05 200.99 200.79 200.58 200.4 200.43 200.46 200.39 199.89 199.39 198.81 198.05 197.3 195.63 192.71 189.8 187.13 184.66 182.18 181.13 180.85 180.55 181.91 183.8 185.69 187.15 188.56 189.96 190.77 191.57 192.44 193.95 195.47 196.94 198.22 199.49 200.76 202 203.26 203.66 202.92 202.19 202.14 202.65 203.17 203.92 204.8 205.68 206.66 207.68 208.69 208.93 209.07 209.21 208.79 208.36 207.96 207.75 207.54 207.41 207.56 207.72 207.86 207.98 208.1
193 192.9 192.79 192.88 193.4 193.92 194.15 194.01 193.87 194.22 194.99 195.76 196.76 197.9 199.04 199.86 200.57 201.29 201.46 201.54 201.62 201.32 201.02 200.73 200.52 200.31 200.04 199.52 199 198.28 197.14 196.02 194.08 191.1 188.11 185.67 183.67 181.66 181.35 181.89 182.43 183.85 185.54 187.23 188.45 189.61 190.78 191.47 192.17 192.91 194.07 195.24 196.48 197.95 199.42 200.71 201.65 202.59 202.91 202.42 201.93 202.04 202.64 203.24 204.06 204.98 205.9 206.77 207.64 208.51 208.7 208.81 208.92 208.47 208.03 207.62 207.5 207.37 207.33 207.55 207.77 207.93 207.96 207.98
192.61 192.85 193.08 193.52 194.41 195.29 195.78 195.76 195.74 196.22 197.09 197.96 198.7 199.38 200.07 200.59 201.07 201.55 201.8 202.03 202.26 201.86 201.47 201.06 200.61 200.16 199.69 199.15 198.61 197.75 196.23 194.73 192.53 189.48 186.43 184.23 182.7 181.15 181.57 182.95 184.32 185.78 187.27 188.76 189.74 190.66 191.59 192.17 192.76 193.38 194.19 195 196.02 197.69 199.35 200.66 201.29 201.92 202.16 201.92 201.68 201.96 202.66 203.36 204.24 205.2 206.16 206.88 207.53 208.19 208.29 208.34 208.38 207.91 207.43 207.02 207.03 207.04 207.11 207.41 207.71 207.88 207.78 207.69
192.99 193.42 193.85 194.49 195.55 196.6 197.23 197.35 197.46 198 198.88 199.76 200.27 200.59 200.92 201.19 201.44 201.69 202.01 202.33 202.65 202.22 201.79 201.32 200.66 199.99 199.33 198.7 198.08 197.01 195.09 193.18 190.8 187.82 184.82 182.94 181.91 180.87 181.97 184.1 186.23 187.69 188.98 190.27 191.02 191.71 192.39 192.87 193.36 193.84 194.3 194.76 195.56 197.43 199.28 200.6 200.92 201.24 201.42 201.43 201.43 201.89 202.69 203.49 204.42 205.42 206.42 206.98 207.42 207.86 207.88 207.86 207.84 207.34 206.84 206.43 206.57 206.71 206.9 207.28 207.66 207.82 207.61 207.4
194.41 194.87 195.33 195.95 196.87 197.79 198.4 198.65 198.89 199.38 200.06 200.75 201.07 201.22 201.37 201.44 201.49 201.55 201.8 202.06 202.32 202.02 201.71 201.34 200.55 199.76 198.91 197.86 196.83 195.27 192.74 190.21 187.92 185.88 183.82 182.89 182.79 182.68 184.06 186.11 188.17 189.39 190.4 191.42 192.23 193.01 193.78 194.17 194.55 194.95 195.38 195.8 196.47 197.86 199.26 200.3 200.68 201.05 201.38 201.65 201.92 202.41 203.07 203.72 204.45 205.2 205.97 206.39 206.72 207.05 207.09 207.11 207.11 206.89 206.66 206.48 206.64 206.79 206.98 207.28 207.57 207.7 207.53 207.36
195.82 196.31 196.8 197.4 198.19 198.98 199.58 199.95 200.32 200.75 201.24 201.74 201.87 201.84 201.82 201.69 201.54 201.4 201.58 201.8 202 201.82 201.64 201.35 200.44 199.52 198.47 197.02 195.58 193.52 190.37 187.24 185.07 183.95 182.82 182.85 183.69 184.51 186.14 188.12 190.11 191.08 191.82 192.56 193.43 194.31 195.16 195.46 195.75 196.07 196.48 196.89 197.43 198.33 199.23 199.98 200.45 200.91 201.42 201.97 202.52 203.02 203.5 203.97 204.43 204.89 205.35 205.63 205.88 206.12 206.21 206.27 206.34 206.49 206.63 206.77 206.91 207.05 207.19 207.33 207.48 207.55 207.5 207.45
196.98 197.54 198.1 198.71 199.41 200.1 200.71 201.21 201.72 202.07 202.32 202.58 202.52 202.34 202.16 201.88 201.59 201.29 201.41 201.57 201.72 201.61 201.5 201.26 200.21 199.17 197.92 196.05 194.2 191.69 188.03 184.36 182.35 182.14 181.91 182.86 184.61 186.37 188.23 190.14 192.05 192.77 193.23 193.7 194.64 195.61 196.55 196.75 196.95 197.19 197.59 197.98 198.38 198.78 199.2 199.67 200.23 200.78 201.47 202.3 203.13 203.63 203.92 204.22 204.41 204.57 204.73 204.88 205.04 205.19 205.32 205.44 205.58 206.1 206.61 207.05 207.17 207.3 207.39 207.38 207.38 207.41 207.48 207.54
197.62 198.32 199.01 199.7 200.38 201.07 201.74 202.37 203.01 203.19 203.06 202.94 202.7 202.4 202.11 201.86 201.61 201.37 201.46 201.57 201.67 201.29 200.91 200.4 199.15 197.89 196.32 193.87 191.42 188.92 186.27 183.61 182.51 183.02 183.52 184.74 186.45 188.17 189.81 191.44 193.07 193.96 194.68 195.39 196.2 197.01 197.8 197.96 198.12 198.33 198.77 199.22 199.62 199.94 200.26 200.64 201.13 201.62 202.24 203 203.76 204.11 204.19 204.28 204.36 204.44 204.51 204.71 204.92 205.13 205.39 205.65 205.92 206.46 207 207.48 207.65 207.83 207.93 207.88 207.83 207.82 207.88 207.94
198.27 199.1 199.92 200.69 201.36 202.04 202.76 203.54 204.31 204.3 203.8 203.3 202.87 202.46 202.06 201.83 201.64 201.44 201.5 201.57 201.61 200.96 200.32 199.55 198.08 196.61 194.71 191.67 188.64 186.16 184.53 182.88 182.67 183.91 185.13 186.63 188.3 189.97 191.39 192.73 194.07 195.13 196.12 197.11 197.78 198.43 199.05 199.17 199.29 199.48 199.97 200.47 200.91 201.22 201.53 201.88 202.28 202.68 203.19 203.8 204.41 204.55 204.42 204.28 204.3 204.38 204.45 204.75 205.1 205.44 205.89 206.34 206.79 207.2 207.61 208 208.26 208.52 208.7 208.67 208.65 208.62 208.59 208.57
199.09 199.97 200.86 201.66 202.34 203.01 203.77 204.61 205.46 205.29 204.47 203.66 203.07 202.57 202.08 201.86 201.7 201.54 201.56 201.59 201.55 200.64 199.72 198.68 196.99 195.31 193.08 189.46 185.84 183.43 182.81 182.16 182.85 184.81 186.76 188.51 190.14 191.77 192.96 194.01 195.06 196.3 197.58 198.84 199.36 199.84 200.29 200.37 200.46 200.63 201.18 201.73 202.2 202.5 202.8 203.11 203.42 203.74 204.13 204.59 205.05 204.99 204.64 204.28 204.24 204.32 204.39 204.81 205.28 205.75 206.39 207.04 207.66 207.94 208.22 208.51 208.87 209.22 209.47 209.47 209.47 209.42 209.31 209.2
200.49 201.18 201.88 202.58 203.3 204.01 204.66 205.25 205.84 205.59 204.84 204.08 203.54 203.08 202.62 202.35 202.11 201.87 201.8 201.73 201.58 200.31 199.06 197.63 195.42 193.23 190.89 188.18 185.46 183.84 183.83 183.81 184.85 186.88 188.91 190.41 191.62 192.83 193.9 194.93 195.96 197.24 198.57 199.9 200.39 200.84 201.27 201.46 201.64 201.89 202.44 203 203.44 203.62 203.8 203.99 204.19 204.39 204.68 205.03 205.39 205.28 204.89 204.51 204.5 204.61 204.72 205.23 205.81 206.38 207.11 207.85 208.54 208.73 208.93 209.15 209.45 209.76 209.99 210 210.02 209.99 209.89 209.78
201.88 202.39 202.89 203.5 204.26 205.02 205.55 205.88 206.22 205.9 205.2 204.5 204.01 203.59 203.16 202.83 202.52 202.2 202.03 201.87 201.59 199.98 198.38 196.57 193.84 191.13 188.71 186.93 185.14 184.34 184.96 185.57 186.95 189.02 191.09 192.31 193.05 193.8 194.77 195.81 196.84 198.15 199.5 200.84 201.31 201.76 202.2 202.52 202.84 203.19 203.73 204.27 204.65 204.67 204.7 204.75 204.81 204.88 205.06 205.33 205.6 205.5 205.18 204.85 204.91 205.1 205.28 205.89 206.56 207.23 207.98 208.73 209.42 209.57 209.72 209.87 210.02 210.17 210.27 210.3 210.32 210.33 210.32 210.32
203.16 203.49 203.82 204.34 205.12 205.9 206.33 206.44 206.56 206.19 205.55 204.91 204.46 204.08 203.69 203.31 202.92 202.53 202.27 202.01 201.6 199.65 197.7 195.49 192.26 189.03 186.55 185.7 184.83 184.85 186.1 187.34 189.05 191.17 193.28 194.2 194.48 194.76 195.63 196.68 197.73 199.05 200.42 201.78 202.24 202.69 203.13 203.58 204.03 204.49 205.02 205.54 205.86 205.73 205.6 205.5 205.43 205.37 205.44 205.62 205.81 205.71 205.46 205.2 205.33 205.59 205.84 206.54 207.32 208.09 208.85 209.61 210.31 210.41 210.52 210.6 210.58 210.56 210.56 210.59 210.61 210.67 210.76 210.86
203.73 203.95 204.17 204.53 205.07 205.61 206 206.25 206.51 206.18 205.53 204.89 204.4 203.96 203.52 202.93 202.33 201.72 200.8 199.88 198.87 196.91 194.95 192.96 190.8 188.61 187.07 186.9 186.72 187.17 188.44 189.71 191.21 192.89 194.58 195.52 196.06 196.59 197.41 198.32 199.23 200.39 201.57 202.76 203.03 203.3 203.58 204.01 204.44 204.9 205.46 206.02 206.33 206.15 205.96 205.86 205.86 205.85 205.93 206.07 206.21 206.13 205.93 205.74 205.93 206.22 206.52 207.32 208.18 209.03 209.8 210.57 211.26 211.29 211.33 211.33 211.18 211.04 210.96 211.01 211.06 211.13 211.23 211.34
204.31 204.41 204.52 204.71 205.01 205.32 205.67 206.07 206.46 206.16 205.52 204.88 204.35 203.85 203.35 202.55 201.72 200.89 199.27 197.66 196.03 194.06 192.09 190.34 189.37 188.37 187.87 188.39 188.9 189.72 190.95 192.18 193.37 194.52 195.69 196.72 197.68 198.62 199.41 200.16 200.91 201.84 202.79 203.75 203.77 203.79 203.85 204.19 204.52 204.92 205.51 206.11 206.44 206.23 206.03 206 206.17 206.34 206.49 206.61 206.74 206.69 206.56 206.42 206.65 206.98 207.31 208.19 209.13 210.07 210.84 211.6 212.27 212.22 212.16 212.07 211.84 211.61 211.5 211.61 211.73 211.78 211.76 211.74
204.88 204.87 204.87 204.89 204.96 205.02 205.35 205.88 206.41 206.15 205.51 204.87 204.29 203.73 203.18 202.17 201.11 200.05 197.74 195.44 193.18 191.2 189.22 187.74 187.96 188.16 188.69 189.9 191.09 192.27 193.46 194.64 195.52 196.15 196.8 197.94 199.3 200.66 201.41 202 202.59 203.29 204.01 204.72 204.5 204.28 204.12 204.36 204.6 204.93 205.57 206.21 206.54 206.32 206.1 206.14 206.49 206.84 207.05 207.16 207.26 207.25 207.18 207.11 207.38 207.74 208.1 209.06 210.09 211.11 211.87 212.64 213.28 213.14 212.99 212.81 212.49 212.17 212.04 212.22 212.4 212.43 212.28 212.13
205.54 205.41 205.28 205.22 205.25 205.28 205.44 205.71 205.98 205.63 204.97 204.32 203.74 203.19 202.63 201.27 199.83 198.39 195.99 193.59 191.35 190.25 189.12 188.38 188.89 189.4 190.13 191.26 192.41 193.57 194.76 195.95 196.79 197.38 197.96 199.11 200.52 201.94 202.64 203.16 203.68 204.24 204.8 205.34 205.09 204.84 204.65 204.85 205.04 205.32 205.82 206.33 206.61 206.46 206.3 206.43 206.88 207.32 207.63 207.82 208.02 208.04 207.99 207.94 208.22 208.58 208.94 209.92 210.96 212 212.72 213.45 214.04 213.85 213.65 213.4 213.03 212.66 212.52 212.77 213.01 213.03 212.8 212.57
206.19 205.94 205.68 205.55 205.54 205.53 205.53 205.53 205.54 205.08 204.41 203.74 203.16 202.61 202.05 200.32 198.48 196.63 194.21 191.79 189.69 189.62 189.54 189.63 190.3 190.96 191.7 192.59 193.49 194.53 195.72 196.91 197.8 198.47 199.14 200.26 201.58 202.9 203.54 204.03 204.51 204.94 205.37 205.79 205.62 205.45 205.33 205.53 205.72 205.94 206.2 206.47 206.64 206.63 206.62 206.85 207.32 207.79 208.22 208.61 208.99 209.06 208.99 208.92 209.18 209.52 209.86 210.77 211.72 212.66 213.29 213.91 214.41 214.21 214.01 213.76 213.38 213.01 212.88 213.19 213.49 213.54 213.32 213.1
206.85 206.47 206.09 205.87 205.83 205.79 205.61 205.35 205.09 204.53 203.84 203.16 202.58 202.03 201.48 199.36 197.11 194.87 192.43 189.99 188.05 189.02 189.98 190.89 191.71 192.52 193.27 193.92 194.57 195.48 196.67 197.86 198.8 199.56 200.33 201.41 202.63 203.86 204.45 204.89 205.34 205.65 205.94 206.23 206.15 206.06 206.02 206.21 206.4 206.55 206.58 206.61 206.68 206.81 206.95 207.26 207.76 208.26 208.82 209.4 209.98 210.08 210 209.91 210.15 210.46 210.78 211.61 212.48 213.33 213.85 214.38 214.79 214.58 214.37 214.11 213.73 213.35 213.25 213.61 213.97 214.05 213.84 213.64
205.96 205.67 205.37 205.2 205.15 205.11 204.95 204.71 204.46 204.02 203.5 202.96 202.31 201.62 200.94 198.58 196.1 193.64 191.77 189.88 188.46 189.72 190.97 192.07 192.73 193.39 194.13 194.97 195.81 196.8 197.95 199.11 200.06 200.89 201.71 202.7 203.77 204.85 205.33 205.7 206.06 206.26 206.44 206.62 206.69 206.75 206.84 207.12 207.39 207.55 207.42 207.29 207.25 207.37 207.49 207.79 208.28 208.77 209.4 210.12 210.84 211.05 211.06 211.07 211.34 211.65 211.97 212.69 213.43 214.16 214.53 214.91 215.2 215.02 214.84 214.61 214.27 213.93 213.84 214.16 214.49 214.55 214.34 214.13
205 204.79 204.57 204.44 204.39 204.33 204.2 204.01 203.81 203.52 203.18 202.84 202.09 201.25 200.42 197.85 195.17 192.57 191.42 190.26 189.49 190.82 192.15 193.22 193.61 194 194.72 195.92 197.12 198.28 199.38 200.49 201.46 202.33 203.2 204.08 204.96 205.85 206.21 206.45 206.7 206.79 206.88 206.98 207.24 207.5 207.78 208.23 208.67 208.92 208.73 208.54 208.39 208.33 208.28 208.47 208.89 209.32 209.97 210.75 211.53 211.95 212.23 212.51 212.89 213.29 213.68 214.23 214.79 215.33 215.47 215.61 215.72 215.67 215.61 215.53 215.38 215.24 215.15 215.14 215.14 215 214.72 214.45
204.04 203.91 203.78 203.68 203.62 203.56 203.45 203.31 203.17 203.02 202.88 202.73 201.87 200.88 199.89 197.11 194.23 191.5 191.08 190.65 190.52 191.92 193.33 194.37 194.49 194.61 195.31 196.88 198.45 199.75 200.81 201.87 202.85 203.77 204.69 205.45 206.15 206.86 207.08 207.21 207.34 207.33 207.32 207.33 207.79 208.25 208.73 209.34 209.94 210.3 210.04 209.79 209.54 209.3 209.06 209.14 209.5 209.87 210.53 211.37 212.21 212.85 213.41 213.97 214.45 214.92 215.39 215.77 216.15 216.5 216.4 216.31 216.25 216.31 216.38 216.44 216.5 216.55 216.45 216.11 215.79 215.45 215.11 214.76
203.38 203.28 203.17 203.09 203.04 203 202.92 202.82 202.72 202.59 202.46 202.32 201.08 199.65 198.23 195.77 193.24 190.91 191.31 191.7 192.18 193.19 194.2 195 195.26 195.52 196.35 198.05 199.74 201.14 202.26 203.37 204.31 205.16 206.01 206.64 207.21 207.77 207.9 207.94 207.99 207.99 207.99 208.03 208.62 209.21 209.81 210.46 211.12 211.48 211.16 210.84 210.54 210.26 209.97 209.97 210.23 210.5 211.17 212.07 212.98 213.78 214.55 215.31 215.89 216.43 216.97 217.2 217.42 217.61 217.35 217.08 216.9 217.09 217.28 217.46 217.64 217.83 217.68 217.07 216.45 215.94 215.52 215.1
202.78 202.69 202.6 202.54 202.51 202.49 202.44 202.39 202.34 202.18 202 201.81 200.09 198.12 196.15 194.2 192.24 190.51 191.8 193.06 194.15 194.52 194.89 195.36 195.99 196.62 197.67 199.35 201.02 202.47 203.71 204.95 205.82 206.5 207.17 207.68 208.15 208.61 208.67 208.66 208.66 208.79 208.93 209.11 209.77 210.42 211.06 211.6 212.13 212.38 211.98 211.58 211.31 211.21 211.11 211.1 211.19 211.28 211.95 212.93 213.91 214.76 215.57 216.38 216.99 217.57 218.15 218.29 218.43 218.53 218.35 218.17 218.1 218.43 218.75 218.96 218.91 218.86 218.56 217.91 217.27 216.7 216.19 215.68
202.18 202.1 202.02 201.99 201.98 201.98 201.97 201.96 201.95 201.77 201.54 201.31 199.09 196.57 194.06 192.64 191.24 190.14 192.3 194.44 196.1 195.83 195.58 195.72 196.72 197.72 198.99 200.64 202.3 203.8 205.17 206.53 207.33 207.83 208.33 208.72 209.08 209.44 209.44 209.38 209.33 209.6 209.87 210.18 210.91 211.64 212.3 212.73 213.15 213.29 212.81 212.33 212.09 212.17 212.24 212.23 212.14 212.06 212.72 213.78 214.84 215.74 216.6 217.45 218.1 218.72 219.34 219.39 219.43 219.46 219.36 219.27 219.29 219.76 220.23 220.46 220.17 219.89 219.44 218.76 218.08 217.45 216.85 216.25
201.98 201.86 201.73 201.64 201.59 201.53 201.43 201.3 201.17 200.93 200.67 200.4 197.96 195.2 192.44 191.79 191.15 190.77 193 195.23 196.94 196.6 196.24 196.44 197.81 199.18 200.62 202.16 203.71 205.11 206.38 207.66 208.38 208.78 209.19 209.55 209.9 210.25 210.31 210.34 210.36 210.73 211.1 211.5 212.23 212.95 213.6 213.94 214.27 214.34 213.85 213.36 213.17 213.37 213.57 213.52 213.28 213.04 213.66 214.72 215.79 216.72 217.62 218.51 219.18 219.81 220.45 220.42 220.39 220.36 220.34 220.32 220.44 221.04 221.64 221.87 221.39 220.9 220.31 219.6 218.89 218.2 217.51 216.83
201.92 201.73 201.54 201.38 201.25 201.12 200.85 200.52 200.2 199.89 199.59 199.29 196.76 193.92 191.09 191.36 191.63 192.05 193.82 195.6 196.99 196.95 196.91 197.45 199.21 200.96 202.53 203.89 205.25 206.39 207.35 208.32 208.9 209.3 209.69 210.12 210.57 211.02 211.34 211.65 211.94 212.37 212.79 213.23 213.84 214.46 215 215.31 215.62 215.72 215.39 215.07 214.98 215.19 215.4 215.3 214.97 214.64 215.1 215.96 216.82 217.71 218.61 219.5 220.08 220.62 221.15 221.15 221.15 221.14 221.12 221.09 221.19 221.68 222.17 222.36 222.01 221.65 221.09 220.29 219.5 218.67 217.83 217
201.86 201.6 201.34 201.11 200.9 200.7 200.28 199.75 199.23 198.85 198.51 198.18 195.56 192.65 189.74 190.94 192.13 193.32 194.63 195.96 197.05 197.32 197.58 198.47 200.61 202.74 204.44 205.61 206.79 207.66 208.31 208.96 209.43 209.81 210.18 210.7 211.25 211.79 212.38 212.96 213.53 214.01 214.48 214.96 215.46 215.96 216.41 216.68 216.96 217.09 216.94 216.78 216.8 217.02 217.23 217.09 216.66 216.23 216.54 217.2 217.85 218.7 219.59 220.49 220.98 221.42 221.86 221.88 221.9 221.92 221.89 221.87 221.94 222.32 222.69 222.86 222.63 222.39 221.86 220.98 220.1 219.15 218.15 217.16
201.61 201.32 201.03 200.76 200.49 200.23 199.85 199.4 198.96 198.41 197.85 197.29 194.79 192.05 189.34 191.04 192.73 194.34 195.31 196.3 197.2 197.83 198.45 199.64 201.94 204.23 205.95 206.99 208.02 208.71 209.15 209.59 210.01 210.43 210.84 211.44 212.09 212.73 213.53 214.34 215.14 215.66 216.18 216.68 217.07 217.46 217.81 218.06 218.31 218.47 218.47 218.48 218.58 218.8 219.02 218.84 218.38 217.9 218.07 218.53 219 219.78 220.65 221.53 221.91 222.25 222.58 222.61 222.64 222.67 222.64 222.62 222.68 222.95 223.22 223.36 223.25 223.14 222.63 221.66 220.69 219.62 218.47 217.33
201.28 200.98 200.68 200.36 200.05 199.73 199.51 199.35 199.17 198.4 197.49 196.57 194.36 192 189.72 191.57 193.42 195.12 195.87 196.62 197.45 198.5 199.55 200.99 203.17 205.35 206.95 207.89 208.83 209.44 209.81 210.18 210.68 211.23 211.78 212.49 213.25 214 214.92 215.86 216.78 217.34 217.89 218.41 218.68 218.96 219.22 219.45 219.68 219.86 219.98 220.09 220.23 220.4 220.58 220.5 220.25 219.99 220.19 220.6 221 221.63 222.32 223.01 223.21 223.37 223.51 223.25 223 222.77 222.66 222.55 222.5 222.62 222.75 222.81 222.76 222.71 222.19 221.19 220.18 219.11 218 216.89
200.94 200.63 200.32 199.97 199.6 199.23 199.19 199.29 199.4 198.39 197.11 195.85 193.94 191.97 190.1 192.11 194.11 195.91 196.42 196.94 197.7 199.18 200.66 202.34 204.41 206.47 207.95 208.8 209.65 210.17 210.47 210.77 211.35 212.04 212.72 213.55 214.41 215.26 216.32 217.38 218.43 219.02 219.6 220.13 220.29 220.46 220.64 220.84 221.04 221.26 221.48 221.71 221.88 222.01 222.13 222.16 222.12 222.08 222.31 222.65 223 223.48 223.98 224.49 224.5 224.48 224.44 223.9 223.36 222.88 222.67 222.47 222.32 222.29 222.27 222.25 222.23 222.22 221.69 220.64 219.59 218.53 217.46 216.38
200.7 200.42 200.15 199.86 199.57 199.28 199.33 199.53 199.73 198.4 196.72 195.05 193.66 192.27 190.99 192.96 194.93 196.67 197.09 197.51 198.3 200.11 201.93 203.76 205.64 207.53 208.84 209.55 210.26 210.71 211 211.28 211.92 212.71 213.49 214.41 215.35 216.3 217.44 218.6 219.74 220.36 220.99 221.53 221.62 221.72 221.84 222.04 222.24 222.49 222.82 223.15 223.37 223.47 223.58 223.72 223.9 224.07 224.34 224.66 224.96 225.3 225.63 225.97 225.8 225.6 225.36 224.53 223.71 222.98 222.69 222.39 222.13 221.95 221.78 221.68 221.71 221.74 221.19 220.1 219 217.94 216.91 215.88
200.54 200.34 200.13 200 199.92 199.83 199.91 200.05 200.19 198.45 196.31 194.18 193.53 192.97 192.51 194.2 195.9 197.42 197.95 198.48 199.41 201.43 203.45 205.3 206.88 208.48 209.51 209.97 210.44 210.85 211.23 211.6 212.26 213.02 213.79 214.71 215.66 216.61 217.67 218.74 219.78 220.39 220.99 221.51 221.64 221.76 221.91 222.15 222.4 222.64 222.9 223.16 223.4 223.61 223.81 224 224.19 224.37 224.72 225.13 225.54 225.8 226.03 226.26 226.09 225.91 225.69 224.9 224.12 223.38 222.85 222.32 221.88 221.65 221.42 221.27 221.22 221.17 220.68 219.76 218.85 217.92 216.99 216.06
200.38 200.25 200.12 200.14 200.27 200.39 200.48 200.56 200.64 198.49 195.89 193.29 193.42 193.69 194.02 195.44 196.87 198.17 198.81 199.45 200.53 202.75 204.97 206.83 208.12 209.42 210.17 210.39 210.61 210.99 211.45 211.92 212.59 213.34 214.09 215.01 215.96 216.92 217.89 218.87 219.83 220.41 221 221.5 221.65 221.8 221.98 222.27 222.55 222.8 222.99 223.18 223.43 223.74 224.05 224.29 224.48 224.68 225.1 225.61 226.11 226.29 226.41 226.54 226.38 226.21 226 225.27 224.54 223.79 223.01 222.24 221.61 221.35 221.08 220.87 220.73 220.59 220.16 219.48 218.79 218.02 217.21 216.39
